# .PCD v0.7 - Point Cloud Data file format
VERSION 0.7
FIELDS x y z
SIZE 4 4 4
TYPE F F F
COUNT 1 1 1
WIDTH 987
HEIGHT 1
VIEWPOINT 0 0 0 1 0 0 0
POINTS 987
DATA ascii
-0.1209096 -0.3331356 -0.28321999
0.069558486 -0.33238509 -0.28321999
-0.18889499 -0.32191312 -0.28321999
0.060022086 -0.32094812 -0.28321999
0.15652162 -0.32592461 -0.28321999
0.14865761 -0.31188011 -0.28321999
0.11700461 -0.30658558 -0.28321999
0.20054412 -0.30048999 -0.28450251
-0.11863609 -0.29371589 -0.28321999
0.0086218826 -0.29527301 -0.2839846
0.12243855 -0.29405364 -0.28321999
0.13287133 -0.29382187 -0.2847105
-0.15666582 -0.28789926 -0.28321999
0.0088946912 -0.28298482 -0.28321999
-0.064149924 -0.27834707 -0.28321999
-0.076573767 -0.26356164 -0.28321999
-0.028216884 -0.26385573 -0.28321999
-0.1936606 -0.25834736 -0.28321999
-0.16521142 -0.25213364 -0.28321999
0.17686272 -0.2514976 -0.28321999
0.01439701 -0.24080467 -0.28321999
0.17062989 -0.24389967 -0.28321999
-0.087001197 -0.23770577 -0.28321999
0.022558346 -0.22651006 -0.28321999
0.066167727 -0.221394 -0.28321999
0.0097488463 -0.21483272 -0.28321999
0.10890979 -0.21594916 -0.28321999
0.22216298 -0.21917608 -0.28321999
-0.17236716 -0.2054725 -0.28321999
-0.063046932 -0.20979856 -0.28321999
-0.059216432 -0.20927274 -0.28321999
0.0076112226 -0.20471081 -0.28321999
0.14582054 -0.20837553 -0.28321999
-0.057499684 -0.1980802 -0.28321999
0.1676656 -0.19361547 -0.28321999
-0.09483324 -0.17203479 -0.28321999
0.024502292 -0.16132662 -0.28321999
-0.20204629 -0.15026505 -0.28321999
0.023671534 -0.15636432 -0.28321999
0.16734934 -0.14522818 -0.28321999
-0.023242362 -0.13646981 -0.28321999
-0.17614844 -0.12407567 -0.28321999
-0.030472111 -0.12820254 -0.28321999
0.073148891 -0.12781471 -0.28321999
0.10114928 -0.12502789 -0.28321999
-0.030866303 -0.11470164 -0.28321999
-0.013268352 -0.11442176 -0.28321999
0.01013235 -0.11231398 -0.28321999
-0.018263027 -0.093305536 -0.28321999
-0.231399 -0.088653252 -0.28311613
-0.051851526 -0.082675241 -0.28321999
-0.020432547 -0.089674838 -0.28321999
-0.22924428 -0.067331716 -0.28321999
-0.15695059 -0.060067959 -0.28321999
-0.019815542 -0.06992612 -0.28321999
-0.20538825 -0.056247838 -0.28321999
-0.17944872 -0.057397023 -0.28321999
-0.018036654 -0.059610546 -0.28321999
0.21601528 -0.057057641 -0.28321999
-0.18674499 -0.046303794 -0.28321999
0.015154692 -0.040126026 -0.28321999
-0.15151827 -0.036292598 -0.28321999
-0.13260011 -0.037500307 -0.28321999
0.046939842 -0.030553073 -0.28321999
0.029499866 -0.02045472 -0.28321999
0.12631086 -0.021420948 -0.28321999
-0.19302666 -0.0088631287 -0.28321999
0.034001775 -0.0072125793 -0.28321999
0.17270261 -0.0010473728 -0.28321999
-0.049215481 0.0054957867 -0.28321999
0.088845499 0.0097906142 -0.28321999
0.1212712 0.0095019042 -0.28321999
-0.20433065 0.034649119 -0.28321999
-0.11085798 0.037398972 -0.28321999
-0.10959688 0.048074014 -0.28321999
-0.231399 0.053603128 -0.28172031
-0.18770418 0.05021356 -0.28321999
-0.17582953 0.05822736 -0.28321999
-0.13430634 0.050968446 -0.28321999
-0.058254126 0.052504327 -0.28321999
0.056930263 0.050080717 -0.28321999
-0.072445035 0.063066296 -0.28321999
0.22644341 0.060378708 -0.28321999
-0.13895853 0.0796877 -0.28321999
-0.097044677 0.077918932 -0.28321999
-0.231399 0.085854612 -0.28178138
-0.17073035 0.084585242 -0.28321999
0.22841799 0.089615054 -0.28038812
-0.16628042 0.10928431 -0.28321999
-0.11023029 0.10936666 -0.28321999
0.12166193 0.10107952 -0.28321999
0.16970894 0.11588226 -0.28321999
0.09161672 0.12042675 -0.28321999
0.21422358 0.12893844 -0.28321999
0.06923753 0.14118272 -0.28321999
-0.17396678 0.15507263 -0.28321999
-0.13889183 0.15647715 -0.28321999
0.21025452 0.15792447 -0.28321999
0.024625696 0.16060892 -0.28321999
0.094145745 0.16822174 -0.28321999
0.13192251 0.16199633 -0.28321999
0.22841799 0.16852632 -0.28106704
-0.11513471 0.17979029 -0.28321999
0.18272613 0.17044686 -0.28321999
-0.21588337 0.18028802 -0.28321999
-0.1083671 0.18487197 -0.28321999
0.14121461 0.18774372 -0.28321999
-0.014085636 0.19532907 -0.28321999
0.18459755 0.19733009 -0.28321999
-0.012086727 0.20216018 -0.28321999
-0.229977 0.21984179 -0.28321999
-0.12182225 0.21301916 -0.28321999
0.041696027 0.22327423 -0.28321999
0.086803026 0.22511062 -0.28321999
0.11331064 0.22286852 -0.28321999
-0.15742558 0.23142016 -0.28321999
0.024884112 0.23127389 -0.28321999
0.14087892 0.23921363 -0.28321999
0.17897208 0.23736152 -0.28321999
-0.11259267 0.24939682 -0.28321999
0.09438882 0.24118727 -0.28321999
0.10322551 0.24511337 -0.28321999
-0.16486362 0.25731397 -0.28321999
-0.008999452 0.25074092 -0.28321999
0.081164822 0.25599846 -0.28321999
0.096483968 0.25839755 -0.28321999
-0.16340645 0.26087424 -0.28321999
-0.017566815 0.26638699 -0.28321999
-0.080500171 0.27088001 -0.28028962
0.01952121 0.27885222 -0.28321999
-0.17345147 0.28025332 -0.28321999
-0.16968125 0.28153533 -0.28321999
-0.1836013 0.29605871 -0.28280672
-0.098808669 -0.33844301 -0.27462199
-0.231399 -0.29789978 -0.2705797
0.22841799 -0.19009644 -0.27212837
0.22841799 -0.14913705 -0.27626002
0.22841799 0.15734302 -0.2733798
0.22841799 0.1907748 -0.27585563
-0.21720552 0.27087998 -0.27323127
0.22841799 0.28358173 -0.27818531
-0.022509366 0.29409599 -0.27266881
0.0013047198 0.29409599 -0.27198723
0.17111051 0.29409599 -0.27549762
0.19689099 0.29999292 -0.27161682
0.0026033372 0.30576599 -0.27168453
0.03607709 0.30576599 -0.27918491
-0.22337966 -0.33844301 -0.26822817
0.16870126 -0.33844301 -0.26232749
0.22841799 -0.31733775 -0.26758432
-0.231399 -0.25636747 -0.2604425
-0.17226194 0.27088001 -0.26883551
0.1013224 0.27088001 -0.26150343
0.13074894 0.27088001 -0.26149133
-0.12108062 0.29409599 -0.26753154
-0.033101834 -0.33836436 -0.25174606
0.026831709 -0.33725309 -0.25102666
0.09387961 -0.33844301 -0.2583243
0.22841799 -0.30921981 -0.25015914
0.22841799 -0.21959245 -0.2537992
0.22841798 0.18286203 -0.25521484
-0.063017771 0.29409599 -0.25932455
0.18454024 0.29409599 -0.25826377
0.21718152 0.29825529 -0.2557801
-0.14434932 0.30576599 -0.25566876
0.0090362057 0.30576599 -0.25147542
-0.231399 -0.32669449 -0.24574322
0.22779161 -0.32615891 -0.24384454
0.11206701 0.27088001 -0.24731411
-0.18387634 0.29409599 -0.24043928
-0.060502604 0.29409599 -0.24656932
-0.19389386 0.30990481 -0.24582779
-0.16173878 0.30576599 -0.24715802
0.18185829 0.30576599 -0.2400645
0.11312408 -0.3154394 -0.23690493
0.083707057 -0.30646914 -0.23109779
0.16857889 -0.30558574 -0.23052591
0.18579905 -0.30972707 -0.2332069
0.22841799 -0.23491895 -0.23283863
-0.231399 -0.17589748 -0.23994261
-0.231399 -0.15235826 -0.23438285
-0.231399 -0.092089079 -0.23456922
0.22841799 -0.098000363 -0.23926404
0.22841799 -0.081519827 -0.23573828
0.22841799 -0.069337189 -0.2343536
-0.231399 0.054015934 -0.23956539
-0.231399 0.098796703 -0.23751739
0.22841799 0.14499724 -0.23984198
-0.231399 0.19405189 -0.23973416
0.19446588 0.27088001 -0.23637022
0.20184821 0.27088001 -0.23395894
0.15812023 0.29409599 -0.23868023
-0.11772138 -0.30048999 -0.22490536
0.01271645 -0.30048999 -0.22668019
0.050581086 -0.30329588 -0.22904348
-0.231399 -0.26906702 -0.22297868
0.22841799 -0.152751 -0.22430004
-0.231399 -0.08888077 -0.22385907
-0.231399 -0.05448591 -0.22550929
0.22841799 0.032603033 -0.22881712
0.22841799 0.22370426 -0.22484952
0.061127059 0.27088001 -0.22420304
-0.14867409 0.29409599 -0.22894876
-0.037603304 0.29409599 -0.22938393
0.088747568 0.29409599 -0.22387114
-0.19258717 0.30891061 -0.22977388
-0.10072304 0.30576599 -0.22974402
-0.1566276 -0.30048999 -0.21793349
0.04163152 -0.30048999 -0.21843608
0.22841799 -0.23813833 -0.21967903
-0.231399 -0.12454773 -0.21684124
0.22841799 -0.097670093 -0.21794993
-0.231399 0.068631448 -0.21814315
-0.231399 0.30952033 -0.21491657
-0.006571237 0.30576599 -0.21873237
0.15891288 0.30576599 -0.21239448
-0.231399 -0.24375646 -0.20431872
0.22841799 -0.10838161 -0.2079826
-0.231399 0.05367177 -0.20738898
-0.231399 0.093452722 -0.20545861
-0.231399 0.12546675 -0.20376164
0.22841799 0.19870062 -0.20977414
0.1666204 0.29409599 -0.20197743
-0.15057355 -0.30048999 -0.19647558
-0.056971572 -0.30048996 -0.19473855
0.231399 -0.29921451 -0.1915729
-0.231399 0.067394227 -0.19369391
-0.231399 0.14459604 -0.19305111
0.22841799 0.15381476 -0.19843207
-0.231399 0.16837613 -0.19197457
-0.18144695 0.27088001 -0.19833162
-0.17023611 0.27088001 -0.19786847
-0.0575791 0.29409599 -0.19602044
0.063273653 0.30576599 -0.19411251
0.20796652 0.30166629 -0.19440645
-0.231399 0.33602208 -0.19897243
0.16862637 -0.30048999 -0.18004763
-0.231399 -0.2060542 -0.18678422
0.22841799 0.027068913 -0.18964884
0.22841799 0.085770428 -0.1819112
0.22841799 0.1518313 -0.1832086
-0.231399 0.18405405 -0.18122041
0.22841799 0.25328922 -0.18737516
-0.231399 0.2794168 -0.18316345
0.20409402 0.27087998 -0.18578616
-0.11990806 0.29409599 -0.18780661
-0.097591907 0.29409599 -0.18357192
-0.025098562 0.29409599 -0.18590248
-0.11101972 0.30576599 -0.18662962
-0.10413814 0.30576599 -0.18624911
-0.14660956 -0.30048999 -0.17904963
0.22841799 -0.2328946 -0.17423818
-0.231399 -0.20926584 -0.17654055
0.22841799 -0.20848113 -0.17886005
0.22841799 -0.17470258 -0.17898016
-0.231399 -0.15849568 -0.17255859
0.22841799 0.044286668 -0.17065205
0.22841799 0.059817094 -0.17906854
0.22841799 0.15207303 -0.17048398
0.22841799 0.19105412 -0.17526163
-0.231399 0.23158288 -0.17804061
-0.18831453 0.27088001 -0.17759475
-0.027951553 0.27088001 -0.17362036
0.059642293 0.27088001 -0.1756092
-0.231399 0.31957287 -0.17028192
-0.231399 -0.25802809 -0.16439034
0.22841799 -0.15484218 -0.16617632
0.22841799 -0.080058619 -0.16396083
-0.231399 -0.006517414 -0.16006678
-0.231399 0.037407421 -0.1664657
-0.231399 0.11013328 -0.16229327
0.22841799 0.13403447 -0.16275179
0.22841799 0.25572687 -0.16532066
-0.18610321 0.29409599 -0.16412136
-0.17968366 0.29909158 -0.16342185
-0.173118 0.30175373 -0.16398306
-0.025225781 0.30576599 -0.16030736
-0.063349538 -0.30048999 -0.1561231
0.22841799 0.19252972 -0.15586962
0.22841799 0.25523102 -0.15457562
0.10455927 0.27088001 -0.15794462
0.21099773 0.27088001 -0.15300903
-0.12948014 0.29409599 -0.15277842
0.096471131 0.29409599 -0.15469295
0.18494241 0.29409599 -0.15011318
-0.0076516643 0.30576599 -0.15363213
-0.21014829 -0.30048999 -0.1477972
-0.068172038 -0.30048999 -0.14425026
-0.016574379 -0.30048999 -0.14152867
0.094981894 -0.30048999 -0.14788936
0.22841799 -0.28108338 -0.14390457
0.22841799 -0.14870599 -0.14619035
-0.231399 -0.070040956 -0.14984494
0.22841799 0.019834854 -0.1424633
-0.231399 0.073420614 -0.14674476
-0.231399 0.24215004 -0.14145836
0.1465881 0.27088001 -0.14853494
-0.057035822 0.29409599 -0.14476147
-0.023426153 0.29409599 -0.14951956
-0.0086290352 0.29409599 -0.14341821
0.033924904 0.29409599 -0.14753303
0.091891654 0.29409599 -0.14082065
0.026139062 0.30576599 -0.14155191
-0.022474753 -0.30048999 -0.13921335
0.22841799 -0.29046181 -0.13197222
0.22841799 -0.2007529 -0.1355949
-0.231399 -0.16409048 -0.13160357
-0.231399 -0.13284187 -0.13393755
0.22841799 -0.050436277 -0.13696784
0.22841798 0.11002977 -0.13876727
-0.231399 0.1782629 -0.13761368
0.22841799 0.18449816 -0.13988447
-0.231399 0.20646833 -0.13514939
-0.090619698 0.27088001 -0.13453448
0.031736452 0.27088001 -0.13824959
0.043389253 0.27088001 -0.13386446
-0.046218045 0.29409599 -0.13636824
0.11155713 0.29409599 -0.13094655
-0.15294778 0.30576599 -0.1316245
0.067607068 0.30576599 -0.13486996
-0.030436993 -0.30048999 -0.12310395
-0.01485455 -0.30048999 -0.12510741
0.22841799 -0.1528123 -0.12363125
-0.231399 -0.12973547 -0.12726018
0.22841799 -0.055334367 -0.12602681
0.22841799 0.056920402 -0.12903845
-0.231399 0.084478855 -0.12393995
-0.231399 0.20087451 -0.1280987
-0.231399 0.21107796 -0.1287204
-0.1487145 0.29409599 -0.12851183
0.093336314 0.29409599 -0.12531549
0.12790211 0.29409599 -0.12364522
0.012156002 0.30576599 -0.12153017
0.097016007 -0.30048999 -0.11420213
-0.231399 -0.11037506 -0.11596777
0.22841799 -0.11024929 -0.11992656
0.22841799 0.058799859 -0.11068002
0.091145635 0.29409599 -0.11635336
0.021018311 0.30576599 -0.11240646
0.14640954 0.30576599 -0.11792389
0.17520326 0.30576599 -0.11000076
0.19689099 0.30385631 -0.11095118
0.08436349 -0.30048999 -0.10544685
0.19230986 -0.30048999 -0.10707474
0.22841799 -0.29030114 -0.10818321
-0.231399 -0.18679702 -0.10223859
0.22841799 -0.16573998 -0.10523947
-0.231399 -0.13769913 -0.10163267
0.22841799 -0.068632044 -0.10465334
0.22841799 0.003577508 -0.10789428
-0.231399 0.12604113 -0.10177185
-0.231399 0.22007824 -0.10331895
0.22841799 0.22876285 -0.10133497
-0.0060005784 0.27088001 -0.10463065
0.0087380493 0.29409599 -0.10226095
-0.075444371 0.30576599 -0.10086651
-0.2044706 0.31795323 -0.10882661
-0.15154283 -0.30048999 -0.090670139
-0.231399 -0.19158226 -0.097156674
0.22841799 -0.10458844 -0.098088376
0.22841799 0.044806309 -0.095294192
0.22841799 0.17611095 -0.097484358
-0.231399 0.25292978 -0.096743524
0.22841799 0.26418856 -0.09996336
-0.16662106 0.27088001 -0.094922908
-0.11640097 0.27088001 -0.090882637
0.065939553 0.27088001 -0.090277702
0.11486994 0.29409599 -0.091367394
0.1322909 0.29409599 -0.095770419
0.08486037 0.30576599 -0.098025292
0.1353506 0.30576599 -0.090346538
-0.22096515 0.3305043 -0.099362314
-0.20689443 -0.30048996 -0.08867541
-0.231399 -0.0091665685 -0.083939135
0.22841799 0.025308311 -0.085120022
-0.231399 0.043180041 -0.08509811
0.22841799 0.067392729 -0.085522689
0.22841799 0.17661251 -0.081825927
-0.231399 0.22896948 -0.088329367
0.20702091 0.27088001 -0.086734816
-0.173118 0.29984313 -0.087818332
-0.08845342 0.29409599 -0.087048553
0.079591125 0.29409599 -0.08534871
0.19686037 0.29409599 -0.08798977
-0.13368458 -0.30048999 -0.076572679
0.1423417 -0.30048999 -0.075497359
-0.231399 -0.26135242 -0.070626706
0.22841799 -0.18727621 -0.073908851
0.019763678 0.27088001 -0.076969236
-0.2176864 0.29409599 -0.073281623
-0.13163313 0.30576599 -0.071391128
0.11847224 0.30576599 -0.070541441
-0.20616573 0.31924295 -0.074541569
-0.22490375 0.33350122 -0.077185206
-0.18657915 -0.30048999 -0.068147168
-0.231399 -0.29439113 -0.064830177
0.22841799 -0.26913324 -0.062102418
-0.231399 -0.24645829 -0.060653523
0.22841799 -0.15187621 -0.064076394
0.22841799 -0.1097587 -0.063666165
-0.231399 -0.076058373 -0.06344825
0.22841799 -0.0016148537 -0.066079728
0.22841799 0.035077885 -0.063989416
-0.231399 0.13523474 -0.066004075
0.11673711 0.27088001 -0.065442219
-0.18613982 0.29409599 -0.068540245
-0.16990337 0.29409599 -0.063542627
-0.15634494 0.29409599 -0.064461783
-0.11391176 0.29409599 -0.062590376
-0.04010744 0.29409599 -0.060406223
0.032059595 0.29409599 -0.067053676
0.064006627 0.30576599 -0.062059958
0.1593886 0.30576599 -0.067604735
0.21208608 0.30014139 -0.066252455
-0.04941209 -0.30048999 -0.051088437
0.030391566 -0.30049002 -0.058113061
0.051058903 -0.30048999 -0.052849412
0.089540407 -0.30048999 -0.054557391
0.10476761 -0.30048999 -0.058552712
0.22841799 -0.26292062 -0.056013003
-0.231399 -0.09410204 -0.053603649
-0.231399 0.22174278 -0.05851882
-0.086703785 0.27088001 -0.053562388
-0.06638173 0.27088001 -0.056841694
-0.012759961 0.29409599 -0.056232605
0.19689099 0.29700238 -0.057440531
-0.14292282 0.30576599 -0.053842507
0.20334329 0.3033776 -0.059565339
-0.17815468 -0.30048999 -0.042265341
0.13730636 -0.30048999 -0.042586651
0.15331304 -0.30048999 -0.047815531
0.1839202 -0.30048999 -0.045362018
0.22841799 -0.16916549 -0.041458774
0.22841799 0.028013006 -0.041444212
0.22841799 0.036575213 -0.045089312
-0.231399 0.071528405 -0.044722155
-0.231399 0.09490817 -0.042856488
0.22841799 0.19079576 -0.049232073
-0.16175264 0.27088001 -0.04346925
0.20903867 0.27088001 -0.042801946
-0.04109361 0.29409599 -0.040926766
0.19689099 0.29540598 -0.045489751
0.18046598 0.30576599 -0.048084814
-0.21498328 0.32595262 -0.043069068
-0.15297866 -0.30048999 -0.032602191
0.18139143 -0.30048999 -0.033110708
0.22841799 0.006807521 -0.036113098
-0.23139901 0.029276118 -0.038803764
-0.058651477 0.27088001 -0.037648931
-0.0097890049 0.27088001 -0.037570767
-0.173118 0.29509512 -0.035251014
-0.087289251 0.29409599 -0.036011696
-0.231399 0.30758238 -0.034134805
-0.17639977 -0.30048999 -0.02929417
-0.16319442 -0.30048999 -0.029799163
0.12965594 -0.30048999 -0.026547179
0.22841799 -0.083780207 -0.022497669
-0.231399 -0.018620791 -0.022892678
-0.13198143 0.27088001 -0.020356297
-0.11902449 0.27088001 -0.027169742
0.22841799 0.28410226 -0.020127017
-0.19345489 0.29409599 -0.020492926
0.038652159 0.29409599 -0.028749369
-0.13086715 0.30576599 -0.023200817
-0.0054955482 0.30576599 -0.027938262
-0.15189695 -0.30048999 -0.014544867
-0.037921108 -0.30048999 -0.014764383
0.21551657 -0.30048999 -0.010250188
0.22841799 -0.25513077 -0.015248381
0.22841799 -0.24112368 -0.01243607
-0.231399 -0.17224738 -0.012689322
-0.231399 0.027143728 -0.015865099
-0.231399 0.15029651 -0.015185282
0.041048024 0.27088001 -0.017161358
0.097780138 0.27088001 -0.011536706
-0.14727376 0.29409599 -0.014440997
-0.040465474 0.29409599 -0.016456353
0.13753262 0.29409599 -0.01007014
-0.231399 0.30884135 -0.010542333
0.12643459 0.30576599 -0.014081438
-0.035433896 -0.30048999 -0.001749523
0.054954872 -0.30048999 -0.0088538313
0.13402173 -0.30048999 -0.00068664551
0.22345923 -0.30048999 -0.0050069243
-0.231399 0.034056202 -0.001286922
-0.231399 0.1310991 -0.0038477182
-0.13828099 0.27088001 -0.0073003843
-0.10838394 0.27088001 -0.0028137043
0.076765276 0.29409599 -0.0073009524
-0.16554153 0.30576599 -0.0044023562
-0.13889563 -0.30048999 0.0020494685
-0.231399 -0.26694369 0.0061078966
-0.231399 0.013146617 0.0054165125
-0.231399 0.060244702 0.0073482208
0.22728133 0.27088001 0.0044243913
-0.1869625 0.29409599 0.0099866465
0.09007442 -0.30048999 0.019815776
-0.231399 -0.22249795 0.013692729
-0.231399 -0.14081556 0.01107461
0.22841799 -0.055709176 0.018013775
0.22841799 0.084905282 0.010260276
0.22841799 0.11074702 0.019436859
-0.231399 0.12323233 0.012306988
-0.231399 0.27089381 0.013048351
-0.22283524 0.27088001 0.016688094
-0.12360205 0.27088001 0.019735307
0.023044482 0.27088001 0.019478343
-0.23113979 0.29692578 0.010666594
-0.1489931 0.29409599 0.015785221
0.068272591 0.29409599 0.014215965
-0.15487704 0.30576599 0.015211489
-0.2165594 0.32715198 0.016472025
0.096208468 -0.30048999 0.024907
0.13945729 -0.30048999 0.020629928
-0.231399 -0.13583373 0.024828956
-0.23139898 -0.051900595 0.025283977
0.22841799 -0.053259924 0.024973132
0.22841799 0.076655626 0.028614303
0.10727854 0.27087998 0.02432978
-0.045331176 0.29409599 0.020590125
0.22161478 0.29661426 0.020110851
-0.231399 0.30806887 0.029702414
-0.075067498 0.30576599 0.020209868
-0.021829732 0.30576599 0.027891831
-0.19848338 0.31339681 0.02238927
-0.19372602 -0.30048999 0.034267776
-0.14177924 -0.30048999 0.03447286
0.21419364 -0.30048999 0.0336667
-0.231399 -0.061943687 0.032539696
0.22841799 0.00943771 0.031343475
0.22841799 0.093638889 0.032852869
0.22841799 0.19541456 0.037598778
-0.231399 0.25041118 0.038880251
-0.21636283 0.27088001 0.037208386
-0.052445121 0.27088001 0.033058256
-0.0018707663 0.27088001 0.037548736
-0.072571307 0.30576599 0.034020066
-0.0091239177 0.30576599 0.033033341
0.015589543 0.30576599 0.0371668
-0.19808066 -0.30048999 0.043767661
-0.032463618 -0.30048999 0.045781687
0.098993629 -0.30048999 0.040023871
-0.23139898 -0.22829853 0.049470551
0.22841799 0.0077602491 0.045055546
-0.18525825 0.27088001 0.048057795
-0.18464606 0.29409599 0.042510666
-0.17890304 0.29409599 0.048194829
0.16518818 0.29409599 0.04834174
0.068869121 0.30576599 0.046058327
-0.231399 0.31456107 0.047947668
-0.047322758 -0.30048999 0.058485933
0.072254814 -0.30048999 0.056854099
0.090064965 -0.30048999 0.052588653
0.22841799 -0.2495552 0.057885557
0.22841799 -0.22502688 0.051560257
-0.231399 -0.11989116 0.051446609
-0.231399 0.01902592 0.059390694
-0.231399 0.14574489 0.057925142
-0.231399 0.2647292 0.055611685
-0.1567985 0.27087998 0.055250064
-0.055590604 0.27088001 0.059127651
-0.22675303 0.29409599 0.051605217
-0.19478968 0.29409599 0.052603886
-0.10488586 0.29409599 0.050349656
0.0047105402 0.29409599 0.052157104
0.14764223 0.29409599 0.053083904
-0.12720993 0.30576599 0.057194326
-0.078030713 0.30576599 0.058758363
-0.20632331 0.319363 0.053601339
0.18470845 -0.30048999 0.06942486
0.22617647 -0.30048999 0.061224811
0.22841799 -0.21311778 0.060267456
0.22841799 -0.083214328 0.06491603
0.22841799 0.031151384 0.060266886
-0.231399 0.22892012 0.06114202
0.051308766 0.27088001 0.062009905
0.1028144 0.27088001 0.061706007
0.11991148 0.27088001 0.068029627
0.11797205 0.29409599 0.064873859
0.14191754 0.29409599 0.06203812
0.17844519 0.29409599 0.067544937
0.071322106 0.30576599 0.069248393
-0.19557895 0.31118727 0.060156502
0.0057722852 -0.30048999 0.076125905
-0.231399 -0.22193365 0.070717469
-0.231399 -0.19795045 0.076213434
-0.231399 0.068685204 0.070577584
0.22841799 0.067472696 0.075910985
-0.231399 0.11169419 0.070202768
0.22841799 0.20025976 0.077405058
-0.14240333 0.27088001 0.079952478
0.17726214 0.27088001 0.073529191
0.063862905 0.29409599 0.075944662
-0.13572937 0.30576599 0.0782042
0.033175219 0.30576599 0.07766249
0.22841799 -0.24780868 0.086365983
-0.231399 -0.23908344 0.083728783
-0.231399 -0.073034883 0.083756715
0.22841799 -0.074170917 0.087360397
0.22841799 -0.042344518 0.089955911
-0.231399 -0.036497638 0.087713733
-0.231399 0.063783541 0.084196433
0.22841799 0.18170138 0.083876647
-0.015509877 0.27088001 0.086019255
0.053927742 0.27088001 0.086593732
0.20380946 0.27088001 0.083223566
-0.087686963 0.29409599 0.085130662
-0.231399 0.30343929 0.080860913
-0.072969206 -0.30048999 0.092996597
0.19541469 -0.30048999 0.09925276
-0.231399 -0.2792536 0.099730238
-0.231399 -0.13059847 0.096884049
-0.231399 -0.069424868 0.099271722
0.22841798 0.22754578 0.091111124
-0.231399 0.26877353 0.092604339
0.081062675 0.27088001 0.097275816
0.08329989 0.29409599 0.092269897
0.12875687 0.29409599 0.091043353
0.0041851029 0.30576599 0.099182278
-0.10746462 -0.30048999 0.10559841
-0.070356265 -0.30048999 0.10942557
-0.055558257 -0.30048999 0.10830384
0.012552802 -0.30048999 0.10094905
-0.231399 -0.25716129 0.10487516
-0.231399 0.11303569 0.10912757
-0.231399 0.13828847 0.10402907
-0.231399 0.14899826 0.10977884
-0.20232412 0.27088001 0.10160587
0.077920891 0.27088001 0.10409214
0.19767931 0.27088001 0.10197303
-0.028526703 0.29409599 0.10038085
0.094396681 0.29409599 0.10206259
0.17542426 0.29409599 0.10227526
-0.02227981 -0.30048999 0.11392501
0.054809958 -0.30048999 0.11518905
-0.231399 0.023892123 0.11513595
-0.20203711 0.27087998 0.11120337
0.0071899444 0.27088004 0.11068609
0.14896145 0.27088001 0.1172612
0.19981958 0.27088001 0.11352006
-0.11311867 0.29409599 0.11409581
0.064369872 0.29409599 0.11519223
0.067479007 0.30576599 0.11005002
0.037799314 -0.30048999 0.12061366
-0.231399 -0.18337084 0.12287016
-0.231399 -0.053489387 0.12385319
-0.231399 -0.024431869 0.12133779
-0.231399 0.03722278 0.12683907
0.22841799 0.058575422 0.12568314
-0.11247713 0.27088001 0.12553914
-0.016167374 0.27088001 0.12951586
0.14856353 0.27088001 0.12982047
0.21677515 0.27088001 0.12071136
-0.12771438 0.29409599 0.12578812
0.16616 0.29409599 0.12704873
0.21408094 0.29940298 0.12603995
0.1270448 0.30576599 0.12352754
0.1376735 0.30576599 0.12101831
0.16171014 0.30576599 0.12666406
-0.2149478 -0.30048999 0.13547786
-0.231399 -0.1069723 0.13908809
0.22841799 -0.0026809424 0.132366
0.22841799 0.020182773 0.13773528
-0.231399 0.040252972 0.13552788
-0.231399 0.12220508 0.13644126
-0.204217 0.27088001 0.13102099
-0.15385565 0.27088001 0.13689728
-0.13109629 0.27088001 0.1331487
0.003910216 0.27088001 0.13386294
0.14229274 0.27088001 0.13966307
-0.081436127 0.30576599 0.1341498
-0.060359683 0.30576599 0.13947421
-0.024625566 0.30576599 0.13637377
0.12042485 0.30576599 0.13100559
0.2098722 0.3009609 0.13035876
0.16505133 -0.30048999 0.1471144
0.22841799 -0.24734659 0.14596239
-0.231399 0.054010265 0.14630285
0.22841799 0.056172881 0.14270839
0.22841799 0.13605358 0.14824823
0.22841799 0.21510793 0.14892814
-0.19997111 0.27088001 0.14531849
-0.18524799 0.27088001 0.14473411
0.17714572 0.27088001 0.14841376
-0.16686043 0.29409599 0.14849199
-0.13403341 0.29409599 0.1446539
-0.16321877 0.30576599 0.14455308
0.1105082 0.30576599 0.14383042
-0.19513096 0.31671211 0.14984876
-0.17006198 -0.30049002 0.15488805
0.22841799 -0.14140904 0.15558171
-0.231399 -0.077843249 0.15325218
-0.231399 -0.03545633 0.15827295
-0.231399 0.26994389 0.15685919
-0.10609549 0.27087998 0.15722258
0.082330279 0.27088001 0.1536518
-0.231399 0.2990362 0.154827
0.011901386 0.29409599 0.15383725
0.18660831 0.29409599 0.15661755
0.088646218 0.30576599 0.15867561
-0.16669556 -0.30048999 0.16870749
0.02758152 -0.30048999 0.16925764
0.034362596 -0.30048999 0.16762215
0.081145525 -0.30048999 0.16664234
0.22841799 -0.22404478 0.16091146
-0.231399 0.11741114 0.16580269
-0.21920741 0.27088001 0.16355726
-0.081029981 0.27088001 0.16649933
-0.021447614 0.27088001 0.16789956
0.16676451 0.27088001 0.16725731
-0.18630672 0.30413151 0.16709188
-0.11256182 0.30576599 0.16576999
-0.03468458 0.30576599 0.16508776
0.064385191 0.30576599 0.16658798
0.13880208 0.30576599 0.16985494
-0.20409773 0.32353455 0.16645533
0.13765186 -0.30048999 0.17387198
-0.231399 -0.23008043 0.17319566
0.22841799 -0.21206582 0.17969862
0.22841799 0.11080725 0.17572948
0.22841799 0.20544682 0.17953858
0.22841799 0.21694037 0.17795992
-0.19217062 0.27088001 0.1710802
-0.1613158 0.27088001 0.17599946
0.22841799 0.27710727 0.17577425
-0.173118 0.2948252 0.17470495
-0.13678274 0.29409599 0.17085484
0.13229975 0.30576599 0.17994171
0.1539187 0.30576599 0.17666176
-0.231399 0.3194713 0.17127043
-0.23020907 -0.30048999 0.1877836
-0.068800539 -0.30048996 0.18406424
-0.231399 -0.21826029 0.18874778
0.22841799 -0.10367184 0.18655461
0.22841799 -0.097096749 0.1861625
-0.231399 -0.053704783 0.18925801
-0.231399 -0.013102777 0.18911673
-0.231399 -0.0084065795 0.18859681
-0.231399 0.18694307 0.18167952
-0.231399 0.20534594 0.18113017
0.22841799 0.27249035 0.18162148
-0.11999443 0.30576599 0.18559837
-0.062552229 0.30576599 0.18234439
0.20163453 0.30401015 0.18060914
-0.231399 0.31747293 0.18396267
-0.231399 -0.21302283 0.1900676
0.22841799 -0.08572492 0.19980206
-0.231399 -0.047013022 0.19364296
0.22841799 0.17550877 0.19089787
0.22841798 0.22473112 0.19276142
0.19596256 0.27088001 0.1954838
-0.21261191 0.29409599 0.19295913
0.13096525 0.29409599 0.19396564
0.062558539 0.30576599 0.19195141
0.10026737 0.30576599 0.19925416
0.12483782 0.30576599 0.19573931
-0.063199125 -0.30048996 0.20594274
0.22392032 -0.30048999 0.20511034
0.22841799 -0.16253524 0.20889837
-0.231399 0.058822833 0.20396286
0.22841799 0.11007667 0.2036562
0.22841799 0.18612249 0.20703448
-0.15428196 0.27088001 0.20024474
-0.10297725 0.27088001 0.20108718
0.0015543103 0.27088001 0.20609768
0.055920795 0.27088001 0.20098205
0.15623963 0.27088001 0.20057063
0.2232714 0.27088001 0.20006034
-0.15720916 0.30576599 0.20035818
-0.041082788 0.30576599 0.20915233
-0.15661906 -0.30048999 0.21832927
0.019222647 -0.30048999 0.2151701
0.053852081 -0.30048999 0.21636486
0.22841799 -0.23393166 0.21886948
-0.231399 -0.20920016 0.21385406
0.22841799 -0.14229824 0.21604255
0.22841799 -0.067517079 0.2134414
-0.231399 -0.007758081 0.21054819
0.22841799 0.023385786 0.2158367
-0.231399 0.20741627 0.21305695
0.10007304 0.27088001 0.21483317
0.19689099 0.29510435 0.2167718
0.17645563 0.30576599 0.21066533
0.18673459 0.30576599 0.21398675
-0.17926231 -0.30048999 0.2261177
0.22841799 -0.23814797 0.22426137
0.22841799 -0.023497 0.22337529
-0.231399 0.085136876 0.22786997
-0.231399 0.17583297 0.22447591
0.22841799 0.19125469 0.22947893
-0.20704094 0.27088001 0.22055787
0.068762936 0.27088001 0.22394051
-0.16167262 0.29409599 0.22222525
-0.14867161 0.29409599 0.22663864
-0.0041269921 0.29409599 0.22373486
0.0087238513 0.29409599 0.22204466
-0.18363932 0.30353075 0.22816209
-0.085467264 0.30576599 0.22076955
-0.034943677 0.30576599 0.2228041
-0.015525125 0.30576599 0.22613202
-0.21016103 0.32228267 0.22284517
0.11665407 -0.30716628 0.23712991
0.22841799 -0.28270221 0.2312934
0.22841799 -0.025103405 0.23329021
-0.231399 0.15911548 0.23085824
-0.11263148 0.29409599 0.23060068
-0.022594541 0.29409599 0.23607856
0.032789908 0.29409599 0.23520993
0.17790394 0.29409599 0.2366526
-0.15993707 0.30576599 0.23846181
-0.02919196 0.30576599 0.23255922
-0.20254704 -0.332147 0.24855298
-0.082132578 -0.33010298 0.24761829
-0.17969009 -0.32252127 0.24415137
0.054039106 -0.32644603 0.24594606
-0.1288382 -0.31537583 0.24088395
0.0078853816 -0.31719765 0.24171701
-0.231399 -0.2623595 0.24610539
0.22841799 0.16353397 0.242192
-0.17731224 0.27087998 0.24109653
0.022057571 0.27088001 0.24077977
0.03941752 0.27088001 0.24959388
-0.15451342 0.29409599 0.2437987
-0.015712682 0.29409599 0.24486101
0.007598348 0.29409599 0.24565414
-0.14262523 0.30576599 0.24323131
-0.066659011 0.30576599 0.24891753
-0.21357021 -0.33844301 0.25747088
0.22841799 -0.29449496 0.25290164
0.22841799 -0.10773198 0.25458068
-0.231399 -0.072855458 0.25789648
0.22841799 0.15094227 0.25985914
0.065831169 0.29409599 0.25895798
0.093469419 0.29409599 0.25895977
0.11678725 0.29409599 0.25759116
-0.060637593 0.30576599 0.25261113
-0.056381326 0.30576599 0.25361711
0.089777321 -0.33844301 0.26612458
0.12010729 -0.33844301 0.26192614
0.22841799 -0.038571723 0.26840559
0.22841799 0.26589718 0.26614624
-0.231399 0.27791435 0.26584792
0.060929008 0.27088001 0.26872906
0.13769224 0.27088001 0.26359683
0.21170725 0.27088001 0.26823103
-0.14449184 0.29409599 0.26069453
-0.078815274 0.29409599 0.26565865
0.084705114 0.29409599 0.26734138
0.027920596 0.30576599 0.26971772
-0.231399 0.3265014 0.26445898
0.22841799 -0.3271912 0.2705237
-0.231399 -0.23572369 0.27162188
0.22841799 -0.1255746 0.27094775
-0.231399 -0.059522584 0.27329817
-0.231399 -0.049328782 0.27776808
-0.231399 0.020066053 0.27007067
0.22841799 0.22211501 0.27964526
-0.093137883 0.27088001 0.27371934
0.089307748 0.27088001 0.27724829
0.14754243 0.27088001 0.27320692
0.21405737 0.27088001 0.27294937
-0.1763954 0.29409599 0.2719093
-0.050977603 0.29409599 0.27669773
0.033768512 0.29409599 0.27372229
0.22649814 0.29480663 0.27817029
-0.095667467 -0.33844298 0.28212836
-0.20337528 -0.31148049 0.28396499
0.056370452 -0.31077766 0.28396499
0.12524708 -0.29491007 0.28396499
0.18991646 -0.29705518 0.286201
0.203931 -0.29527301 0.28435704
-0.058485746 -0.285308 0.28396499
0.035443697 -0.28200379 0.28396499
-0.21030284 -0.2701368 0.28396499
-0.09429682 -0.27452663 0.28396499
0.19692367 -0.27462652 0.28396499
0.22841799 -0.27872336 0.28012767
-0.030758426 -0.26110739 0.28396499
0.15629789 -0.26996818 0.28396499
-0.10082674 -0.25302008 0.28396499
-0.052692436 -0.25971177 0.28396499
-0.032169566 -0.25718635 0.28396499
0.1806702 -0.24489629 0.28396499
-0.21365525 -0.21347609 0.28396499
-0.16225037 -0.21007866 0.28396499
-0.12973613 -0.21446002 0.28396499
0.18761431 -0.21231894 0.28396499
-0.22943577 -0.20967892 0.28396499
-0.024150833 -0.2039088 0.28396499
0.079801328 -0.20537603 0.28396499
-0.10743582 -0.19371188 0.28396499
-0.041506756 -0.19747761 0.28396499
0.019592449 -0.19683552 0.28396499
0.082719892 -0.19961077 0.28396499
-0.12065013 -0.18575932 0.28396499
-0.17955099 -0.17174336 0.28396499
-0.00011625886 -0.17869851 0.28396499
-0.15066057 -0.1692737 0.28396499
0.13835832 -0.16774052 0.28396499
0.18475406 -0.16408357 0.28396499
-0.1429434 -0.15776157 0.28396499
0.012302119 -0.15495394 0.28396499
0.084562093 -0.15600929 0.28396499
0.11184149 -0.15337496 0.28396499
-0.231399 -0.14810511 0.28363168
-0.16697297 -0.14377491 0.28396499
-0.043474954 -0.14199989 0.28396499
0.12116884 -0.14165282 0.28396499
-0.22091986 -0.13880005 0.28396499
-0.00092297792 -0.13482672 0.28396499
0.1181055 -0.131631 0.28396499
0.20421249 -0.12029714 0.28396499
-0.049586378 -0.11942933 0.28396499
-0.22675183 -0.10963573 0.28396499
-0.054845624 -0.098139018 0.28396499
0.046732448 -0.08571931 0.28396499
0.16506729 -0.080665268 0.28396499
-0.14991127 -0.075918145 0.28396499
-0.060647413 -0.074673049 0.28396499
-0.019930275 -0.075740665 0.28396499
-0.2065627 -0.065762959 0.28396499
-0.18783979 -0.053511165 0.28396499
-0.048558392 -0.057772711 0.28396499
-0.015473056 -0.05768498 0.28396499
0.1520045 -0.058215477 0.28396499
-0.15585943 -0.043915711 0.28396499
-0.05896768 -0.039307505 0.28396499
0.10054565 -0.032543898 0.28396499
-0.13399035 -0.024795815 0.28396499
-0.15777153 -0.018965408 0.28396499
-0.055676565 0.00091293827 0.28396499
0.083071694 0.0080148727 0.28396499
0.16569814 0.01851292 0.28396499
0.20038974 0.019250467 0.28396499
0.22841799 0.028071851 0.28171739
-0.091619492 0.036073722 0.28396499
0.019012809 0.031824946 0.28396499
-0.19490927 0.049910739 0.28396499
-0.15863086 0.055532545 0.28396499
-0.048726574 0.057075869 0.28396499
-0.15467802 0.0697577 0.28396499
0.0037656575 0.06755358 0.28396499
-0.19594163 0.075752765 0.28396499
-0.11064481 0.092386775 0.28396499
0.16214193 0.093230158 0.28396499
-0.074959621 0.10800333 0.28396499
0.16819744 0.10538388 0.28396499
-0.2154763 0.11521558 0.28396499
-0.16682647 0.12685621 0.28396499
0.20799646 0.13426512 0.28396499
-0.15033664 0.14770803 0.28396499
-0.036206707 0.14677136 0.28396499
-0.018837534 0.1443868 0.28396499
0.11821086 0.14120536 0.28396499
0.15523835 0.14476433 0.28396499
-0.11983373 0.15765458 0.28396499
-0.024250675 0.15064898 0.28396499
0.16463377 0.15396662 0.28396499
-0.231399 0.1634974 0.28359273
-0.073912844 0.16395217 0.28396499
0.13343817 0.16534126 0.28396499
-0.20877236 0.17700428 0.28396499
-0.20837766 0.19203816 0.28396499
-0.14680131 0.19447947 0.28396499
-0.13040318 0.20353483 0.28396499
0.13852762 0.20680881 0.28396499
-0.044161875 0.21161701 0.28396499
-0.033614948 0.21192612 0.28396499
-0.026126631 0.21460906 0.28396499
-0.012419268 0.21235743 0.28396499
0.19318467 0.21296306 0.28396499
0.040498108 0.23189873 0.28396499
0.12931053 0.23218624 0.28396499
0.19943158 0.23613088 0.28396499
-0.090769887 0.2444036 0.28396499
-0.040713895 0.24355249 0.28396499
0.044601619 0.24256854 0.28396499
-0.15942913 0.26703119 0.28396499
0.1568938 0.26146314 0.28396499
-0.231399 0.27069026 0.28304687
-0.038310129 0.27014524 0.28396499
-0.046776198 0.29409599 0.28379431
0.10155891 0.2993291 0.28396499
0.14832224 0.2904 0.28396499
-0.087816991 0.30447206 0.28396499
0.048704013 0.30546281 0.28396499
-0.22673041 0.32336152 0.28396499
