# .PCD v0.7 - Point Cloud Data file format
VERSION 0.7
FIELDS x y z
SIZE 4 4 4
TYPE F F F
COUNT 1 1 1
WIDTH 978
HEIGHT 1
VIEWPOINT 0 0 0 1 0 0 0
POINTS 978
DATA ascii
0.029646112 -0.350319 -0.24041259
0.20231278 -0.34815222 -0.24172001
0.13474986 -0.33108711 -0.24172002
0.12064867 -0.32549194 -0.24171999
-0.067575015 -0.3121253 -0.24172002
0.12943982 -0.31162319 -0.24172002
-0.20896308 -0.30233008 -0.24172001
0.18662457 -0.30996233 -0.24172002
0.15684551 -0.29729041 -0.24172002
-0.20131971 -0.27176449 -0.24172001
-0.0045688227 -0.27150136 -0.24172002
0.0089879781 -0.27116066 -0.24171999
-0.11630422 -0.26037028 -0.24172002
0.057373308 -0.26553756 -0.24171999
0.075077347 -0.26894796 -0.24172001
0.20608339 -0.26280767 -0.24172001
-0.044486031 -0.25183046 -0.24172001
0.00068823993 -0.25378948 -0.24172001
0.17342485 -0.25109571 -0.24172001
-0.22386846 -0.24959423 -0.24172001
-0.15033486 -0.24946684 -0.24172001
-0.013881348 -0.23818652 -0.24172002
0.12267908 -0.22016978 -0.24172001
-0.15773228 -0.21911301 -0.24172001
-0.0098697767 -0.21806034 -0.24172001
0.049931496 -0.21970078 -0.24171999
0.14546491 -0.21323405 -0.24172001
0.0020855814 -0.20552498 -0.24171999
0.0068526268 -0.18223231 -0.24171999
0.022588991 -0.1867471 -0.24172002
0.18238398 -0.16500387 -0.24171999
0.23554622 -0.16569033 -0.24172001
-0.22639087 -0.15138821 -0.24172001
-0.20485927 -0.15570867 -0.24172002
-0.14336725 -0.14100969 -0.24172001
0.22186869 -0.14559896 -0.24172002
-0.17265528 -0.13074529 -0.24172001
-0.13407823 -0.12510416 -0.24172001
-0.097328722 -0.12134236 -0.24172001
0.17118751 -0.12885016 -0.24171999
-0.22595608 -0.11223683 -0.24172001
-0.10017892 -0.11254549 -0.24172001
0.00082346797 -0.093795523 -0.24172002
-0.13664873 -0.083075941 -0.24171999
-0.068386883 -0.08142975 -0.24172001
-0.18105431 -0.049234711 -0.24171999
-0.10641436 -0.040311679 -0.24172001
-0.079454273 -0.048953421 -0.24171999
-0.22393215 -0.038679615 -0.24171999
0.089571811 -0.036674738 -0.24172001
-0.22858015 -0.028512657 -0.24172002
0.18568054 -0.025211895 -0.24172001
0.23202884 -0.017578334 -0.24172001
-0.21601978 -0.0070119798 -0.24172002
-0.23573488 0.0079503208 -0.24172001
0.083616108 0.013868593 -0.24172002
0.16947898 0.017710101 -0.24172002
0.20990756 0.028097264 -0.24172001
0.23994134 0.025362831 -0.24172001
-0.21343346 0.030247867 -0.24171999
0.038982529 0.035422754 -0.24171999
0.080563284 0.036644034 -0.24172002
0.060322538 0.046746671 -0.24172001
0.024199799 0.057412922 -0.24172002
-0.094756022 0.064074278 -0.24171999
-0.005313145 0.069138162 -0.24171999
-0.23241216 0.081582695 -0.24171999
0.056573659 0.088185616 -0.24172002
-0.23595706 0.093845196 -0.24172001
0.054070566 0.092248052 -0.24172001
0.246626 0.090854213 -0.24094035
-0.16908596 0.10881494 -0.24172002
-0.14030997 0.10136154 -0.24172001
0.22530174 0.11373043 -0.24171999
-0.23138963 0.13741836 -0.24171999
-0.12115873 0.13260317 -0.24172001
-0.022654738 0.13680322 -0.24172001
-0.042170212 0.1454594 -0.24172001
-0.03338477 0.14930369 -0.24172002
-0.0096792653 0.14848293 -0.24172002
0.078936122 0.14095494 -0.24172001
-0.15635589 0.15917145 -0.24171999
0.20071058 0.1614323 -0.24172001
0.21258901 0.16373479 -0.24171999
-0.12713112 0.17155842 -0.24172001
-0.090070963 0.17325492 -0.24172002
-0.050087839 0.17671296 -0.24172002
-0.0073844194 0.18797515 -0.24171999
0.02434019 0.18105134 -0.24172002
0.055383194 0.20901632 -0.24171999
0.097600445 0.20125264 -0.24171999
0.10045907 0.20258681 -0.24171999
-0.21842544 0.21183543 -0.24172001
-0.013322853 0.21607545 -0.24172002
0.071341909 0.21957546 -0.24172001
-0.053340808 0.22480807 -0.24171999
-0.013581283 0.22199737 -0.24172001
0.0043652132 0.23565164 -0.24172001
0.079865724 0.23990701 -0.24172001
-0.25207183 0.24853095 -0.24172001
0.073560134 0.24388152 -0.24172001
-0.24617848 0.25501257 -0.24172001
-0.22298265 0.26696157 -0.24171999
-0.085266627 0.26025683 -0.24172002
-0.20222664 0.27453449 -0.24172001
0.22891201 0.27176258 -0.24172001
0.16981378 0.29257876 -0.24172001
-0.13593256 0.30315414 -0.24172001
0.0096632317 0.30134258 -0.24171999
0.025338449 0.30834085 -0.24172001
0.11802119 0.31751212 -0.24171999
0.056573205 0.32019448 -0.24172002
0.14632787 0.32536 -0.24172001
-0.11145257 0.33049431 -0.24172001
-0.081821211 0.33157411 -0.24171999
0.13766438 0.34834579 -0.24172001
0.21562923 -0.350319 -0.23292135
0.23091388 -0.350319 -0.23975196
0.246626 -0.31619859 -0.2350934
0.246626 -0.076490581 -0.23554577
0.24662602 -0.049960621 -0.23991798
-0.26238999 0.02482675 -0.23342609
0.24662599 0.068350025 -0.23802403
-0.26238999 0.24738422 -0.23965591
0.24919854 0.25967973 -0.23208199
-0.26238999 0.2725991 -0.23328632
-0.16121589 0.350319 -0.23636083
0.050042138 0.350319 -0.2360913
0.19304544 0.350319 -0.23961091
-0.20208795 -0.350319 -0.22621956
-0.029959649 -0.350319 -0.22762416
0.24662602 -0.14497977 -0.22985905
0.24662602 -0.12629037 -0.22049096
0.24662599 -0.093008891 -0.22591934
-0.26238999 0.055190295 -0.22608843
0.24662602 0.084387422 -0.2269946
-0.26238999 0.095525578 -0.22622579
0.246626 0.13608684 -0.22061348
-0.12334719 0.350319 -0.22781408
-0.040625714 0.35031903 -0.22684914
0.1530529 0.350319 -0.22389948
-0.082526848 -0.350319 -0.21439454
-0.26238999 -0.34928122 -0.21954006
0.24662602 -0.20671162 -0.21565238
-0.26238999 -0.19966695 -0.21793094
0.246626 -0.04908907 -0.21783067
0.246626 0.13942799 -0.21803547
-0.26238999 0.21721521 -0.21469498
-0.1862977 0.35031897 -0.21402656
0.21874844 0.350319 -0.21590751
-0.15821517 -0.350319 -0.20762488
0.077973366 -0.350319 -0.20885342
0.24662602 -0.22084641 -0.20492041
-0.26238996 -0.054813355 -0.20444101
0.24662602 0.14471509 -0.20246032
0.249428 0.2846663 -0.20304501
0.249428 0.2932229 -0.20118058
-0.26238999 0.30396649 -0.20284276
0.249428 0.31277743 -0.2081458
0.19935626 0.350319 -0.20755962
0.23072885 0.350319 -0.20989549
-0.017059363 -0.350319 -0.19418976
0.246626 -0.29081067 -0.19479746
0.246626 -0.19225059 -0.19081514
-0.26238999 -0.18909916 -0.19772986
0.24662602 0.006363105 -0.19558233
0.260638 0.027415905 -0.19076657
0.22740762 0.032799877 -0.1902422
0.089371696 0.040922254 -0.19079635
0.18487398 0.04055823 -0.19077148
0.18447888 0.057965308 -0.1902771
-0.26238999 0.1175012 -0.19592296
-0.26238999 0.14597769 -0.19212352
-0.26238999 0.21772183 -0.1945693
-0.26009473 0.350319 -0.19487324
-0.1240209 0.35031897 -0.19043574
-0.099268109 0.35031903 -0.19667415
-0.031410299 -0.35031903 -0.18175532
0.033276752 -0.350319 -0.18745241
0.24662602 -0.086017728 -0.18243791
0.24662599 -0.028580181 -0.1887053
-3.0346215e-05 -0.011235088 -0.18345146
0.18291579 -0.0067803012 -0.18497697
-0.0052763969 0.0092738606 -0.18863714
0.1390793 0.0041947048 -0.18102196
0.14610937 0.0031043603 -0.18069665
-0.030558074 0.015063847 -0.18903217
0.18482219 0.018057998 -0.18196778
0.19644825 0.013494925 -0.18892513
0.21864778 0.014107905 -0.18896694
0.23262338 0.014404168 -0.18898717
-0.067763232 0.026530065 -0.1800859
0.084061138 0.02166998 -0.18221419
0.15559636 0.023571357 -0.18234393
0.15847115 0.034588471 -0.18309554
0.097527362 0.053428225 -0.18377683
0.23317653 0.058522195 -0.1827777
0.20606397 0.064376667 -0.18901965
0.23988733 0.068272963 -0.18825546
-0.027852643 0.075163059 -0.18690412
0.12113179 0.073792458 -0.18717293
0.1693992 0.07263352 -0.18740024
-0.062891029 0.081918366 -0.1855792
0.18247122 0.089744821 -0.1840442
0.062894531 0.10242391 -0.18079436
0.08228568 0.1023224 -0.18084407
0.22606236 0.10344802 -0.18029268
0.25994727 0.13730091 -0.18019791
0.246626 0.19938311 -0.18456
-0.26238999 0.32565543 -0.18858552
0.19893163 -0.350319 -0.17156039
-0.26238999 -0.32084566 -0.17406209
0.246626 -0.18004748 -0.17278177
0.24662599 -0.13531065 -0.17985111
-0.26238999 -0.11779347 -0.17241305
-0.26238999 -0.073692277 -0.17383009
0.15616161 -0.044818498 -0.17165464
-0.060418196 -0.035567723 -0.17511889
0.10031389 -0.030989956 -0.17668653
0.19575427 -0.037830263 -0.17434412
-0.056720253 -0.020861041 -0.17249009
0.10753314 -0.029373849 -0.17723995
-0.0037897751 -0.011441826 -0.17571557
0.017462343 -0.0081236484 -0.17685182
0.20905089 -0.001083261 -0.17926267
0.057535022 0.088070139 -0.17698231
0.10074158 0.088285565 -0.17694007
0.076044828 0.10150256 -0.1731704
0.15128732 0.10512882 -0.1794693
0.24251962 0.10699876 -0.17855331
0.16215092 0.11911081 -0.17262012
-0.26238999 0.2610018 -0.17398408
-0.25578091 0.350319 -0.1795949
-0.2234607 0.350319 -0.17120151
-0.26238999 -0.28643656 -0.16394624
0.24662602 -0.16814756 -0.16324474
-0.26238999 -0.13274708 -0.16073963
0.061278678 -0.041887984 -0.16488719
0.027731195 -0.030956293 -0.16903314
0.15982951 -0.037726894 -0.16671465
-0.26238999 0.015480489 -0.1610575
0.260638 0.084817812 -0.16451868
0.092914991 0.1120175 -0.16801994
-0.26238999 0.12056535 -0.16430995
-0.053088948 0.12678055 -0.16078861
0.10423583 0.12712167 -0.16062154
0.1765171 0.12838626 -0.16807646
-0.053853374 0.13620976 -0.16424404
0.015174992 0.13460974 -0.16502783
0.10664678 0.13670874 -0.16399962
0.098549411 0.14045672 -0.16216362
0.14324582 0.14351296 -0.1606665
0.24662602 0.18748055 -0.16528472
-0.20862325 0.35031897 -0.16109751
-0.12176406 0.350319 -0.16151091
-0.035953391 0.35031903 -0.16475494
-0.028406665 0.35031897 -0.16110104
-0.26238999 -0.310406 -0.15283014
-0.26238999 -0.27168125 -0.15793689
-0.26238999 -0.12580535 -0.15290248
-0.26238999 -0.074120849 -0.15753847
0.23553243 -0.074090496 -0.15198305
-0.037928868 -0.062529497 -0.1510154
-0.016265765 -0.06762889 -0.15632543
0.04627759 -0.061475337 -0.15172383
-0.058257945 0.015534723 -0.15328826
0.25246429 0.06349875 -0.15097314
-0.0035430454 0.14162391 -0.15286285
0.18954225 0.14470632 -0.15979615
0.19921222 0.14953186 -0.15558706
-0.26238999 0.21412626 -0.15861595
-0.26238999 0.28421408 -0.15433486
0.249428 0.31799623 -0.15509318
0.249428 0.32704836 -0.1591094
-0.26045784 0.35031903 -0.15615489
-0.14693904 -0.350319 -0.14543273
0.017463405 -0.350319 -0.14177698
0.0020812484 -0.084681556 -0.14486559
0.056988552 -0.088621847 -0.14036064
0.046404287 -0.065555386 -0.1489819
-0.066084467 -0.058246385 -0.14540708
0.260638 -0.051535331 -0.14945744
0.249428 0.01832475 -0.14988047
-0.064216152 0.12154173 -0.14982337
-0.034437831 0.14861384 -0.14676562
0.11066053 0.15207092 -0.14375003
-0.041476309 0.16326752 -0.1436061
-0.26238999 0.31492552 -0.14872
0.0013044253 -0.350319 -0.13454472
0.11932354 -0.350319 -0.13081697
-0.26238999 -0.055109315 -0.13368684
0.260638 0.15560286 -0.13938305
0.005605489 0.16402483 -0.13332278
0.2365361 0.17316116 -0.13497633
-0.26238999 0.29453167 -0.13146956
-0.20576063 0.35031897 -0.13158928
0.044001888 -0.350319 -0.12132016
-0.26238999 -0.31709513 -0.12528142
-0.041549075 -0.098365933 -0.12918958
0.1161432 -0.098270133 -0.1292994
0.17558503 -0.091892183 -0.12557961
-0.049067244 0.010414626 -0.12657799
0.249428 0.32109088 -0.12565428
-0.18480814 -0.350319 -0.1173741
-0.13736238 -0.35031897 -0.11085796
-0.26238999 -0.26928982 -0.11236734
-0.0686609 -0.10952848 -0.11467215
0.16795428 -0.10837688 -0.11771256
0.10065868 -0.098043054 -0.11852817
-0.052292258 -0.041367613 -0.1113189
-0.26238999 0.054570884 -0.1147621
0.043873709 0.17816499 -0.1193519
0.077779964 0.18355227 -0.11133558
0.15079392 0.18711592 -0.11903393
0.01909096 0.19199908 -0.1117676
0.249428 0.29742739 -0.11841182
0.249428 0.3185111 -0.11071536
0.246626 0.33418939 -0.11238749
0.069292232 0.350319 -0.11382647
-0.22759941 -0.350319 -0.10905053
-0.21130095 -0.350319 -0.10176231
-0.12665379 -0.350319 -0.1086957
-0.26238999 -0.31212685 -0.103494
-0.26238999 -0.22891323 -0.10570282
-0.26238999 -0.20365155 -0.10443962
0.21633828 -0.12005141 -0.1016071
-0.041977108 0.019371981 -0.10893546
-0.26238999 0.14486371 -0.103409
-0.26238999 0.17204003 -0.10049962
0.010927379 0.19912441 -0.10116493
-0.26238999 0.28584248 -0.10944052
-0.076194011 0.350319 -0.1053931
0.038056087 0.350319 -0.10361329
0.18347096 0.350319 -0.10897152
-0.2322996 -0.35031897 -0.098822229
-0.16458505 -0.350319 -0.095564216
0.23036699 -0.350319 -0.09524025
-0.26238999 -0.16708645 -0.097574234
0.094478965 -0.12109561 -0.099475421
-0.0686609 -0.11406072 -0.098253146
0.19758335 -0.1138054 -0.097874522
-0.26239002 -0.10327221 -0.093866102
0.041302942 0.20180841 -0.097171038
0.20755607 0.20098148 -0.098401554
0.249428 0.31935331 -0.093658879
0.21789007 0.350319 -0.099015281
-0.17654973 -0.35031903 -0.080604851
-0.059496664 -0.350319 -0.088059805
0.19780256 -0.350319 -0.084624745
-0.26238999 -0.20649074 -0.085858859
0.24662599 -0.13060687 -0.089529656
0.067733109 -0.12750468 -0.086391538
-0.051631175 -0.11821981 -0.088862687
-0.014148009 -0.11852489 -0.088239856
0.15155022 -0.11961637 -0.086011663
-0.054424085 -0.076592311 -0.083907276
0.11090506 0.20254004 -0.082097493
0.22495978 0.20730321 -0.088994615
0.1025157 0.21017219 -0.082192816
0.25485969 0.2253309 -0.08363352
0.249428 0.25702053 -0.083665341
0.249428 0.29676151 -0.086743169
-0.25984854 0.350319 -0.089350991
0.12650962 0.350319 -0.086155847
-0.23020419 -0.350319 -0.072877288
-0.16873294 -0.350319 -0.078656957
-0.095931932 -0.350319 -0.072249852
-0.0074610449 -0.350319 -0.074168414
-0.26238999 -0.32474521 -0.076223843
-0.26238999 0.021975398 -0.076143026
0.019988637 0.21384779 -0.071458727
0.12085265 0.21358806 -0.072217241
0.2153344 0.21402434 -0.070943184
0.24662602 0.34660095 -0.079986915
0.003128767 0.350319 -0.072856411
0.19793996 0.350319 -0.075219691
-0.20951271 -0.350319 -0.069799572
0.24662599 -0.26604277 -0.069186494
-0.26238999 -0.1460057 -0.062214315
0.12804529 -0.13866962 -0.063474521
0.17101707 -0.1356356 -0.069792539
0.148957 -0.1296156 -0.065598607
-0.041413285 -0.046814393 -0.063931905
-0.26238999 -0.038772598 -0.068220548
-0.032118686 -0.015519887 -0.061151184
-0.041175719 0.12378547 -0.065550588
-0.043832764 0.13501683 -0.061861739
-0.048976053 0.14888123 -0.066441216
0.260638 0.197786 -0.060675122
0.22331673 0.20777074 -0.066821203
0.086510822 0.21442813 -0.069763958
-0.0015019476 0.350319 -0.06029623
0.21938443 0.350319 -0.063085392
-0.26238999 -0.32526049 -0.056096233
0.076898858 -0.14083314 -0.052444585
0.11982444 -0.14061403 -0.053561635
0.14053442 -0.14042288 -0.054536149
0.1518176 -0.14124708 -0.050334297
0.24105386 -0.1400277 -0.056550883
0.049571659 -0.13239796 -0.057775225
-0.26238999 -0.12202657 -0.053832412
-0.26238999 -0.099177569 -0.059923366
-0.26238999 -0.063080713 -0.054659963
-0.26238999 -0.05462604 -0.056254022
-0.031783417 0.099444687 -0.055689275
-0.063273415 0.19539474 -0.057496972
0.260638 0.19274324 -0.051059969
-0.058664531 0.2190899 -0.056149825
-0.049432009 0.21159299 -0.055658355
0.016534464 0.2118296 -0.05496728
0.087295204 0.21873051 -0.057199404
0.11819132 0.21905556 -0.056250155
-0.26238999 0.2515305 -0.056969851
-0.26238999 0.28676671 -0.056252249
-0.14988369 0.350319 -0.057798319
0.053465821 0.350319 -0.057968147
0.1759811 0.35031903 -0.055912357
-0.16884072 -0.350319 -0.049915724
0.14508381 -0.350319 -0.047598369
-0.26238999 -0.33547699 -0.040862568
-0.26238999 -0.25365496 -0.044141408
-0.26238999 -0.18199989 -0.042072069
0.038606308 -0.13507929 -0.044102922
0.22982372 -0.13491158 -0.044958048
-0.052306551 -0.08898098 -0.04682688
-0.027270596 -0.012948072 -0.04393588
-0.26238999 0.001365751 -0.048318796
-0.26238999 0.015275672 -0.041408405
-0.26238999 0.19261643 -0.049662817
0.053961247 0.21457233 -0.04695718
0.012318794 0.22209373 -0.047377523
0.043970004 0.2224974 -0.046198666
0.08216875 0.22127277 -0.04977509
0.25881597 0.23906521 -0.04234761
-0.26238999 0.33500257 -0.049486004
-0.033949651 0.350319 -0.040814497
0.034667887 0.350319 -0.049503766
0.061216228 0.35031903 -0.042492092
-0.10654774 -0.350319 -0.031901762
0.12729512 -0.350319 -0.033210728
-0.26238999 -0.33513403 -0.033911571
0.24662602 -0.30772734 -0.03298606
0.22011466 -0.14424689 -0.035040762
-0.0016601589 -0.13588667 -0.039986033
0.13470468 -0.13655886 -0.036558513
-0.26238999 -0.086877882 -0.030771546
-0.050860263 -0.086513579 -0.038861938
-0.016943315 0.021410869 -0.037069391
-0.26238999 0.10069146 -0.036499735
0.033386689 0.21715838 -0.039353207
0.11395358 0.21750151 -0.034325443
0.16989097 0.21745208 -0.035049647
-0.0686609 0.22438233 -0.037579704
-0.029675292 0.22482538 -0.033517614
0.08002618 0.35031897 -0.031398587
0.11173935 0.350319 -0.03876346
-0.15735002 -0.35031903 -0.022043511
0.260638 -0.16008441 -0.029587403
0.260638 -0.15163024 -0.029329052
-0.26238999 -0.14759529 -0.023824498
0.057911899 -0.14688028 -0.021615412
0.12184138 -0.13876547 -0.025306793
-0.26238999 -0.017462708 -0.026031161
-0.26238999 0.0320988 -0.025901802
-0.26238999 0.11411053 -0.023929469
-0.058843598 0.19156723 -0.020137392
-0.065391317 0.20893522 -0.028560555
0.12243683 0.21796037 -0.027601633
0.16066398 0.21837591 -0.021512639
0.18438506 0.22529782 -0.026594611
0.260638 0.23499456 -0.02088034
-0.10266268 0.350319 -0.020590343
-0.074545249 0.350319 -0.028905137
-0.021900823 0.350319 -0.020963157
-0.21977785 -0.35031903 -0.018724397
-0.024129232 -0.350319 -0.010813155
-0.26238999 -0.31533077 -0.014700907
0.24662599 -0.28286806 -0.013153262
-0.026603388 -0.14066401 -0.013195399
-0.26238999 -0.10118946 -0.011140607
-0.26238999 0.055771589 -0.011490233
0.16450587 0.21860717 -0.0181241
0.17518762 0.21916096 -0.010009584
0.249428 0.2732594 -0.011302595
-0.20563175 0.350319 -0.018007092
-0.15280873 0.350319 -0.010822788
0.038500935 0.350319 -0.013624866
0.21496764 0.35031903 -0.017083235
0.015148654 -0.350319 -0.0019269213
-0.041923612 -0.14725062 -0.0031846007
-0.017604928 -0.00024889596 -0.0057759685
-0.01972325 0.085578665 -0.0023535483
-0.26238999 0.16812384 -0.0093179382
0.249428 0.26134965 -0.0058794599
0.24952072 0.30862111 -0.0074355006
-0.19413976 0.350319 -0.00030960888
-0.13941374 0.35031897 -0.00023126975
0.061250307 -0.350319 0.0053558052
0.23621282 -0.350319 0.0025656
-0.26238999 -0.30364704 0.007379517
0.246626 -0.18236253 0.0084186858
0.0060787667 -0.14684048 0.0028271424
0.13737012 -0.14701678 0.00024305299
-0.066166662 -0.13278693 0.002084533
-0.042829327 -0.13965821 0.001551779
0.098723948 -0.13928312 0.0070515871
0.25250998 -0.10878835 0.009590365
-0.049096551 -0.086044073 0.0015782728
-0.008260984 0.050772842 0.0054508154
0.24174851 0.21995015 0.0015545286
0.049478184 0.2202674 0.0082294745
0.098329112 0.22005796 0.0092970822
0.25617269 0.27037451 0.0091400174
-0.21853521 0.350319 0.0071413741
0.037403069 0.350319 0.0091793686
0.18804987 -0.350319 0.017353281
0.24662602 -0.19880423 0.01934753
-0.26238999 -0.18319356 0.013112683
0.078759894 -0.14606318 0.014220493
-0.26238999 -0.0024525113 0.010295999
0.23586291 0.21890089 0.015195762
-0.052661359 0.22578582 0.017770976
0.016804907 0.22569938 0.018211648
0.074869134 0.22716245 0.010752745
0.089487247 0.22608821 0.016229438
0.25759453 0.27454442 0.014992911
-0.193993 0.350319 0.016082309
0.069888353 0.350319 0.017278358
0.23373741 0.35031897 0.018404976
0.22998102 -0.350319 0.024462566
-0.036167957 -0.14553508 0.021960998
0.099100277 -0.14551961 0.022187982
0.16560157 -0.13778347 0.029039834
-0.26238999 -0.089695722 0.022166073
-0.26238999 -0.008826375 0.027729608
-0.26238999 0.00038531236 0.020080019
-0.015190082 0.039403804 0.029657157
-0.067486495 0.21294348 0.028885877
0.0051784627 0.22342709 0.029796209
-0.10221283 -0.350319 0.039425876
-0.019376956 -0.350319 0.035320923
0.17455347 -0.350319 0.035958283
0.20717806 -0.350319 0.035802372
0.06570828 -0.1362717 0.035925701
-0.26238999 -0.11510543 0.039485265
-0.26238999 -0.048910856 0.035895254
0.12549968 0.21440451 0.038117852
0.24643834 0.2156208 0.031917278
0.0091821738 0.22287011 0.032635681
0.058143727 0.22151509 0.039543763
0.23084959 0.22303614 0.031789236
-0.18248875 0.350319 0.039207652
-0.095392324 0.35031897 0.035300724
0.1893844 0.35031897 0.038911045
0.20591059 0.350319 0.0321768
-0.15536173 -0.350319 0.043702826
-0.13799174 -0.350319 0.042846374
0.073550723 -0.350319 0.040337816
0.24662602 -0.3201853 0.041561037
0.24662599 -0.16650897 0.044394199
-0.045815218 -0.13236865 0.047323044
0.092145205 -0.13339776 0.04431795
0.21128346 -0.13394444 0.04272154
-0.049223125 -0.078666434 0.040110931
-0.021791346 0.027946349 0.046254836
-0.26238999 0.091349483 0.046184257
-0.26238999 0.10526869 0.048460096
0.068497494 0.21327683 0.043866664
-0.021916963 0.2213192 0.040542472
0.25394017 0.23507716 0.047333065
0.246626 0.24599497 0.049242906
-0.26238999 0.33833408 0.04943347
-0.2568599 0.35031903 0.041830882
0.084907353 0.350319 0.043852709
-0.1158435 -0.350319 0.055455513
-0.064288594 -0.350319 0.054671612
0.246626 -0.34604001 0.058490805
0.24662599 -0.21059564 0.050899915
0.065431856 -0.13033551 0.053260129
-0.043474488 -0.053595424 0.055549935
-0.068555228 0.21822947 0.056294281
0.2038409 0.21693489 0.058993872
0.13559119 -0.350319 0.066913426
0.24662602 -0.29663444 0.069710955
0.24662602 -0.26663902 0.060936354
0.25283492 -0.14941129 0.065645657
-0.044886347 -0.05409167 0.061731577
-0.030376012 0.056999337 0.069438547
-0.062333338 0.18720743 0.063871033
-0.26238999 0.20908752 0.067962795
-0.054066952 0.21591504 0.061076075
0.034307551 0.21183655 0.069402941
0.14282043 0.2121404 0.068782598
-0.029974461 0.350319 0.065486476
0.15128562 0.350319 0.06793768
0.21259837 0.350319 0.066934124
-0.096244976 -0.350319 0.078903094
0.21857154 -0.13047525 0.075235702
0.036202528 -0.12345086 0.073364131
-0.037907675 -0.007260167 0.079435594
-0.26238999 0.015455183 0.07964474
-0.03325431 0.0479724 0.078574553
-0.032996386 0.054815702 0.077400878
-0.032508992 0.067699403 0.071938396
-0.052352414 0.1486395 0.076636255
-0.060273256 0.1731755 0.079714447
-0.26238999 0.18011875 0.071869224
0.202324 0.19965127 0.077793345
0.19104323 0.2096971 0.07377097
0.15822735 0.350319 0.076289743
0.16537856 0.350319 0.074699119
0.24662602 -0.2451912 0.08105962
-0.052875653 -0.1236326 0.087785795
-0.029036801 -0.12786442 0.081488445
0.004006987 -0.12876296 0.080151349
0.12648831 -0.12372752 0.08764454
-0.048877712 -0.11789951 0.083315551
0.1019358 -0.11601793 0.086115301
-0.26238999 0.020426475 0.084764838
-0.040725511 0.084313773 0.089993298
0.085584611 0.19514972 0.086983599
0.066871598 0.20645306 0.080394194
-0.10839538 0.350319 0.085264362
-0.069353089 0.350319 0.088904396
-0.13113707 -0.350319 0.09200491
-0.12131811 -0.350319 0.097147994
-0.26238999 -0.30282706 0.093534142
-0.045293711 -0.108227 0.097707957
-0.26238999 -0.044321716 0.097890578
-0.049891111 -0.047530826 0.090132229
-0.049152311 -0.033976857 0.099275395
-0.26238999 0.077894151 0.092829585
-0.05645638 0.14504573 0.097825326
-0.05910987 0.15313947 0.099582642
0.11100961 0.198845 0.095927246
0.19075157 0.20113856 0.091244593
0.25235248 0.21696262 0.092599183
0.15866786 0.35031903 0.094941333
-0.065353014 -0.350319 0.10382795
0.24662602 -0.26763791 0.10944309
0.12585267 -0.10578366 0.10134358
-0.042283714 0.056887209 0.10270992
0.015407203 0.17941222 0.10918688
0.25905803 0.21149318 0.10376469
-0.26238999 0.29471397 0.10663208
-0.17693523 0.350319 0.10985349
0.21069795 0.35031903 0.10737033
-0.19068101 -0.350319 0.11109981
-0.07115902 -0.350319 0.11207657
0.246626 -0.26304042 0.11648639
0.0042134505 -0.10578311 0.1143474
-0.050331585 -0.095617667 0.11628148
-0.26238999 -0.0029171407 0.1191544
-0.064634323 0.16047174 0.11415377
0.2411273 0.1742654 0.1150874
0.027182987 0.18750755 0.11093929
0.24662602 0.22699825 0.11107843
0.24662602 0.34400958 0.11555262
-0.16195685 0.35031897 0.11540627
-0.12022751 0.350319 0.11587848
0.055672131 0.35031903 0.11571886
0.24092874 0.350319 0.11431934
0.24662602 -0.17452943 0.12909158
0.246626 -0.16886435 0.12814978
0.1241587 -0.093591832 0.12767315
0.260638 -0.081881672 0.12566423
-0.049061343 0.059120845 0.12113047
-0.052528899 0.069739006 0.12909386
0.260638 0.13203147 0.1252432
-0.064918309 0.14801109 0.12743066
0.15571158 0.16794766 0.12233026
-0.26238999 0.34287065 0.12585099
0.246626 0.3497574 0.12783581
-0.0045113973 0.350319 0.12348642
0.11252499 -0.350319 0.1357739
0.16125767 -0.350319 0.13479564
-0.26238999 -0.16699961 0.13436714
0.246626 -0.16634014 0.13946293
-0.0686609 -0.082319625 0.13524103
-0.045789596 -0.086738333 0.13365112
-0.011991234 -0.084245317 0.13582566
-0.0045309444 -0.080834314 0.13880092
0.16848324 -0.081783488 0.137973
0.21988709 -0.086768202 0.13362508
-0.013905192 -0.077048399 0.13248003
0.091093138 -0.072380498 0.13655198
-0.013240576 -0.06895946 0.13953626
-0.063400626 -0.051347014 0.13545001
-0.26238999 -0.01111728 0.13021082
-0.26238999 0.013683639 0.13325459
0.17108604 0.15383105 0.13584751
-0.048785523 0.16627181 0.13528301
-0.26238999 0.30542201 0.13388568
0.249428 0.30443296 0.13246138
-0.2053656 0.350319 0.1387734
0.10454854 0.350319 0.1367504
0.17977884 0.35031903 0.13889717
-0.13606894 -0.350319 0.14732562
0.039208036 -0.350319 0.14584976
-0.26238999 -0.25469431 0.14869052
0.246626 -0.25137395 0.14340016
0.24662599 -0.21029091 0.14433855
0.246626 -0.19144203 0.14937876
0.14427713 -0.068151735 0.14024086
-0.26238999 0.11695296 0.1437915
0.082420163 0.13469873 0.14870518
-0.023393994 0.14406958 0.14240763
-0.018765308 0.14877447 0.14798194
0.10304125 0.14706649 0.14912972
0.14761545 0.14733283 0.14895073
0.17867009 0.15828535 0.14159052
-0.26238999 0.29264095 0.14721154
-0.26238999 0.33620378 0.14186062
-0.25243592 0.350319 0.14245546
-0.2171756 0.35031903 0.14724091
-0.25355899 -0.350319 0.15315767
-0.26238999 -0.32743609 0.15651751
-0.26238999 -0.17704342 0.15548374
-0.26238999 -0.074196167 0.15391949
0.028874986 -0.058357019 0.15610459
0.21013051 -0.047729284 0.15323603
0.260638 -0.045468234 0.15775965
-0.061344322 0.026327632 0.15613459
0.260638 0.023900844 0.15703481
-0.061486796 0.064552084 0.15480979
0.260638 0.067781776 0.15266587
-0.26238999 0.092686377 0.15643685
-0.043846406 0.11573359 0.15996224
0.12473633 0.1201794 0.15843984
0.18658969 0.12025139 0.15841439
0.17888168 0.13695405 0.15592539
0.19185346 0.13854517 0.15485615
0.19557828 0.14073992 0.15338124
0.21600766 0.14143777 0.15291229
0.246626 0.20390105 0.15835017
-0.21896429 -0.350319 0.16865478
-0.10504521 -0.350319 0.1629083
0.12277658 -0.350319 0.16501805
0.24662599 -0.09291181 0.16144508
-0.018597867 -0.050112747 0.16014279
-0.043957025 -0.030001584 0.16999359
0.080576494 -0.033131395 0.16846056
0.10129085 -0.03344648 0.16023196
-0.054089732 -0.027176131 0.16330329
0.025960062 -0.025269875 0.16423701
0.016318312 -0.017495684 0.16792266
0.023045268 -0.016105495 0.16819537
0.11084342 -0.014942651 0.16842347
0.020129796 -0.0097886119 0.16943449
0.096140727 0.087297872 0.16969962
0.22871633 0.088107817 0.16942227
0.098690324 0.098739065 0.16578175
0.0470552 0.10247166 0.16450359
0.081861638 0.1243863 0.16437107
0.20681466 0.12193221 0.16550322
-0.26238999 0.2091115 0.16589475
0.24662599 0.23444277 0.16166675
0.249428 0.28562033 0.16249789
-0.10219544 0.350319 0.16555817
0.078732193 0.35031903 0.16612996
0.2196617 -0.350319 0.17644131
-0.26238999 -0.30282387 0.17465888
-0.26238999 -0.25768456 0.17751396
-0.26238999 -0.23145685 0.17203903
0.011059104 -0.015809655 0.17564282
-0.26238999 -0.0024637356 0.17272793
0.12585582 -0.0037251576 0.1706239
0.20253579 -0.0067745866 0.17002572
0.0048776027 0.0040885312 0.17954585
0.052424308 0.021319073 0.17553657
-1.8052757e-05 0.039723821 0.17616305
0.15437584 0.038226917 0.17626517
-0.26238999 0.041458204 0.17129961
0.16457243 0.040727735 0.17609456
0.24530749 0.048548423 0.17556103
-0.011408884 0.066504925 0.17433597
0.013156135 0.06980174 0.17411107
0.012093075 0.079976469 0.17987067
-0.067793749 0.088410124 0.17698263
0.1237383 0.081426613 0.17937408
0.20885664 0.089092158 0.17674908
0.045835372 0.098339558 0.17358236
0.12280571 0.09266308 0.17552623
0.1414858 0.099118374 0.17331566
0.260638 0.12885782 0.17841129
0.249428 0.28825364 0.17322472
-0.26238999 0.33700794 0.17781644
0.076044165 0.350319 0.17893533
0.24662599 -0.26458803 0.18853065
0.25734103 -0.039466798 0.18184721
0.055917084 0.010129949 0.18073088
0.088040262 0.018049639 0.18228433
-0.015387233 0.043514639 0.18317209
0.12252088 0.045812581 0.18301532
0.25071025 0.097220458 0.18961823
0.249428 0.26202232 0.18088138
-0.26238999 0.2834771 0.18725789
0.24536774 0.35031897 0.18392895
-0.20709322 -0.350319 0.19240269
-0.012874626 -0.350319 0.19345036
0.13619252 -0.350319 0.19765736
0.246626 -0.26910123 0.19674878
-0.26238999 -0.20592292 0.19422472
-0.26239002 -0.16139087 0.19668937
-0.26238999 -0.10905641 0.19668612
0.24662602 -0.075392544 0.19987348
-0.26239002 0.12143444 0.19581285
-0.26238999 0.19252726 0.19564828
0.249428 0.2896826 0.19687945
-0.26238999 0.3043932 0.19432938
-0.084606633 -0.350319 0.20087595
-0.26238999 -0.3323305 0.20467657
-0.26238999 -0.22700699 0.2008874
-0.26238999 0.091067895 0.20413071
-0.26238999 0.16669293 0.20875302
0.246626 0.16906099 0.20186862
-0.24389125 0.350319 0.2002603
0.016030245 0.350319 0.20842665
0.050566636 -0.350319 0.21938714
-0.26238999 -0.14247954 0.21178336
0.246626 -0.089870691 0.21218942
-0.26238999 0.048888475 0.21241412
-0.26238999 0.09689635 0.21627095
-0.11498801 0.35031897 0.21225655
-0.1726355 -0.350319 0.22530857
-0.15427667 -0.350319 0.22754817
-0.065643124 -0.350319 0.22722889
0.23063472 -0.35031903 0.22227736
-0.26238999 0.018708162 0.22351086
-0.26238999 0.11702993 0.22863276
0.246626 0.15513842 0.22591823
0.246626 0.19748423 0.22791097
-0.10933537 0.350319 0.22616301
-0.0019034194 0.350319 0.22223647
0.15461889 0.35031903 0.2241801
-0.20251611 -0.35031897 0.23710239
-0.084967986 -0.350319 0.23646876
0.246626 -0.19588448 0.2384595
0.246626 0.0066318708 0.2300216
-0.26238999 0.29500169 0.23390774
0.041799769 -0.350319 0.24114577
-0.19647655 -0.3489171 0.24172001
0.071795382 -0.34919012 0.24172002
-0.21093515 -0.33656985 0.24172001
0.21246679 -0.33638474 0.24171999
-0.14147446 -0.32300395 0.24172001
-0.13041103 -0.32353753 0.24172001
-0.22085091 -0.31756914 0.24172001
-0.17689113 -0.31930986 0.24172001
-0.16550355 -0.31574696 0.24172001
-0.084771119 -0.31172746 0.24171999
0.070184648 -0.31955966 0.24172001
0.13140938 -0.31849656 0.24172001
0.17937329 -0.31708393 0.24172002
-0.13375458 -0.28015921 0.24171999
0.032218479 -0.27042517 0.24172001
0.17925802 -0.27877954 0.24172001
0.19503449 -0.27749711 0.24172001
-0.23196121 -0.26020995 0.24172001
-0.18873551 -0.26572543 0.24172001
-0.16170596 -0.26176637 0.24172001
0.0013798699 -0.26090309 0.24171999
0.13874646 -0.26894614 0.24171999
0.23970173 -0.26567677 0.24172001
-0.19614829 -0.25624773 0.24172001
-0.17637473 -0.25369212 0.24172001
0.081657514 -0.25268257 0.24172002
0.1856695 -0.24491027 0.24171999
-0.18271956 -0.23589309 0.24172002
-0.15254933 -0.2303126 0.24172001
-0.17961825 -0.22227219 0.24171999
-0.1565821 -0.2234318 0.24172002
-0.073113397 -0.22873458 0.24171999
-0.081650376 -0.21819887 0.24172001
0.16196576 -0.21127883 0.24171999
-0.13087174 -0.19587633 0.24172001
0.097855851 -0.19785209 0.24172002
-0.18063751 -0.18055482 0.24172001
0.089532495 -0.18916118 0.24171999
-0.13654922 -0.17357861 0.24171999
0.021267284 -0.1792206 0.24171999
-0.16328436 -0.16217056 0.24171999
-0.1581836 -0.16639826 0.24172002
-0.052399248 -0.16038366 0.24172002
0.2167905 -0.1540508 0.24172002
0.22025527 -0.15452728 0.24172001
-0.20873487 -0.14713134 0.24172001
-0.16852833 -0.1479498 0.24172001
0.0046805106 -0.147046 0.24171999
0.11539322 -0.14056543 0.24172002
-0.038850311 -0.13724773 0.24172002
-0.25619107 -0.12038958 0.24172001
-0.0075112395 -0.12048011 0.24172001
0.01843993 -0.12956128 0.24172001
-0.26238999 -0.11148024 0.24141264
-0.02182477 -0.11268905 0.24172001
0.10457713 -0.10794079 0.24172001
0.021028563 -0.096670985 0.24172001
0.11985631 -0.08988294 0.24171999
0.20604888 -0.084127121 0.24172001
0.23289624 -0.074415982 0.24172001
-0.26000473 -0.064948902 0.24171999
0.011725055 -0.06218195 0.24172002
0.070413724 -0.052735209 0.24171999
0.23266232 -0.051860839 0.24172001
-0.041160628 -0.047529936 0.24172002
0.18548477 -0.040123641 0.24171999
-0.069299385 -0.035194173 0.24172002
-0.025678426 -0.030056298 0.24171999
-0.016194381 -0.036364585 0.24172002
-0.0557772 -0.028274491 0.24172001
-0.037468016 -0.0018436909 0.24172001
0.10285981 -0.0064868554 0.24171999
0.24209826 0.0087769777 0.24172001
-0.20344868 0.011734694 0.24171999
-0.076359749 0.013737477 0.24171999
0.12482798 0.015816078 0.24172002
0.15687965 0.019013219 0.24172001
0.18065535 0.016366214 0.24172001
0.12686259 0.029475406 0.24172001
-0.20150602 0.034109555 0.24172001
-0.25173965 0.047667027 0.24172001
-0.091751322 0.040662147 0.24171999
0.24460891 0.047057331 0.24171999
-0.18688771 0.053464003 0.24171999
0.013057142 0.055365592 0.24172001
-0.21991192 0.062594354 0.24171999
-0.17557892 0.064772755 0.24172001
0.039853953 0.079058245 0.24171999
-0.12441406 0.088164613 0.24171999
-0.13754603 0.095412403 0.24172001
0.0097054318 0.09161514 0.24171999
0.082542948 0.096318029 0.24171999
0.22910236 0.09969458 0.24171999
-0.031111488 0.10170255 0.24172001
-0.024579801 0.10717659 0.24171999
0.075091161 0.10820694 0.24172001
-0.039925665 0.11403753 0.24171999
0.10803831 0.12767187 0.24172002
0.17003985 0.12287641 0.24172002
-0.15998904 0.13886118 0.24172001
-0.024880525 0.13242325 0.24172001
0.15290929 0.1403458 0.24171999
-0.21645096 0.15665933 0.24171999
0.15149255 0.15261942 0.24172001
0.17758527 0.15039651 0.24172001
0.19604525 0.15640661 0.24172001
-0.031961236 0.16338155 0.24171999
0.022521585 0.16653606 0.24171999
-0.18643501 0.17303124 0.24172001
0.1497205 0.1777444 0.24172001
-0.16318119 0.18371265 0.24172002
0.16477604 0.18054496 0.24171999
0.19018884 0.18879555 0.24172001
-0.21642537 0.20149751 0.24172001
-0.087597065 0.2085785 0.24172001
-0.020920023 0.2058647 0.24172002
0.0026164353 0.20317814 0.24171999
-0.24417856 0.22563182 0.24172001
-0.034751061 0.22018489 0.24172002
0.19188954 0.23349611 0.24172002
-0.12895145 0.24504872 0.24172002
0.054086942 0.24184245 0.24171999
0.1496862 0.24607947 0.24172001
-0.048210569 0.26718205 0.24172002
0.098912656 0.26749775 0.24172001
0.2180018 0.27100638 0.24172001
-0.26107273 0.28182077 0.24172001
0.024931163 0.28555426 0.24172001
0.2427493 0.2846342 0.24172001
-0.056781493 0.31384376 0.24172002
0.15681985 0.31430593 0.24172001
-0.039234601 0.32835221 0.24172001
0.10116442 0.32176206 0.24171999
-0.1907635 0.34962517 0.24171999
-0.070719153 0.34389642 0.24172001
0.02711165 0.34886661 0.24172001
0.050290033 0.3449195 0.24172002
