# .PCD v0.7 - Point Cloud Data file format
VERSION 0.7
FIELDS x y z
SIZE 4 4 4
TYPE F F F
COUNT 1 1 1
WIDTH 977
HEIGHT 1
VIEWPOINT 0 0 0 1 0 0 0
POINTS 977
DATA ascii
-0.14103949 -0.31332001 -0.26264799
-0.20910633 -0.29603764 -0.26264799
-0.1391831 -0.29303697 -0.26264799
-0.042988725 -0.29361796 -0.26264799
-0.16826552 -0.28245971 -0.26264799
0.030233076 -0.28505814 -0.26264799
-0.079988301 -0.27510089 -0.26264799
0.063595124 -0.27795938 -0.26264799
0.13350527 -0.27478671 -0.26264799
0.1841998 -0.27552608 -0.26264799
-0.027366323 -0.26444277 -0.26264799
-0.015012395 -0.26779288 -0.26264799
0.1134375 -0.26710892 -0.26264799
0.12942538 -0.2682628 -0.26264799
-0.19462176 -0.25803998 -0.26264799
0.19839761 -0.24417365 -0.26264799
-0.0086997002 -0.2225015 -0.26264799
0.15937337 -0.22727793 -0.26264799
-0.2077626 -0.21999818 -0.26264799
0.024592996 -0.21923901 -0.26264799
0.092450708 -0.20800208 -0.26264799
-0.16135779 -0.19630992 -0.26264799
-0.12988868 -0.19214597 -0.26264799
-0.14023717 -0.18857403 -0.26264799
-0.077218868 -0.18579876 -0.26264799
0.059043713 -0.18210523 -0.26264799
-0.22229999 -0.17792387 -0.26228869
0.040059008 -0.17830679 -0.26264799
-0.19962507 -0.16065609 -0.26264799
0.097439408 -0.16406678 -0.26264799
-0.08973515 -0.1526539 -0.26264799
-0.055238724 -0.15503035 -0.26264799
0.22551234 -0.15659058 -0.26264799
-0.19970267 -0.14657155 -0.26264799
-0.0050041387 -0.11774226 -0.26264799
0.18550195 -0.11193117 -0.26264799
-0.02939719 -0.090897277 -0.26264799
-0.21194941 -0.081732057 -0.26264799
-0.033675876 -0.084403135 -0.26264799
0.0047739334 -0.063642688 -0.26264799
-0.12160832 -0.057072081 -0.26264799
-0.10504033 -0.058354303 -0.26264799
0.18431291 -0.055662967 -0.26264799
-0.21551248 -0.034404323 -0.26264799
0.088923238 -0.033954352 -0.26264799
-0.095502779 -0.016985061 -0.26264799
-0.045327157 -0.0047038049 -0.26264799
-0.21514446 0.0049373209 -0.26264799
-0.081927687 0.0051389802 -0.26264799
0.031577818 0.00096455216 -0.26264799
-0.21444374 0.013881437 -0.26264799
-0.042559467 0.018682346 -0.26264799
-0.01298169 0.017766893 -0.26264799
-0.050680801 0.028222352 -0.26264799
0.067275867 0.037842147 -0.26264799
-0.084191434 0.04336758 -0.26264799
0.080727644 0.05010397 -0.26264799
-0.13864793 0.083759978 -0.26264799
-0.10451365 0.095629305 -0.26264799
-0.22229999 0.10948259 -0.2602694
-0.14523727 0.10443155 -0.26264799
-0.21800317 0.11351696 -0.26264799
-0.12181704 0.11426848 -0.26264799
-0.029507242 0.12433708 -0.26264799
0.21911578 0.12197426 -0.26264799
0.0056257844 0.13755067 -0.26264799
0.19639102 0.13046841 -0.26264799
-0.20037857 0.14582253 -0.26264799
0.19619836 0.14772402 -0.26264799
-0.079952128 0.15505213 -0.26264799
0.062773988 0.15520367 -0.26264799
0.00077290088 0.16548164 -0.26264799
0.02394864 0.16235641 -0.26264799
0.044608936 0.16829218 -0.26264799
-0.067511037 0.17536929 -0.26264799
-0.21081859 0.18761843 -0.26264799
-0.17486875 0.18223223 -0.26264799
-0.10890657 0.18330812 -0.26264799
-0.0066877343 0.19320272 -0.26264799
0.14922011 0.19145496 -0.26264799
-0.19403183 0.20156212 -0.26264799
-0.17459497 0.20126894 -0.26264799
-0.026665807 0.20331554 -0.26264799
0.11589678 0.20007592 -0.26264799
-0.075791046 0.22490963 -0.26264799
0.10829797 0.22920731 -0.26264799
-0.21105999 0.23226339 -0.26264799
0.02212682 0.25611043 -0.26264799
0.2086246 0.25186393 -0.26264799
-0.022578765 0.26276338 -0.26264799
-0.18600771 0.27937448 -0.26264799
-0.09309309 0.27010757 -0.26264799
0.057919957 0.2704882 -0.26264799
-0.12771729 0.29632542 -0.26264799
-0.14662448 0.30122104 -0.26264799
0.057473719 0.30776972 -0.26264799
-0.037391204 0.31705466 -0.26264799
-0.082911968 0.32275042 -0.26264799
0.20884298 0.32570097 -0.26264799
-0.22229028 0.33017999 -0.26264799
-0.070255943 0.33030269 -0.26264799
-0.22229999 -0.32850337 -0.25230014
-0.047182966 -0.32785699 -0.25643945
-0.025662325 -0.32785699 -0.25950021
-0.23243931 -0.23706846 -0.25220099
0.230542 0.082095198 -0.25517711
-0.22229999 0.09923353 -0.25730729
-0.22229999 0.15407729 -0.25463188
-0.22229999 0.19362575 -0.25895351
0.245032 0.24953754 -0.25340641
0.230542 -0.17180187 -0.24724431
-0.23607515 -0.076180197 -0.24693738
0.230542 -0.00055518001 -0.24673519
-0.0017534309 0.32423499 -0.24478324
-0.17490439 -0.32785699 -0.23322624
0.21967301 -0.29672593 -0.23722342
-0.24041298 -0.14700583 -0.2346835
0.230542 -0.012887191 -0.23625463
-0.1788509 0.32423499 -0.23615423
-0.0019890731 0.32423499 -0.23652664
0.043661632 0.32423499 -0.2346919
-0.18461962 0.33148003 -0.23532462
0.230542 -0.041030698 -0.22452518
-0.22229999 0.070875309 -0.2291556
0.230542 0.22960934 -0.22143006
-0.12983516 0.32423499 -0.22906664
0.15256424 0.32423499 -0.22416623
0.16530836 0.32423496 -0.22690777
0.17497043 -0.32785696 -0.21170953
-0.240413 -0.23851849 -0.21789253
-0.240413 -0.12682672 -0.21749146
0.230542 -0.07399334 -0.2157695
-0.22229999 0.0031055498 -0.21768662
0.230542 0.1166457 -0.21234125
0.230542 0.20773888 -0.2138007
0.24140999 0.25624901 -0.21744128
-0.22229999 0.26449209 -0.21332946
0.24402936 0.28819591 -0.21153362
0.13324648 0.32423496 -0.21050665
-0.14749067 0.33148 -0.21282181
0.028446637 0.33148 -0.21757776
0.14725707 0.33148 -0.21143405
-0.18113603 -0.32785696 -0.20405529
-0.240413 -0.2669363 -0.20745187
0.21967299 -0.25462371 -0.20396416
-0.24041301 -0.17859231 -0.2080294
-0.22574903 -0.124426 -0.20618139
0.23054199 -0.1179015 -0.20566291
-0.23693141 -0.085829303 -0.20830159
0.230542 -0.074256465 -0.2030777
-0.23612225 -0.018285001 -0.20421632
-0.22229999 0.10282175 -0.20544362
-0.0047462434 0.33148 -0.20768714
0.2215272 0.33148 -0.20492424
-0.11905299 -0.33111399 -0.19098027
0.13083002 -0.33510301 -0.19506805
-0.086161077 -0.32785699 -0.19425684
-0.23722914 -0.076180197 -0.19359027
-0.23324421 -0.066531099 -0.19843698
-0.22229999 0.083696097 -0.19936919
0.26214898 0.29280764 -0.19222897
-0.026617154 0.32423499 -0.19005419
0.015405059 0.32423499 -0.19688506
0.025180938 0.32423499 -0.1987519
0.18173522 0.32423499 -0.19351988
0.11009299 -0.33510301 -0.18202156
0.12354079 -0.33510301 -0.18814991
-0.22229999 -0.32340744 -0.18250626
0.082018524 -0.32785699 -0.18876892
0.21967299 -0.3208113 -0.18215774
-0.22718197 -0.124426 -0.18486962
-0.22451442 -0.076180197 -0.18946573
-0.2341844 -0.0086358804 -0.18645647
0.230542 0.086206809 -0.18224341
-0.22229999 0.14221279 -0.18234895
-0.22229999 0.15077382 -0.18638356
0.230542 0.17941871 -0.18795487
0.25590101 0.30834487 -0.18725345
-0.22229999 0.32757959 -0.18963569
0.23839922 0.326159 -0.18634897
0.103387 -0.3326934 -0.17645426
0.21967301 -0.32753575 -0.1722693
-0.24041301 -0.29235435 -0.17201757
0.21967299 -0.25759429 -0.1711607
-0.22229999 0.0176486 -0.17889898
-0.22229999 0.30176619 -0.17325518
0.19092236 0.32423499 -0.17055698
-0.20313634 -0.32785699 -0.1608668
-0.0039551891 -0.32785699 -0.16339615
0.21967299 -0.2615425 -0.16517974
-0.24041301 -0.16542423 -0.16064759
0.230542 -0.11702754 -0.16535629
-0.22229999 -0.045482434 -0.16192155
-0.23830067 -0.037583105 -0.16811654
0.230542 0.04622031 -0.16434886
0.230542 0.090435565 -0.16175395
-0.22229999 0.22292967 -0.16171893
0.24141002 0.25408971 -0.16113919
-0.015519679 0.33148 -0.16694477
0.21388236 -0.32785702 -0.15008338
0.21967298 -0.28854084 -0.15127811
0.230542 -0.14293876 -0.15198997
0.230542 0.087469377 -0.1571683
-0.22229999 0.11863416 -0.15200523
-0.22229999 0.29034093 -0.15744372
0.18902987 0.33148 -0.1575263
0.2052329 0.33147997 -0.15957582
-0.18211818 -0.32785699 -0.14817126
0.21967299 -0.26440483 -0.14435096
-0.22229999 0.13958086 -0.14534852
0.230542 0.15465698 -0.14523232
0.083213292 0.32423499 -0.1444561
0.23778701 0.32193819 -0.14770696
0.043932531 -0.32785699 -0.13157392
0.23778699 -0.033538099 -0.13385497
0.24216798 0.019499414 -0.13184178
-0.22229999 0.16131395 -0.13544226
0.24416533 0.24914899 -0.13476427
-0.22480038 0.26758373 -0.13308616
-0.22229999 0.2975632 -0.13800344
7.4375421e-05 0.32423499 -0.13641216
0.12196186 0.33147997 -0.13655068
-0.12901916 -0.33510301 -0.12233508
-0.24041301 -0.1482394 -0.12385447
0.23778699 -0.052468095 -0.12042435
0.24392837 -0.032319512 -0.12311015
-0.23979139 -0.0086358804 -0.12415724
-0.22229999 0.061466023 -0.1240015
-0.22229999 0.16421925 -0.12861998
-0.22229999 0.32640374 -0.12273306
-0.035570849 0.32423499 -0.12300405
0.20073844 0.32423499 -0.12729689
-0.18202657 0.33148 -0.12576517
0.18171251 -0.32785699 -0.11151425
-0.240413 -0.18494591 -0.11010326
0.230542 -0.1593422 -0.11568043
-0.240413 -0.095112868 -0.1175963
-0.22229999 0.075532243 -0.1110841
0.230542 0.14238776 -0.11271185
0.2421259 0.24012899 -0.11115186
-0.22229999 0.26725 -0.11201275
-0.16514614 0.32423499 -0.11290529
0.230542 -0.090111285 -0.10622974
0.230542 -0.073578782 -0.10930499
-0.240413 -0.013391036 -0.10707576
-0.088454574 0.32423499 -0.103738
0.21967301 -0.24573407 -0.094146818
-0.24041301 -0.14888537 -0.096265368
-0.2326124 -0.12442599 -0.099073894
0.24814472 -0.026779309 -0.091945767
0.24397376 0.053661723 -0.092862815
0.230542 0.068121597 -0.098867133
-0.19115445 0.32423499 -0.096562155
-0.1935046 0.33148 -0.092712909
-0.17229564 -0.32785699 -0.080113471
-0.074334212 -0.32785699 -0.085253276
0.21967298 -0.32286429 -0.087514549
0.21967298 -0.24579614 -0.080991156
0.230542 -0.13700379 -0.0868918
-0.2357582 -0.105127 -0.088405252
0.23929234 -0.085759379 -0.085185781
-0.23726732 -0.076180197 -0.082011819
-0.20414913 0.32423499 -0.086430207
0.15043081 0.32423499 -0.086967625
0.23778701 -0.10518275 -0.07619071
0.24131283 -0.092100091 -0.07827004
-0.23226006 -0.018285001 -0.07248608
-0.22229999 0.1395725 -0.071114793
-0.22229999 0.1645377 -0.071712419
0.24141002 0.24738768 -0.078931019
-0.206337 0.33148003 -0.073572092
-0.026071355 0.33148003 -0.077542342
0.16789031 0.33148 -0.077134743
-0.20270506 -0.32785699 -0.067604825
-0.092170835 -0.32785696 -0.065341637
0.17481732 -0.32785699 -0.065489098
0.20370653 -0.32785699 -0.066458337
0.223296 -0.30612266 -0.068757452
0.252278 -0.07446067 -0.0664763
0.230542 -0.15990444 -0.059459545
-0.23858272 -0.12442599 -0.05390276
0.230542 0.047779355 -0.059461426
-0.22229999 0.18544984 -0.058906488
0.066402465 0.32423499 -0.052515805
0.0072649494 0.33148 -0.053103924
-0.18621141 -0.32785699 -0.044254676
-0.10595848 -0.32785699 -0.043464951
0.19672808 -0.32785699 -0.048865668
0.21373367 -0.32785699 -0.047155876
-0.23414594 -0.105127 -0.044351462
0.230542 -0.093730025 -0.041736573
0.23778699 0.008087052 -0.047461309
0.23778699 0.021786053 -0.048322953
-0.22229999 0.082520768 -0.04250082
0.230542 0.21280885 -0.0488175
-0.053613637 0.33148 -0.048746713
0.12128906 0.33148 -0.047189794
-0.24041298 -0.29556084 -0.036918491
0.230542 -0.13716415 -0.037941873
0.23778701 -0.11418999 -0.030709907
0.24928766 -0.079006694 -0.037442487
-0.23805769 -0.066531099 -0.035172049
0.23778701 -0.007467851 -0.038042322
-0.22229999 0.1719678 -0.038902033
0.23778701 0.27696106 -0.037065197
0.038735367 0.32423499 -0.032147482
0.079367459 0.32423502 -0.03014259
0.086598687 0.32423499 -0.035936028
0.23778699 0.3233664 -0.037091754
-0.019253239 0.33148 -0.036571424
0.16441423 0.33148 -0.031760354
-0.16491845 -0.32785699 -0.022644252
0.0043132752 -0.32785699 -0.020072959
0.21967299 -0.27343696 -0.025207959
-0.240413 -0.21303608 -0.029575052
0.230542 -0.18109673 -0.02122491
-0.22229999 -0.11688435 -0.021619707
0.252278 -0.091459632 -0.021671737
-0.23796415 -0.037583102 -0.02364441
-0.22229999 0.22839412 -0.025180575
-0.22229999 0.26881963 -0.028430218
0.11443409 0.32423499 -0.023712985
-0.14202161 -0.33510301 -0.014795199
0.1451838 -0.32785702 -0.011975467
0.230542 -0.18799649 -0.010883042
0.24868181 -0.11611681 -0.01819879
0.230542 -0.075560667 -0.013860315
0.23778698 -0.049750887 -0.016312186
-0.22229999 -0.024318486 -0.013175019
0.23778699 -0.020317134 -0.016552726
-0.22229999 0.15274242 -0.016092632
0.19614807 0.32423499 -0.011560977
-0.1549626 0.33148 -0.012461022
-0.22229999 -0.22970968 -0.00072433939
0.23778699 0.062543035 -0.0051505789
-0.011483228 0.32423499 -0.0019536745
0.14970283 0.32423499 -0.0091371089
-0.14542037 0.33148 -0.0022681355
0.16839732 0.33148 -0.0018263534
-0.18662232 -0.32785696 0.0033711586
-0.16032872 -0.32785702 0.0075350739
0.013058815 -0.32785699 0.0051661301
0.230542 0.087841198 0.00037220493
0.23778698 0.10838848 0.0067122942
0.230542 0.11716987 0.0098492168
-0.19603476 0.32423499 0.0026011989
-0.10668572 0.32423499 0.0078844912
0.11315672 -0.33510301 0.011489615
-0.1795343 -0.32785699 0.014637612
0.18151203 -0.32785699 0.017098196
-0.14299069 -0.28392863 0.0105963
-0.16645996 -0.26521313 0.0105963
-0.0095047429 -0.26141033 0.0105963
0.21967299 -0.25516829 0.011434045
0.21967299 -0.23363112 0.017016392
-0.12253082 -0.22305532 0.0105963
0.010857703 -0.22349903 0.0105963
-0.088509277 -0.20038901 0.0105963
-0.15694398 -0.19955623 0.0105963
0.0312916 -0.19800429 0.010972407
-0.037897926 -0.16611718 0.0105963
-0.17376336 -0.14817232 0.0105963
-0.10988633 -0.1359174 0.0105963
-0.19508852 -0.12599069 0.0105963
-0.02584807 -0.12822682 0.0105963
0.0047509987 -0.12124037 0.0105963
0.031245166 -0.12136433 0.0105963
-0.11615033 -0.10180672 0.0105963
0.0058884658 -0.10434391 0.0105963
-0.049897112 -0.094640993 0.0105963
0.0094562359 -0.086653754 0.0105963
0.24338812 -0.08564087 0.01095566
-0.068219118 -0.035382051 0.0105963
-0.12150699 0.014316 0.012657437
-0.033773419 0.014316 0.018074716
0.10545376 0.01805448 0.0125051
0.16335882 0.018271698 0.0125051
0.11266118 0.027264209 0.012505099
0.15708037 0.0293587 0.0125051
0.1435679 0.030119106 0.0125051
-0.074009404 0.054729052 0.012505101
0.23416451 0.05221051 0.018984057
0.033464991 0.064576849 0.0125051
0.080042206 0.068733051 0.0125051
0.047126561 0.074780792 0.0125051
-0.10600513 0.087920152 0.012505101
-0.2090807 0.091907404 0.012505099
-0.1473022 0.093611412 0.0125051
0.13732769 0.0954483 0.012505099
-0.21835503 0.10833534 0.0125051
-0.012514357 0.10003757 0.0125051
0.230542 0.10400236 0.012611557
-0.094338685 0.11023137 0.0125051
-0.20155919 0.13308719 0.0125051
-0.19662972 0.13635805 0.0125051
-0.17806491 0.13095082 0.0125051
-0.10852058 0.13202688 0.0125051
-0.12223889 0.14417572 0.0125051
-0.029577868 0.14604427 0.0125051
-0.19044878 0.15825438 0.012505101
0.20827146 0.15124214 0.012505099
-0.032216005 0.17612083 0.0125051
0.11739939 0.18259224 0.0125051
-0.16656259 0.19414002 0.0125051
-0.089121334 0.2368902 0.0125051
-0.046788737 0.23839353 0.012505101
0.14789701 0.24492328 0.0125051
-0.12993702 0.26192176 0.0125051
-0.029467732 0.26238129 0.0125051
0.035771456 0.26022446 0.0125051
0.097760059 0.27614826 0.0125051
-0.1753009 0.28545666 0.0125051
0.049920045 0.28470176 0.012505101
0.059898883 0.28210852 0.0125051
-0.10906688 0.2959156 0.012505101
-0.22168267 0.30228862 0.0125051
-0.14347231 0.30142576 0.012505101
-0.095203869 0.30817845 0.0125051
0.063101076 0.31307173 0.012505099
0.080015726 0.31897399 0.018096996
-0.21682793 -0.32785699 0.022233754
-0.083850853 -0.32785699 0.02028919
0.0312916 -0.2966702 0.024633411
0.0312916 -0.2702187 0.021772761
-0.0090673808 -0.0087846797 0.025955178
0.230542 0.21533477 0.027515363
0.23702006 0.234808 0.023116522
0.24150936 0.24463898 0.023975953
-0.1039526 0.31897399 0.023032647
-0.063566394 0.31897399 0.025937049
0.15157937 0.31897396 0.025209539
-0.0094741434 0.32423496 0.027931489
0.082372203 0.33148 0.028726926
0.17390202 0.33148 0.024947857
0.22938897 0.33148 0.027395569
-0.12929671 -0.33510301 0.031501174
0.103387 -0.33279192 0.033558983
-0.16029957 -0.31726104 0.036805306
0.013865014 -0.31726101 0.036885493
0.22121911 -0.28860599 0.034967802
0.230542 -0.024588034 0.035845079
-0.1756527 0.014316 0.033650208
0.049296848 0.014316 0.032658666
0.12759928 0.014316 0.031124815
0.22489336 0.014316 0.036604367
0.15845111 0.31897399 0.037408315
0.20312235 0.31897399 0.032004673
-0.22229999 0.32135573 0.038255926
-0.18564734 0.32423496 0.034081072
0.065688163 0.32423499 0.03124392
-0.10647009 -0.32785699 0.040872335
0.1902668 -0.32785699 0.046240106
0.0312916 -0.27440864 0.048154563
-0.1581796 -0.0087846797 0.049444698
-0.0019203667 -0.0087846797 0.049555331
-0.18243676 0.014316 0.047324214
0.226919 0.057487838 0.045944318
0.226919 0.18147683 0.040929124
-0.018454805 0.31897402 0.041980982
0.18482757 0.31897399 0.04699235
0.11669648 0.32423499 0.040043522
-0.1392317 -0.33510301 0.055938028
0.075357467 -0.32785699 0.051547386
-0.0442557 -0.31726101 0.057927433
0.230542 -0.19127508 0.052251987
0.020029007 -0.0087846797 0.058136873
0.23778701 0.038455185 0.055256628
0.226919 0.069994509 0.051147532
0.226919 0.14614013 0.058821272
0.230542 0.2178454 0.057776462
0.226919 0.29408631 0.050671697
-0.15340717 0.31897399 0.055240482
0.15116288 0.31897399 0.051626924
-0.098178357 0.32423499 0.052008554
-0.051378913 0.33148 0.055230729
-0.032195527 -0.32785699 0.065392576
-0.2100969 -0.31726104 0.060465414
0.23778699 -0.012181256 0.062025025
0.13763037 0.014316 0.062373117
0.15976569 0.014315999 0.061642028
0.11457147 0.31897399 0.067019947
0.092690773 0.32423499 0.06271635
0.15601416 0.32423499 0.065570429
-0.063692473 0.33148 0.066674285
-0.033093348 0.33148 0.063392639
-0.13321258 -0.31726101 0.078107797
0.21967298 -0.22291286 0.079960048
0.0312916 -0.17632404 0.078594744
0.230542 -0.095025927 0.075966939
0.24652869 -0.05344779 0.074832201
0.230542 -0.040726632 0.070968643
-0.039230697 -0.0087846797 0.072854631
-0.01116522 0.014316 0.0795542
0.0017550439 0.014316 0.079850778
0.226919 0.21089025 0.076919913
0.23054202 0.22697523 0.079988562
-0.14688408 0.31897399 0.077324614
0.226919 0.31744072 0.071254559
0.103387 -0.33494812 0.081058607
-0.19360052 -0.32785699 0.083744273
0.038549356 -0.32785699 0.081982821
0.065184355 -0.32785699 0.084873922
-0.073925227 -0.31726101 0.080309398
0.0312916 -0.21551283 0.080827504
0.0312916 -0.12555291 0.089452468
0.230542 -0.068212874 0.080569834
0.230542 -0.051278919 0.083297208
-0.16102573 0.014316 0.086019501
0.2246761 0.014316 0.088589206
-0.18199089 0.31897399 0.087879315
0.19851424 0.31897399 0.080474317
-0.19322434 0.32423499 0.08187142
-0.036913916 0.33148 0.080744833
0.12110968 0.33148 0.088500768
0.21640873 0.33148 0.083566368
-0.14259684 -0.33510301 0.091024131
0.23778699 -0.016962182 0.090256445
0.25952399 0.013967406 0.095059313
-0.1890457 0.31897399 0.094159603
0.0026810057 0.31897399 0.094865769
0.058153007 0.31897399 0.097138017
0.091959059 0.32423499 0.092726439
0.21276121 0.32423499 0.090192892
0.063076869 0.33147997 0.091545455
-0.092325121 -0.32785699 0.10380528
-0.021853071 -0.32785699 0.10763434
-0.013414737 -0.31726101 0.10569416
0.0312916 -0.12200118 0.10665437
0.230542 -0.099932067 0.10939484
0.10480492 0.014316 0.10231245
-0.041535854 0.31897399 0.10784709
0.13730553 0.31897399 0.10792638
-0.06920626 0.32423499 0.10747481
0.0018049851 0.32423499 0.10842042
0.19128409 0.32423499 0.10166144
-0.17857659 -0.32785699 0.11144041
0.21967299 -0.31855547 0.11255532
0.0312916 -0.040171947 0.11328836
0.0312916 -0.016869344 0.11439095
-0.15509951 -0.0087846797 0.11196361
-0.048045717 -0.0087846797 0.11711759
-0.14764771 0.014316 0.11200757
0.230542 0.022791393 0.11033718
0.23778699 0.082158715 0.11441246
0.23778699 0.098393328 0.11540779
-0.07492049 0.31897399 0.11397133
-0.064122736 0.31897399 0.11242997
0.12160659 0.31897399 0.11499868
0.098264456 0.32423499 0.11967998
0.11838127 0.32423502 0.11188106
0.17596588 0.32423499 0.11126339
-0.13208258 0.33148 0.11782417
-0.0094767399 0.33148 0.112938
0.0312916 -0.20647576 0.12856407
-0.13731618 -0.0087846797 0.12287114
0.18821609 0.014316 0.12781318
0.226919 0.12073177 0.12618312
0.226919 0.21086825 0.12047874
0.226919 0.26237643 0.12352808
0.23778699 0.2634744 0.12423706
-0.12662196 0.31897399 0.12480522
-0.028905332 0.31897399 0.12452039
-0.16534142 0.32423499 0.12578149
0.16594148 0.33148 0.12551284
-0.119053 -0.33232799 0.13679171
0.21967299 -0.27399182 0.13830306
0.230542 -0.067425191 0.13896549
-0.077108696 0.014316 0.13560246
0.080939099 0.020211851 0.13967101
0.17623833 0.030761171 0.136273
0.17286107 0.058037572 0.136273
0.1971579 0.05589797 0.136273
0.14119518 0.10333 0.136273
0.17901957 0.11793121 0.136273
0.17477725 0.15340525 0.136273
0.20681557 0.15912798 0.136273
0.19793634 0.16388617 0.136273
0.17572486 0.17852691 0.136273
0.18114877 0.18552068 0.136273
0.13466039 0.21007091 0.136273
0.15295902 0.21343163 0.136273
0.12610282 0.22610827 0.136273
0.21344095 0.23727082 0.136273
0.20489419 0.28544408 0.136273
0.080939099 0.29214004 0.13654196
0.14975703 0.30457333 0.136273
-0.22229999 0.32246467 0.13392368
0.17500307 0.32423499 0.13736616
0.20588394 0.33098143 0.13355969
-0.13567071 -0.31726101 0.14792576
-0.19491774 0.014316 0.14452308
0.061141439 0.014316 0.145532
0.085955769 0.014316 0.14144482
0.14703698 0.065904178 0.140691
0.18579364 0.10856354 0.140691
0.19761965 0.11355176 0.140691
0.11450109 0.13101564 0.140691
0.230542 0.14332148 0.14130917
0.1746977 0.15359534 0.140691
0.16485022 0.16440159 0.140691
0.230542 0.17815942 0.14720112
0.19818102 0.18988441 0.140691
0.080939099 0.19335511 0.1435464
0.17746511 0.21897179 0.14069101
0.226919 0.21444605 0.14664257
0.1144191 0.22339322 0.140691
0.18989652 0.2548891 0.140691
0.21002392 0.27732286 0.140691
-0.20605883 0.31897396 0.14745736
0.21222939 0.31897399 0.14334823
0.22021499 0.31239128 0.14797291
-0.0051704086 0.33148 0.14010277
0.0045402674 -0.32785702 0.15580179
-0.045797564 -0.31726101 0.15191068
0.0312916 -0.31686068 0.15065861
0.21967298 -0.25385803 0.15651953
0.0312916 -0.15159892 0.15192084
0.0312916 -0.032527216 0.15956275
-0.018376797 -0.0087846797 0.15036987
0.085356504 0.015396049 0.15061374
0.226919 0.033491045 0.15297769
0.085356504 0.052346837 0.15370025
0.085356504 0.10256061 0.15122837
0.080939099 0.11938795 0.15516818
0.080939099 0.12495824 0.15665197
0.085356504 0.1954491 0.15773989
0.226919 0.20102185 0.15360935
-0.22229999 0.3197518 0.15527859
-0.21741956 0.31897402 0.15446745
-0.12301044 0.31897399 0.15973455
-0.022464184 0.31897396 0.15605077
0.16363408 0.31897399 0.15245739
-0.072083682 -0.32785702 0.16952546
-0.015946843 -0.32785699 0.16823128
0.14439949 -0.32785699 0.16304868
0.20153102 -0.32785699 0.16001941
0.0312916 -0.22851539 0.16990371
0.230542 -0.17253679 0.16694187
0.0312916 -0.14825103 0.16150615
0.0312916 -0.12898162 0.16238818
0.230542 -0.081307895 0.16313447
-0.048809946 0.014316 0.16113254
0.020423025 0.014316 0.16137008
0.085356504 0.049807217 0.16046439
0.230542 0.13385805 0.16652073
0.226919 0.16316517 0.16763993
0.230542 0.16670057 0.16990441
0.05058223 0.31897399 0.16625956
0.12892808 0.31897399 0.16421512
0.077119887 0.32423499 0.16489124
0.12273727 0.32423496 0.16005303
-0.19216722 0.33148 0.16771647
-0.00019771606 0.33147997 0.16997576
0.19396241 0.33148 0.16818069
-0.13014787 -0.33510301 0.17783564
-0.034927875 -0.32785699 0.1724692
0.230542 -0.060202967 0.17861673
0.0312916 -0.023719901 0.17255473
0.085356504 0.072997712 0.17786315
0.230542 0.14227286 0.17316431
0.080939099 0.15874474 0.1740506
0.080939099 0.19860779 0.17590429
0.080939099 0.31535661 0.17976767
-0.1785924 0.33148 0.17099944
0.20456088 0.33148 0.17238832
0.23741324 0.33148003 0.17186964
-0.14928721 -0.32785699 0.18845448
-0.035758361 -0.32785699 0.18285403
0.055443 -0.32785699 0.1853288
-0.19094308 -0.31726101 0.1860155
-0.089927159 -0.31726101 0.18794689
0.0012923554 -0.31726098 0.18078923
0.230542 0.0045917332 0.18927367
0.080939099 0.022050861 0.18939607
0.226919 0.06486278 0.18449003
0.080939099 0.16414624 0.18099433
0.24454074 0.25365999 0.1802786
0.22021499 0.26868075 0.18449438
0.23778698 0.26657364 0.18877001
-0.057977509 0.31897399 0.18312997
-0.036902655 0.31897399 0.18431002
0.03507369 0.31897399 0.18305901
-0.12215926 0.32423499 0.18910542
0.054708302 0.32423499 0.18931025
0.085356504 0.3213712 0.18451664
-0.12923124 -0.33510301 0.19863009
0.103387 -0.33024132 0.19334
0.024897184 -0.32785696 0.19410056
-0.0015586074 -0.31726101 0.19254877
0.230542 -0.15790322 0.19793461
0.0312916 -0.14532265 0.19346768
0.230542 -0.13671574 0.19933796
0.0312916 -0.11323346 0.19901784
0.230542 -0.1003044 0.19884442
-0.18710472 -0.0087846797 0.19276072
0.21649051 0.0090565998 0.19808789
0.22021499 0.026948692 0.196998
0.22021499 0.22212616 0.19365425
0.080939099 0.25944227 0.19477865
-0.22155724 0.31897399 0.19688773
0.1746303 0.32423499 0.19225942
0.22021499 0.32001084 0.19245076
-0.19340137 0.33147997 0.19273117
0.085356504 0.33081162 0.19754642
0.1332045 0.33148 0.19957364
-0.11772282 -0.31726101 0.20218281
-0.01364933 -0.31726101 0.2012907
0.230542 -0.17062737 0.20540933
0.0312916 -0.15615791 0.20090151
0.0312916 -0.07743714 0.20965524
0.230542 -0.073110133 0.20305201
-0.18899676 -0.0087846797 0.20069681
0.21813427 0.014316 0.20599523
0.22521384 0.014316001 0.20808212
0.22021499 0.15553489 0.20771307
0.230542 0.18336134 0.20370899
0.085356504 0.20960067 0.20209846
0.085356504 0.21459244 0.20843261
0.245032 0.24952488 0.20436186
0.226919 0.25060967 0.20603105
0.0046480373 0.32423502 0.20253417
0.03215529 0.33148 0.20000687
0.15261669 -0.32785699 0.21090075
0.0312916 -0.1457402 0.21238522
0.230542 -0.13609141 0.21440811
0.0312916 -0.02699481 0.21928596
-0.13971946 0.014316 0.21521664
0.19256295 0.014316001 0.21547836
0.085356504 0.080843017 0.21713658
0.22021499 0.19851285 0.21655256
0.24503201 0.24178261 0.21087831
0.085356504 0.25248247 0.21208969
-0.17484954 0.31897399 0.2105117
0.057460345 0.32423499 0.21105328
-0.12890807 0.33148 0.21476942
-0.088073924 0.33148 0.21812156
-0.10079677 -0.32785699 0.22838712
-0.030920323 -0.32785699 0.22454238
0.17466664 -0.32785699 0.22357026
-0.13385385 -0.31726101 0.22593729
-0.077787392 -0.31726101 0.22690906
0.230542 -0.15031676 0.22676599
0.230542 -0.093766496 0.22693607
-0.0033210423 0.014316 0.22348171
0.1765936 0.014316 0.22616032
0.18701619 0.014316 0.22480901
0.226919 0.060172692 0.22065774
0.080939099 0.095639758 0.22389121
0.226919 0.090102717 0.22741267
0.23054202 0.10826369 0.22554997
0.230542 0.21918517 0.22120936
0.245032 0.29297835 0.2269128
-0.095310643 0.32423499 0.22086661
-0.033203244 0.32423499 0.22091123
0.080939099 0.32928813 0.22804548
0.20186266 0.33148 0.22123389
0.20475715 -0.33000901 0.233666
0.0312916 -0.20887113 0.23901016
0.0312916 -0.19686283 0.23289078
0.0312916 -0.067187026 0.23996322
0.230542 -0.02990371 0.23912436
-0.10741726 -0.0087846797 0.23542354
0.230542 -0.0052449405 0.23897916
-0.06579864 0.014316 0.23021935
0.21579701 0.053975277 0.23929931
0.226919 0.087047644 0.23672648
0.226919 0.16255328 0.23113379
0.085356504 0.17430733 0.23976779
0.085356504 0.1832798 0.23268801
0.230542 0.21793769 0.2328181
0.226919 0.22906987 0.23032156
-0.10495315 0.32423499 0.23503847
-0.13973834 0.33148 0.23395629
-0.035493925 0.33148 0.23303504
0.0020856373 -0.32785699 0.24522643
0.075431563 -0.32785699 0.24429666
0.21967299 -0.21687946 0.2497029
0.230542 -0.14385006 0.24658744
0.0312916 -0.10993172 0.24961172
-0.1805833 0.014316 0.24486554
0.031206638 0.014316 0.24283218
0.1690253 0.029022414 0.240657
0.11064782 0.031043462 0.240657
0.15872929 0.039091308 0.240657
0.17609917 0.040732909 0.240657
0.13242018 0.055069879 0.240657
0.15829518 0.056022476 0.240657
0.21216716 0.075063527 0.24507502
0.1078799 0.086713649 0.245075
0.12255938 0.083426058 0.240657
0.1165216 0.14151888 0.245075
0.1212374 0.15437889 0.24507502
0.19434635 0.15324876 0.245075
0.087894209 0.16046375 0.24507499
0.1909657 0.17691825 0.24507499
0.13274693 0.18505165 0.24507499
0.19542921 0.18952668 0.24507502
0.21493849 0.18353164 0.245075
0.080939099 0.19220398 0.24279851
0.18635467 0.19056556 0.240657
0.20661043 0.20917161 0.240657
0.22021498 0.20015682 0.24456514
0.095752455 0.21176124 0.240657
0.12303236 0.2720257 0.240657
0.087164186 0.28090942 0.24507502
0.15997137 0.28365499 0.240657
0.19145384 0.28675452 0.245075
0.16349638 0.29414511 0.240657
0.084514931 0.30677441 0.245075
-0.13709635 0.31897399 0.24998604
0.11323687 0.31994444 0.24065702
0.21305266 0.31897399 0.24183932
0.16736291 0.32423499 0.24477369
0.067026667 0.33148 0.2451032
-0.082900248 -0.32785699 0.25580639
0.056885831 -0.32785699 0.25972223
-0.062996261 -0.31593633 0.25205201
-0.090510271 -0.27988338 0.25205201
-0.017479645 -0.25252533 0.25205201
-0.0059468579 -0.25875908 0.25205201
-0.086575672 -0.24551076 0.25205201
0.0097862612 -0.24003923 0.25205201
-0.1460437 -0.23188055 0.25205201
-0.20684475 -0.22793174 0.25205201
-0.18234882 -0.22017914 0.25205201
-0.10226535 -0.22718211 0.25205201
-0.028377682 -0.22362635 0.25205201
0.024625842 -0.21847361 0.25205201
-0.14213957 -0.20027587 0.25205201
-0.028823012 -0.20221545 0.25205201
0.012804294 -0.1955132 0.25205201
-0.18780176 -0.18077125 0.25205201
-0.093271799 -0.18683346 0.25205201
-0.15444377 -0.17704237 0.25205201
-0.18264875 -0.11053251 0.25205201
-0.13731289 -0.085219808 0.25205201
-0.11564365 -0.083310902 0.25205201
0.0051568709 -0.081831977 0.25205201
-0.17939968 -0.0775894 0.25205201
-0.13468809 -0.058022652 0.25205201
-0.11591524 -0.043474514 0.25205201
-0.20493089 -0.034206491 0.25205201
-0.13851912 -0.022047868 0.25205201
-0.065452285 -0.017037656 0.25205201
-0.22229999 0.019798517 0.25933909
0.12818559 0.022678591 0.25014201
0.079478212 0.030923748 0.25014201
0.12349933 0.031142063 0.25014201
0.075523138 0.049698524 0.25014201
0.22338876 0.048473798 0.25014201
-0.22229999 0.050281882 0.25804275
-0.0029850826 0.063074492 0.25014201
-0.045129895 0.073924571 0.25014201
0.00055523962 0.071825959 0.25014201
0.011106137 0.077276692 0.25014201
0.035034485 0.07111264 0.25014201
-0.1990076 0.08831168 0.25014201
0.029200889 0.085441865 0.25014201
-0.1283325 0.13846052 0.25014201
-0.070024833 0.13166213 0.25014201
-0.091598049 0.15038902 0.25014201
0.0039213896 0.15900142 0.25014201
-0.1774472 0.16963321 0.25014201
0.012357231 0.17636935 0.25014201
-0.048492096 0.20040569 0.25014201
0.059193194 0.20499068 0.25014201
-0.22229999 0.22810386 0.25283429
-0.10241568 0.22310421 0.25014201
0.031953067 0.22569874 0.25014201
-0.067661531 0.24451873 0.25014201
-0.05671259 0.25310352 0.25014201
0.24140999 0.2758846 0.25785893
-0.17647368 0.28587759 0.25014201
0.096868426 0.288396 0.25014201
0.16978809 0.28313807 0.25014201
0.10364072 0.29815102 0.25014201
0.12070156 0.2929827 0.25014201
0.094136462 0.30096418 0.25014201
0.011561759 0.31329995 0.25014201
0.11014736 0.31897399 0.25000235
0.12632966 0.31089628 0.25014201
-0.10107461 0.33148 0.2586703
0.027126919 -0.32540378 0.26264799
0.052118625 -0.32785699 0.26151657
0.089364603 -0.32785699 0.26177529
0.1446652 -0.32615072 0.26264799
-0.12555945 -0.31375673 0.26264799
0.026980683 -0.3069523 0.26264799
-0.010749985 -0.29486489 0.26264799
-0.079242282 -0.28448188 0.26264799
0.092158347 -0.2876237 0.26264799
0.193441 -0.28053328 0.26264799
-0.15105014 -0.27718604 0.26264799
-0.0081382468 -0.27899086 0.26264799
0.014610808 -0.2624191 0.26264799
0.025357654 -0.25153658 0.26264799
0.039069757 -0.25394765 0.26264799
0.19145055 -0.25776389 0.26264799
0.12798208 -0.21118508 0.26264799
-0.19218789 -0.19769695 0.26264799
0.08277113 -0.19521531 0.26264799
0.21350268 -0.19210902 0.26264799
-0.035391301 -0.1845824 0.26264799
0.13413097 -0.17360523 0.26264799
0.15272939 -0.17044267 0.26264799
0.023620047 -0.16618487 0.26264799
-0.064249262 -0.14247054 0.26264799
0.1053661 -0.14534901 0.26264799
0.22860856 -0.13869821 0.26264799
0.016395628 -0.11025161 0.26264799
0.10143175 -0.11078066 0.26264799
0.2082586 -0.10623305 0.26264799
0.18933609 -0.095549099 0.26264799
-0.12634955 -0.080897003 0.26264799
0.015749007 -0.086888887 0.26264799
-0.07535886 -0.075292334 0.26264799
-0.10289708 -0.05927071 0.26264799
-0.006099306 -0.050426766 0.26264799
0.061059505 -0.044200677 0.26264799
-0.03248281 -0.02798111 0.26264799
0.092046104 -0.020816967 0.26264799
-0.014863478 -0.017351348 0.26264799
0.0035025179 -0.01150395 0.26264799
0.16694897 -0.018209033 0.26264799
-0.17321137 -0.0061003827 0.26264799
-0.1410743 -0.0033574365 0.26264799
-0.094678015 -0.0026022047 0.26264799
0.18764356 -0.0084402114 0.26264799
-0.093074605 0.0053401291 0.26264799
-0.10912828 0.016060732 0.26264799
-0.12213124 0.028899707 0.26264799
0.068023711 0.02486477 0.26264799
-0.098141894 0.030112408 0.26264799
-0.033251043 0.046948325 0.26264799
0.15498482 0.040411532 0.26264799
-0.10587744 0.067380846 0.26264799
0.057485111 0.061692752 0.26264799
0.075444765 0.061475232 0.26264799
-0.14848393 0.078263164 0.26264799
-0.0096570849 0.071183637 0.26264799
0.11161955 0.074246772 0.26264799
-0.15989476 0.095943049 0.26264799
0.19562247 0.090435669 0.26264799
-0.043856375 0.10255715 0.26264799
0.1580314 0.10583218 0.26264799
-0.17079572 0.1121866 0.26264799
0.038310595 0.11889448 0.26264799
-0.10566546 0.14266753 0.26264799
-0.16461942 0.16213292 0.26264799
-0.096731767 0.16344474 0.26264799
0.15269779 0.16579628 0.26264799
-0.21899575 0.17162678 0.26264799
0.050640546 0.1740592 0.26264799
0.026535932 0.18480811 0.26264799
0.14722759 0.19314721 0.26264799
0.16709325 0.19219567 0.26264799
-0.14268559 0.20932853 0.26264799
-0.059540264 0.20793647 0.26264799
0.046145096 0.22806069 0.26264799
0.014883995 0.23531041 0.26264799
0.028383419 0.23418052 0.26264799
0.14342819 0.23115164 0.26264799
0.18229116 0.24732624 0.26264799
0.15743101 0.25490296 0.26264799
0.17602828 0.25320861 0.26264799
0.050474931 0.26361838 0.26264799
-0.13377318 0.27631697 0.26264799
-0.12129076 0.28168818 0.26264799
-0.20367272 0.30835906 0.26264799
-0.12876093 0.30263665 0.26264799
-0.1137646 0.30362689 0.26264799
0.065553226 0.30740398 0.26264799
0.10258676 0.30655634 0.26264799
-0.11358058 0.3186855 0.26264799
0.038698822 0.31986809 0.26264799
0.18781668 0.31368136 0.26264799
0.11072923 0.33148 0.26173759
