# .PCD v0.7 - Point Cloud Data file format
VERSION 0.7
FIELDS x y z
SIZE 4 4 4
TYPE F F F
COUNT 1 1 1
WIDTH 965
HEIGHT 1
VIEWPOINT 0 0 0 1 0 0 0
POINTS 965
DATA ascii
-0.14299814 -0.33294269 -0.25200999
-0.09658847 -0.3366152 -0.25200999
-0.048221119 -0.32972848 -0.25200999
0.1612165 -0.32553557 -0.25200999
-0.22042564 -0.31426418 -0.25200999
-0.1918157 -0.31578475 -0.25200999
-0.17774504 -0.31974426 -0.25200999
-0.03939081 -0.3111462 -0.25200999
-0.13621581 -0.30232492 -0.25200999
-0.12864754 -0.30636728 -0.25200999
-0.074406378 -0.30084315 -0.25200999
-0.17075862 -0.29487729 -0.25200999
-0.031343572 -0.29565024 -0.25200999
-0.037424147 -0.28885689 -0.25200999
0.077847578 -0.28947189 -0.25200999
0.19345182 -0.28785175 -0.25200999
-0.12380376 -0.27834025 -0.25200999
-0.041610774 -0.27771923 -0.25200999
0.00048288703 -0.27368802 -0.25200999
0.074068084 -0.2774725 -0.25200999
0.15856573 -0.27749676 -0.25200999
0.19585489 -0.27300853 -0.25200999
0.05864263 -0.26082301 -0.25200999
0.1094355 -0.26765409 -0.25200999
0.145216 -0.26153776 -0.25200999
0.20343584 -0.26545751 -0.25200999
-0.03424342 -0.25096411 -0.25200999
0.13174818 -0.25868747 -0.25200999
0.20129144 -0.25101206 -0.25200999
-0.12467851 -0.24605371 -0.25200999
-0.063726038 -0.2458829 -0.25200999
-0.036120966 -0.24486133 -0.25200999
-0.17102922 -0.23001856 -0.25200999
-0.035207719 -0.23524013 -0.25200999
-0.21944709 -0.22227521 -0.25200999
0.055137835 -0.22589432 -0.25200999
0.15049994 -0.22377209 -0.25200999
-0.22338451 -0.21292344 -0.25200999
-0.11759593 -0.21504328 -0.25200999
-0.19445853 -0.20955621 -0.25200999
-0.16482764 -0.20217034 -0.25200999
-0.14303672 -0.20643617 -0.25200999
0.00024016201 -0.20819929 -0.25200999
0.12940764 -0.20550671 -0.25200999
-0.061877307 -0.1919713 -0.25200999
0.14874214 -0.19906285 -0.25200999
-0.14758122 -0.18007231 -0.25200999
-0.11146245 -0.18689445 -0.25200999
0.042143561 -0.18503597 -0.25200999
-0.045575101 -0.16419092 -0.25200999
0.063164078 -0.16320722 -0.25200999
0.19748585 -0.15064459 -0.25200999
-0.072383896 -0.14833075 -0.25200999
0.19368488 -0.14539498 -0.25200999
0.20294887 -0.14148736 -0.25200999
0.21573739 -0.14507112 -0.25200999
-0.077825502 -0.13188124 -0.25200999
-0.053107008 -0.12487359 -0.25200999
-0.22329323 -0.11467794 -0.25200999
-0.051781528 -0.11946423 -0.25200999
-0.0044875219 -0.11576069 -0.25200999
0.071131274 -0.10488087 -0.25200999
0.20827584 -0.10161531 -0.25200999
-0.22001088 -0.073249847 -0.25200999
0.0097348234 -0.065315023 -0.25200999
0.088044696 -0.052378714 -0.25200999
-0.1682469 -0.046217881 -0.25200999
-0.1082602 -0.041260451 -0.25200999
0.08216098 -0.040092632 -0.25200999
0.13215539 -0.040598445 -0.25200999
-0.23492828 -0.030516176 -0.25200999
-0.22491461 -0.033810511 -0.25200999
0.21901301 -0.038169838 -0.25031993
-0.13126983 -0.020123333 -0.25200999
-0.090865538 -0.029416613 -0.25200999
0.095751897 -0.02768347 -0.25200999
-0.11068647 -0.019569017 -0.25200999
0.19264892 -0.0077842772 -0.25200999
-0.19842336 0.0094994307 -0.25200999
-0.012168612 0.00841102 -0.25200999
-0.19180369 0.017651429 -0.25200999
-0.15683316 0.010731634 -0.25200999
-0.14985454 0.018813685 -0.25200999
0.18001026 0.015717186 -0.25200999
-0.20003226 0.029391684 -0.25200999
-0.15432921 0.026669279 -0.25200999
-0.13230343 0.025206011 -0.25200999
-0.091751769 0.028863322 -0.25200999
-0.036902465 0.032425091 -0.25200999
0.21220079 0.038945649 -0.25200999
0.042711668 0.048310123 -0.25200999
0.16892405 0.045355335 -0.25200999
-0.21884072 0.057085667 -0.25200999
-0.19676983 0.050795414 -0.25200999
-0.1990187 0.060333811 -0.25200999
-0.087465987 0.062188946 -0.25200999
-0.0054002553 0.061944909 -0.25200999
0.15064695 0.061492264 -0.25200999
-0.2365326 0.076015428 -0.25200999
-0.047334429 0.072274834 -0.25200999
0.020388857 0.073132858 -0.25200999
-0.044885807 0.082970805 -0.25200999
-0.24024102 0.099813819 -0.25168955
-0.15840012 0.098141417 -0.25200999
0.13429889 0.091846302 -0.25200999
-0.22132215 0.12320263 -0.25200999
0.12391839 0.12389409 -0.25200999
-0.22056474 0.13230863 -0.25200999
0.13459595 0.13674614 -0.25200999
-0.17945801 0.15235466 -0.25200999
-0.1126976 0.15204532 -0.25200999
-0.093058065 0.16362166 -0.25200999
0.18578476 0.16673872 -0.25200999
0.16207774 0.17928262 -0.25200999
0.21397695 0.1773482 -0.25200999
-0.21361735 0.19401976 -0.25200999
0.066047385 0.19891734 -0.25200999
0.091304295 0.19406542 -0.25200999
-0.18564856 0.20451599 -0.25200999
0.1147953 0.2074471 -0.25200999
0.10148516 0.21270776 -0.25200999
0.19686639 0.21211448 -0.25200999
-0.2374908 0.22284159 -0.25200999
-0.13787515 0.22771233 -0.25200999
-0.033130236 0.2204361 -0.25200999
-0.1820633 0.23278424 -0.25200999
-0.13732794 0.23357671 -0.25200999
0.056053132 0.23378929 -0.25200999
0.075249523 0.23123291 -0.25200999
0.19520201 0.23696566 -0.25200999
-0.20801915 0.24393876 -0.25200999
0.04820317 0.24161741 -0.25200999
-0.051374666 0.25189421 -0.25200999
-0.15431157 0.267028 -0.25200999
-0.12842201 0.26706156 -0.25200999
-0.0084453523 0.26407143 -0.25200999
0.18821868 0.26361746 -0.25200999
-0.10081168 0.2758289 -0.25200999
-0.074108951 0.27159867 -0.25200999
0.11227807 0.28739458 -0.25200999
-0.17316155 0.294449 -0.25200999
0.15183842 0.30553564 -0.25200999
-0.018908583 0.31332302 -0.25200999
0.031545885 0.31915855 -0.25200999
-0.20502242 0.32522136 -0.25200999
-0.00046554208 0.32415801 -0.25200999
0.10314526 0.32443595 -0.25200999
-0.23555109 0.33947629 -0.25200999
-0.13367833 0.3382825 -0.25200999
-0.092479393 0.33018994 -0.25200999
-0.081258737 0.33649153 -0.25200999
-0.089767188 0.34434134 -0.25200999
0.044945702 0.34056401 -0.25200999
0.060580298 0.34159848 -0.25200999
0.17956221 0.34094846 -0.25200999
-0.19844532 0.35568178 -0.25200999
0.079859376 0.35823467 -0.25200999
-0.22854392 -0.34000599 -0.24037589
0.019229729 -0.34000599 -0.24358967
0.10597507 -0.34000599 -0.24445952
0.1499621 -0.34000599 -0.24702084
-0.24024101 -0.28732154 -0.24386516
0.21901301 -0.25405332 -0.24210626
0.21901301 -0.2147184 -0.24863607
0.21901301 -0.096455179 -0.2437602
-0.24024102 -0.020104244 -0.24262297
-0.24024101 -0.0099017769 -0.24169904
0.21901301 -0.0018863637 -0.24587995
0.21901301 0.086548865 -0.24440232
0.21901301 0.12718134 -0.24095382
-0.09404283 0.358852 -0.24301891
-0.019209459 -0.34000599 -0.23157163
-0.24024101 -0.31669182 -0.23645207
-0.24024101 -0.19058588 -0.23864639
0.21901301 -0.16970401 -0.23786645
-0.24024102 -0.11782039 -0.23836562
0.21901301 -0.10768797 -0.23218629
-0.24024099 -0.024178244 -0.23302568
0.21901301 0.005126379 -0.2353591
-0.24024101 0.049225748 -0.23552835
0.21901301 0.04458024 -0.23859891
0.21901301 0.066300519 -0.23608488
-0.24024101 0.12509936 -0.23591055
0.21901301 0.13881391 -0.2345234
0.21901301 0.17047894 -0.23823477
-0.15161887 0.35575801 -0.23889497
-0.14286578 0.35575801 -0.23901315
0.11742252 0.35754383 -0.23932
0.14253652 -0.350582 -0.22206238
-0.10377893 -0.34000599 -0.22165893
-0.022608392 -0.34000599 -0.2268739
-0.018370703 -0.34000599 -0.22091746
0.14115393 -0.34000599 -0.22115615
0.21901301 -0.062307362 -0.22042045
-0.24024101 -0.05292213 -0.22145654
-0.24024101 0.1293377 -0.22079895
-0.24024102 0.13642555 -0.2201401
-0.24024102 0.16949035 -0.22221495
-0.24024101 0.27252966 -0.22531034
-0.24024101 0.31514025 -0.22131747
-0.069152996 0.35575801 -0.22810186
0.082079992 0.35575801 -0.22680664
-0.16249424 -0.34000599 -0.21461026
-0.058352392 -0.34000599 -0.21932399
0.027225979 -0.34000599 -0.21598317
0.21901301 -0.2836687 -0.21082938
-0.24024102 -0.16511962 -0.2176396
0.21901301 -0.13158014 -0.2188563
-0.24024099 -0.093094014 -0.21282053
0.21901301 0.10952881 -0.21528037
-0.24024099 0.18977015 -0.21756087
-0.10737222 -0.34000599 -0.20281419
-0.24024099 -0.18143293 -0.20689712
0.21901301 -0.1740967 -0.20175225
0.21901301 -0.057429772 -0.2045905
-0.24024102 -0.03308998 -0.20143364
0.21901301 -0.019022156 -0.2029849
0.21901301 0.0023081601 -0.20981182
-0.24024099 0.097505346 -0.20505899
-0.24024102 0.14734894 -0.20506239
-0.24024101 0.18976146 -0.20249283
-0.24024102 0.20545933 -0.20543078
0.21901301 0.23773278 -0.20667744
0.20268284 0.2987071 -0.20103088
-0.24024101 0.32951555 -0.20520419
0.066430636 0.35575801 -0.20181674
-0.033430271 -0.34000599 -0.19928816
0.21743748 -0.2899636 -0.19259748
-0.24024099 -0.25514108 -0.19272377
-0.24024101 -0.19944251 -0.19725597
0.21901301 0.026555292 -0.19356693
0.21901301 0.15415153 -0.19256032
0.21146849 0.27886909 -0.195007
0.19841368 0.30977565 -0.19589654
0.18967094 0.3324419 -0.19139348
-0.18835846 0.35575801 -0.19673018
0.00064176321 0.35575801 -0.19872729
0.0067751408 -0.34000599 -0.18207783
-0.24024101 -0.065704882 -0.18100482
-0.24024101 -0.0040140301 -0.18008092
0.21901301 0.20734259 -0.18938679
0.18844453 0.33562157 -0.18439072
-0.23514658 0.35885197 -0.18580309
0.05178275 0.35575801 -0.18198188
0.12394141 0.35575801 -0.18720655
0.01468299 -0.34000599 -0.17248094
-0.24024101 -0.28950647 -0.17955132
-0.24024099 -0.045845501 -0.17859179
-0.24024099 -0.023434862 -0.170238
0.21901301 0.22959888 -0.17207488
-0.24024101 0.25735608 -0.17518958
0.21580125 0.26469412 -0.17483556
-0.24024099 0.35185236 -0.17721991
-0.21481539 0.35575801 -0.17888188
0.13531348 0.35575804 -0.17016669
0.149878 0.35811934 -0.17530562
-0.066548079 -0.34000599 -0.16655323
0.0052362382 -0.34000599 -0.1601491
0.21901301 -0.28684789 -0.16137955
0.21901301 -0.10010407 -0.16461457
-0.24024101 -0.094635427 -0.16309634
-0.24024102 0.064304285 -0.1604718
-0.24024102 0.16225649 -0.16210267
-0.24024101 0.21742985 -0.16701227
-0.24024101 0.2916106 -0.16747954
0.20404814 0.29516688 -0.16333184
-0.24024099 0.30549118 -0.16318044
-0.24024101 0.35324556 -0.16509935
-0.19405834 0.35575801 -0.1691884
0.054445419 0.35575801 -0.16231027
0.093119115 0.35575801 -0.1672944
-0.14341575 -0.34000599 -0.15801108
0.13741264 -0.34000599 -0.15322915
0.21901301 -0.16395226 -0.15313363
0.21901301 -0.15924914 -0.15410288
0.21901301 -0.13317531 -0.15101035
0.21901301 -0.014191387 -0.1541044
-0.24024099 0.06105563 -0.15146443
0.21901301 0.095683649 -0.15933026
-0.24024099 0.23621158 -0.15502024
0.21732642 0.26073968 -0.15334253
0.18974872 0.33224025 -0.15042622
-0.11733706 0.35575801 -0.15252993
-0.054384589 0.35575801 -0.15410022
0.17698595 0.35385489 -0.15416087
-0.031064004 -0.34000599 -0.14918429
0.21901301 -0.26609504 -0.14983979
0.21901301 -0.16857398 -0.14115284
-0.24024101 -0.11774704 -0.14991267
0.21901301 -0.091733582 -0.14684805
0.22976696 0.010224256 -0.14906885
-0.24024101 0.064547226 -0.14841633
-0.24024102 0.081313685 -0.14303525
0.21901301 0.22512613 -0.14252776
-0.24024099 0.23156022 -0.14206499
0.13098152 0.35575801 -0.14870118
-0.18888323 -0.34000599 -0.13281515
-0.041840695 -0.34000599 -0.13101891
-0.019899558 -0.34000599 -0.13993204
-0.24024101 -0.019392863 -0.13892721
-0.24024099 0.0042276457 -0.13575387
0.24024102 0.039995424 -0.13637745
-0.24024099 0.1042348 -0.13385034
0.18732363 0.33852762 -0.13484412
-0.15362784 0.35575801 -0.1315006
0.1073199 0.35575801 -0.13488472
0.16775706 0.35828763 -0.13548544
-0.1314666 -0.34000599 -0.123605
0.074327379 -0.34000599 -0.12079847
-0.24024101 -0.020040527 -0.125957
0.24024102 -0.002886733 -0.12045667
-0.24024101 0.097577766 -0.12883273
0.23187199 0.13898334 -0.12136916
0.1839913 0.34634066 -0.12039092
-0.10947058 0.35575801 -0.12158272
-0.078419074 0.35575801 -0.12696473
-0.192476 -0.34000599 -0.11375803
0.081773169 -0.34000599 -0.11489194
0.09232118 -0.34000599 -0.11867243
0.13960811 -0.34000599 -0.11244249
0.19454928 -0.33439702 -0.11471637
-0.24024102 -0.23007768 -0.11201261
0.21901301 -0.20424701 -0.11898258
0.24024099 0.067763656 -0.11867878
0.17530668 -0.34000599 -0.10754429
-0.24024101 -0.29933769 -0.10605477
-0.24024099 -0.22524157 -0.10574645
0.21901301 -0.2016409 -0.10629772
-0.24024101 -0.18397395 -0.10143854
-0.24024101 -0.1765119 -0.10797611
0.21901301 -0.15527368 -0.10796271
0.23402987 0.068881668 -0.10420499
-0.050157826 0.35575801 -0.10427175
-0.039302342 0.35575801 -0.10367439
0.14127646 0.35575801 -0.10703356
-0.19979194 -0.34000599 -0.097660452
0.028719751 -0.34000599 -0.098774277
0.03066761 -0.34000599 -0.096723266
0.20676827 -0.31067592 -0.096497282
-0.24024101 -0.23488003 -0.093387753
0.21901301 -0.17767157 -0.091641359
0.22014429 0.092711166 -0.095961481
0.23727244 0.094262429 -0.095318943
-0.24024101 0.1492032 -0.093404979
0.21901301 0.23608948 -0.098106802
-0.24024101 0.24197374 -0.097697325
-0.24024101 0.28205341 -0.097515881
0.19787464 0.31117308 -0.095091239
-0.19168523 0.35575801 -0.098246247
-0.17606902 0.35575801 -0.09124954
-0.13992301 0.35575801 -0.09576609
-0.039964508 0.35575801 -0.097124219
-0.14060992 -0.34000599 -0.086227432
-0.0067302361 -0.34000599 -0.087682717
0.044214159 -0.34000599 -0.084322982
0.15756828 -0.34000599 -0.08544758
0.21262714 -0.29930204 -0.087497272
0.21901301 -0.2696144 -0.088222355
0.21901301 -0.19212569 -0.088843495
0.21901301 -0.17023462 -0.084289879
-0.24024101 -0.12735651 -0.080962174
0.21901301 -0.10144666 -0.085723981
-0.24024101 -0.02344743 -0.085704237
-0.24024101 0.3115828 -0.087185733
-0.14645445 0.35575801 -0.0814505
0.1000797 0.35575801 -0.081821375
-0.17083496 -0.34000599 -0.073783442
0.10368848 -0.34000599 -0.079288572
0.11367783 -0.34000599 -0.079420425
0.21901301 -0.24862656 -0.072745875
0.21901301 0.22911808 -0.071678936
-0.24024102 0.34339336 -0.074204639
-0.029610973 0.35575801 -0.079705343
0.066978164 0.35575801 -0.077254176
0.074000597 0.35575801 -0.077680871
-0.19850831 -0.34000599 -0.066882908
0.18226911 -0.34000599 -0.06447845
-0.24024099 -0.24985297 -0.060885664
-0.24024101 -0.19091184 -0.061360698
-0.24024101 -0.12907501 -0.060867757
0.24016185 -0.079683959 -0.068715058
0.19468358 -0.021069944 -0.06605877
-0.24024102 0.08963342 -0.062655948
0.20587575 0.2904284 -0.060889024
0.19870639 0.30901662 -0.069120951
0.20110968 0.30278552 -0.067607239
-0.16198295 0.35575801 -0.062778898
0.019404702 0.35575801 -0.063628688
0.18059935 0.3509869 -0.06379126
-0.17924803 -0.34000599 -0.059462614
-0.015547838 -0.34000599 -0.058076087
0.017398905 -0.34000599 -0.059076697
0.15371478 -0.34000599 -0.058110107
0.16193138 -0.34000599 -0.05734631
0.1740503 -0.34000599 -0.059546627
0.21901301 -0.15971291 -0.052691106
0.21901301 -0.11847886 -0.051629048
-0.24024102 -0.087763228 -0.057601079
-0.24024101 0.036429688 -0.059300836
-0.24024102 0.16109741 -0.05137464
-0.24024101 0.17787606 -0.055852965
-0.24024099 0.35310161 -0.053224191
0.049899843 0.35575801 -0.050953813
0.070181973 0.35575801 -0.053400844
0.083340034 0.35575801 -0.050806206
0.10426521 0.35575801 -0.059537716
0.15141562 0.35885203 -0.050107628
-0.021578377 -0.34000599 -0.046252087
0.18586686 -0.34000599 -0.041742247
-0.24024099 -0.32728964 -0.047267422
0.17176726 -0.025381569 -0.041708849
-0.24024101 0.10326645 -0.041166145
-0.24024099 0.25237957 -0.040754758
-0.18288553 -0.34000599 -0.039892577
-0.15366438 -0.34000599 -0.0300023
-0.13837394 -0.34000599 -0.039039016
-0.030020889 -0.34000599 -0.033406135
-0.24024102 -0.23337954 -0.035418123
0.21901301 -0.16330542 -0.035954729
-0.24024099 -0.11105894 -0.032491095
-0.24024101 -0.1001877 -0.035215765
-0.24024101 -0.053618476 -0.034650192
-0.24024101 0.040222444 -0.037423313
0.18589853 0.13160269 -0.030253159
0.21714504 0.26120996 -0.033883244
0.19027483 0.33087623 -0.039839417
-0.24024101 0.35481185 -0.032079645
-0.16563544 0.35575801 -0.037964523
-0.0086140642 0.35575801 -0.037705239
0.12765963 0.35575801 -0.039604045
-0.17003945 -0.34000599 -0.022456616
-0.16146645 -0.34000599 -0.020715866
0.025662951 -0.34000599 -0.029170495
0.092636809 -0.34000599 -0.021992825
0.13963369 -0.34000599 -0.027128473
-0.24024101 -0.28958994 -0.027825065
-0.24024099 -0.21524149 -0.022906505
-0.24024101 -0.13553083 -0.028999135
-0.24024101 -0.077838868 -0.020511232
0.20412418 -0.050031953 -0.020670811
-0.24024099 -0.0052141193 -0.021869715
0.16172799 0.048174292 -0.024357354
0.21901301 0.24892583 -0.026050128
0.19091806 0.32920861 -0.028680312
-0.030312084 0.35575801 -0.021198587
0.058302499 0.35575801 -0.027463634
-0.10082737 -0.34000599 -0.016866412
-0.086754881 -0.34000599 -0.016334832
0.04513368 -0.34000599 -0.014054663
-0.24024101 -0.10692401 -0.010902699
-0.24024101 -0.0040247049 -0.01073431
-0.24024099 0.030306265 -0.015367076
-0.24024101 0.16811393 -0.013670884
0.21263307 0.27290845 -0.012495145
-0.24024102 0.32091114 -0.016087784
-0.19089788 0.35575801 -0.017646335
-0.12259027 0.35575801 -0.017201744
-0.11298649 0.35575801 -0.018588006
-0.0066409842 0.35575801 -0.017725201
0.00033731759 0.35575801 -0.014957033
0.11863087 0.35575801 -0.012376234
-0.24024101 -0.2792173 -0.0050442368
0.21901301 -0.23159215 -0.00025271624
0.21901301 -0.21771665 -0.002403602
-0.24024099 0.053720891 -0.004943639
0.16172799 0.075462177 -5.0295144e-05
-0.24024101 0.1295304 -0.0090962425
0.21901301 0.19971631 -0.0093436185
-0.24024102 0.22435866 -0.00041682273
-0.24024099 0.28283441 -0.0076936632
-0.24024101 0.33082646 -0.0063174181
-0.13951829 0.35575801 -0.0021933466
-0.11545449 0.35575801 -0.0070244037
-0.045605756 -0.34000599 0.00080067664
0.21901301 -0.25377178 0.0086114202
0.16172799 0.0087738009 0.0099381749
-0.24024102 0.071276367 0.0090872869
0.17824432 0.11574593 0.005708009
0.19207349 0.14023341 0.0026914994
-0.10676064 0.35575801 0.0077009127
-0.21586916 -0.34000599 0.014021993
0.21901299 -0.26844746 0.018222064
0.21901302 -0.24240038 0.019325972
-0.24024099 -0.21604063 0.016533913
-0.24024102 -0.19228673 0.01464875
0.21901301 -0.1294869 0.017312096
0.21901301 -0.11041317 0.014342345
0.21901301 0.2046569 0.0160634
0.21901301 0.22155248 0.017353039
-0.078589305 0.35575801 0.015519656
-0.01246798 0.35575801 0.016402166
-0.10007553 -0.34000599 0.023019679
0.025294468 -0.34000599 0.025434287
0.17211245 -0.34000599 0.026857544
-0.24024099 -0.29405129 0.023677543
-0.24024102 -0.27582675 0.021759503
-0.24024101 -0.21269146 0.023001498
-0.24024099 0.10725287 0.023297377
0.18134932 0.122643 0.02030375
-0.24024101 0.13313417 0.026893571
0.20661625 0.14456254 0.024874771
0.21901301 0.24133959 0.02305001
0.21901301 0.25598273 0.021477303
-0.20454472 0.35575801 0.026586592
-0.083863989 -0.34000599 0.034296501
-0.044747077 -0.34000599 0.038241342
0.14256901 -0.34000599 0.031183973
-0.24024101 -0.18938866 0.031729165
-0.24024101 -0.032672033 0.039932743
-0.24024102 0.013819695 0.031044871
0.21901301 0.23699588 0.030393966
-0.24024102 0.31282276 0.035355173
0.18308571 0.34783766 0.03733965
-0.055666134 0.35575801 0.037217416
0.12852773 0.35575801 0.037242688
-0.21569899 -0.34000599 0.043027408
-0.083265245 -0.34000599 0.047679521
0.14774171 -0.34000599 0.048355639
0.18766589 -0.34000599 0.049424648
0.19195718 -0.33942911 0.049087428
0.21901301 -0.23206319 0.048906058
-0.24024099 -0.16509444 0.046093285
-0.24024101 -0.002992887 0.049736116
-0.24024101 0.012445861 0.045927688
-0.24024099 0.035696886 0.04130131
0.16172799 0.030227996 0.046789847
-0.24024102 0.059562042 0.049194112
-0.24024099 0.18770126 0.046627831
0.22105318 0.19279391 0.046575844
-0.24024102 0.31314945 0.042602107
-0.10902576 0.35575801 0.040342949
-0.02379486 0.35575801 0.048806675
-0.18238831 -0.34000599 0.053531952
0.19770575 -0.32826924 0.051143244
0.20382804 -0.31638393 0.052445587
0.21901301 -0.22691183 0.055400666
0.21901301 -0.15646529 0.054574773
-0.24024099 0.10108831 0.057874948
0.21379602 0.13512044 0.055240612
-0.24024099 0.31587049 0.051537856
-0.10046668 0.35575801 0.051347867
-0.090268895 0.35575801 0.050915442
0.0025010481 0.35575801 0.059585132
0.090148136 0.35575801 0.057260446
0.071567997 -0.34000599 0.068250142
0.1235165 -0.34000599 0.067826957
-0.24024099 -0.33336478 0.066360742
-0.24024101 -0.30535394 0.067509696
-0.24024099 -0.29301041 0.060814574
-0.24024102 -0.23715192 0.06780564
0.16238071 0.059908599 0.069012284
0.16229422 0.064804457 0.067985035
-0.24024101 0.13269603 0.064862773
0.2365707 0.13182247 0.063775003
0.24024102 0.16422005 0.062301729
-0.025069196 0.35575801 0.06857226
0.021468742 0.35575801 0.061224028
0.21901301 -0.24907148 0.077001899
0.2249227 -0.085442863 0.078162663
-0.24024102 -0.02504091 0.078278512
-0.24024102 -0.013982352 0.077025846
0.1727065 0.0022957795 0.070734158
0.16730972 0.070347808 0.076040402
0.1898098 0.102933 0.072664276
0.2064068 0.11347362 0.07491672
-0.24024099 0.12921193 0.073912203
-0.24024101 0.16518547 0.074928679
0.21173486 0.27523723 0.071234584
-0.24024099 0.30292839 0.079468675
0.1849394 0.34449393 0.071512833
0.12949176 0.35575801 0.071140066
0.149878 0.35653254 0.078911155
-0.13778834 -0.34000599 0.086266011
-0.091158129 -0.34000599 0.081579842
-0.24024102 -0.25334448 0.083102413
-0.24024102 -0.23566926 0.08576405
-0.24024101 -0.19133124 0.083046153
0.21901301 -0.1781653 0.081569627
0.21901301 -0.13353787 0.083088197
0.19490294 0.082109548 0.087454759
-0.24024101 0.19030227 0.089513853
0.21901301 0.24586071 0.089205571
0.19230047 0.32562485 0.083041549
-0.20345756 0.35575801 0.086173013
-0.014724135 0.35575801 0.0866611
0.14606348 0.35575801 0.087215655
-0.11916463 -0.34000599 0.090616599
-0.031533599 -0.34000599 0.097485997
0.017676204 -0.34000599 0.098602876
0.21901301 -0.21945812 0.094493732
-0.24024101 -0.065214753 0.095391117
0.24024099 -0.038098045 0.096191376
-0.24024102 -0.025726724 0.098412529
0.24024102 -0.023480028 0.096384041
0.20509608 0.01100589 0.092607364
0.20472489 0.048289821 0.099794112
-0.24024099 0.083877712 0.098855034
0.19735545 0.3125186 0.095386192
0.18535139 0.34356591 0.092993274
-0.17812049 0.35575801 0.099406116
-0.015047699 0.35575801 0.098075144
0.10487805 0.35575801 0.096320979
-0.22748478 -0.34000599 0.10120222
-0.097977124 -0.34000599 0.1033791
0.0073338747 -0.34000599 0.10087597
0.20166562 -0.32058185 0.10987965
0.21901301 -0.16761427 0.10816851
0.21901301 -0.083867162 0.108512
0.22595459 -0.066942304 0.10227174
-0.24024102 -0.0087166205 0.1068146
0.23642263 0.056760453 0.10580231
-0.24024101 0.10745311 0.10139918
0.21901301 0.15717 0.10732488
0.21901301 0.17275278 0.10442687
-0.24024099 0.2909106 0.10789972
0.035143569 0.35575801 0.10469335
0.087873273 0.35575801 0.10544878
0.13680826 0.35575801 0.1077181
0.17776896 0.35357326 0.10634916
-0.23019862 -0.34000599 0.1155757
-0.10135576 -0.34000599 0.11122025
0.21901301 -0.22089124 0.11431721
0.24024101 0.027520705 0.11082218
-0.24024099 0.047144599 0.11844726
0.24024101 0.075168416 0.11586104
-0.24024102 0.21165757 0.1102026
-0.24024101 0.29772335 0.1192252
-0.24024101 0.34489357 0.11276432
-0.030536003 0.35575801 0.11224452
0.069922611 0.35575801 0.11204867
-0.17522068 -0.34000599 0.12045091
0.19040188 -0.34000599 0.12601104
-0.24024099 -0.33664769 0.12740436
0.21694276 -0.29092401 0.12496337
0.21826218 -0.28836256 0.12739703
-0.24024101 -0.16268933 0.12341449
-0.24024101 -0.064471036 0.12587869
0.21901301 -0.054449402 0.12507372
0.21901301 0.13514708 0.12707926
0.21901301 0.16415827 0.12313785
0.21379036 0.2444317 0.12602141
-0.24024101 0.29268539 0.12959303
-0.21078852 0.35575801 0.1238231
-0.13499247 0.35575801 0.12062537
-0.060172018 0.35575801 0.12607911
-0.059490111 0.35575801 0.12188385
0.10098591 0.35575801 0.12136689
0.21901301 -0.24753985 0.13330908
0.21901301 -0.13549799 0.13405241
-0.24024101 -0.11458025 0.13024147
0.21901301 -0.10757586 0.13496715
0.23976226 -0.015155263 0.13138279
-0.24024102 0.065561563 0.13958985
0.22317773 0.11854646 0.13549744
0.22103411 0.12387794 0.1332885
0.21901301 0.14918965 0.13301395
0.21901301 0.19613597 0.13942006
-0.16748334 0.35575801 0.1326994
0.082990885 0.35575801 0.13869616
-0.14273579 -0.34000599 0.14326113
0.12434491 -0.34000599 0.14435565
0.14088839 -0.34000599 0.1494865
-0.24024101 -0.28661346 0.1447757
0.21901301 0.11574163 0.14031903
-0.24024101 0.23777914 0.14885764
0.21901301 0.23297225 0.14237273
0.20619184 0.24322501 0.14794561
0.21681373 0.24322501 0.14819643
-0.071905226 0.35575801 0.1404646
0.04252227 -0.34000599 0.15834592
0.050502677 -0.34000599 0.15468068
-0.24024102 -0.31413269 0.15845215
-0.24024101 -0.27031589 0.15906958
0.21901301 -0.21083255 0.15540852
-0.24024101 -0.0083502531 0.15061411
-0.24024102 0.038551226 0.15377493
-0.24024101 0.076576576 0.15036067
-0.24024101 0.097497523 0.15795666
0.21901301 0.14518222 0.15758365
0.21901299 0.17465299 0.15166783
-0.24024101 0.28927168 0.15933609
0.0071372036 0.35575801 0.15715158
-0.23455743 -0.34000599 0.16195805
-0.11492359 -0.34000599 0.16600558
0.063770078 -0.34000599 0.16004294
0.21901301 -0.216557 0.16144721
0.21901301 -0.15276568 0.16896649
-0.24024101 -0.065954424 0.16172083
0.21901301 -0.06699279 0.16268612
-0.24024102 -0.058474988 0.16605097
-0.24024102 0.0096948892 0.16952139
0.21355394 0.24322501 0.16670318
-0.24024101 0.25239 0.16466025
0.0085463496 0.35575801 0.16661406
-0.23718262 -0.34000599 0.17920001
-0.015624419 -0.34000599 0.17766958
-0.24024101 -0.32656261 0.17005068
-0.24024099 -0.10946751 0.17155999
0.21901301 -0.093070559 0.17300749
-0.24024102 -0.054420307 0.17724878
0.21901301 -0.028954025 0.17807865
0.21901301 0.22575071 0.17565137
0.18505558 0.34423223 0.17288223
-0.1688422 0.35575801 0.17283003
-0.094372019 0.35575801 0.1768617
-0.043150883 0.35575801 0.17736948
0.052180473 -0.34000599 0.18153447
0.06092849 -0.34000599 0.18912318
-0.24024101 -0.33725116 0.18641844
-0.24024101 -0.1980799 0.18581893
0.21901301 -0.072077587 0.18158686
-0.24024101 0.070815176 0.18205847
-0.24024101 0.14405262 0.18947482
-0.24024099 0.2327259 0.18108651
-0.24024101 0.29921442 0.18147188
-0.095913619 0.35575801 0.18755344
-0.096989602 -0.34000599 0.19735023
0.16561019 -0.34000599 0.192258
0.21901301 -0.27183354 0.19182524
-0.24024099 -0.2168279 0.19888151
0.21901301 -0.1935004 0.1954319
-0.24024101 -0.072453037 0.19364719
-0.24024099 -0.060069315 0.1953302
-0.24024101 -0.053689823 0.19172359
0.21901301 0.1473062 0.19759887
-0.24024101 0.17623678 0.19749267
-0.24024102 0.19550309 0.19011779
0.20221084 0.24322501 0.19942182
-0.24024101 0.26362446 0.19522943
-0.24024101 0.30588976 0.19229983
-0.18011712 0.35575801 0.19588858
0.15154745 -0.35885197 0.20770438
0.20063394 -0.32258466 0.20216204
0.21901301 -0.17278241 0.20544623
0.21901301 -0.054958895 0.20249994
-0.24024101 0.097465068 0.20380178
-0.24024101 0.13036841 0.20997146
0.21901301 0.13413438 0.20624557
0.20555405 0.29126278 0.20478807
-0.20375825 0.35575801 0.20994315
-0.14620116 0.35575801 0.20660824
-0.073301777 0.35575801 0.20636517
0.0083421692 0.35575801 0.2024112
0.11890139 0.35575801 0.20810306
0.15609819 0.358852 0.20315947
-0.19973758 -0.34000599 0.21190847
-0.12837124 -0.34000599 0.21808366
-0.055121392 -0.34000599 0.21482688
-0.024819959 -0.34000599 0.21333346
-0.006237112 -0.34000599 0.21703687
0.031492822 -0.34000599 0.21033731
-0.24024102 -0.076006666 0.2167777
-0.24024101 -0.050774053 0.21169418
0.21901301 0.0035056528 0.21073994
0.21901301 0.1809552 0.21316402
0.21901301 0.20473032 0.21905518
-0.24024101 0.22658853 0.21047324
0.20190991 0.24322501 0.21353997
0.083605915 0.35575801 0.2168415
0.17107779 0.3573052 0.21160208
-0.20571899 -0.350582 0.22810979
0.21901301 -0.22750284 0.22276258
-0.24024101 -0.20265782 0.22840962
0.21901301 -0.19111055 0.22513908
0.21901301 -0.048542071 0.22216511
-0.24024101 0.13031003 0.2235561
0.21901301 0.22951943 0.22765532
0.19338636 0.32281014 0.22180316
-0.15921621 0.35575801 0.22966242
0.083711222 -0.34000599 0.23069446
0.21901301 -0.22725499 0.23824558
-0.24024101 -0.10329062 0.23852542
0.21901301 -0.062801212 0.23254773
-0.24024101 0.078136578 0.23033924
-0.24024102 0.18465817 0.2339773
-0.24024101 0.19579983 0.23405516
0.21901301 0.25272548 0.23295322
0.20174527 0.30113786 0.23144299
-0.17212774 0.35826525 0.23932099
-0.14460491 0.35575801 0.23747261
-0.0019157529 0.35820273 0.23932099
0.009720929 0.35575801 0.23056167
0.088535175 0.35575801 0.23308705
-0.091076441 -0.34000599 0.24772048
0.21901301 -0.274308 0.24196069
0.21901301 0.21064852 0.24903598
0.21901301 0.25317016 0.24769653
-0.24024101 0.3487452 0.24949348
-0.24024099 0.35565069 0.24973726
-0.23287886 0.358852 0.24162814
-0.1849359 0.358852 0.24896705
-0.03545817 0.358852 0.24861844
0.16091582 0.358852 0.24145027
0.077535219 -0.3325372 0.25200999
0.13996238 -0.33835647 0.25200999
-0.10072357 -0.32112488 0.25200999
-0.0085402504 -0.32310978 0.25200999
-0.21266355 -0.31916574 0.25200999
-0.20419534 -0.31575519 0.25200999
-0.082114302 -0.30429384 0.25200999
0.028135255 -0.30002582 0.25200999
0.21190277 -0.30070823 0.25171375
-0.22228278 -0.29516026 0.25200999
-0.10570869 -0.29508597 0.25200999
-0.041253746 -0.2985037 0.25200999
0.033679307 -0.2953977 0.25200999
0.069702536 -0.29290637 0.25200999
0.21210051 -0.29222238 0.25200999
0.12908916 -0.2792865 0.25200999
-0.21749151 -0.26446828 0.25200999
-0.15904188 -0.26316738 0.25200999
-0.011253141 -0.26559919 0.25200999
0.090227112 -0.26576811 0.25200999
-0.23318361 -0.2543442 0.25200999
-0.19488369 -0.25994635 0.25200999
-0.037949651 -0.25423035 0.25200999
-0.027681462 -0.25053385 0.25200999
-0.20770811 -0.24219748 0.25200999
-0.19577748 -0.24317491 0.25200999
-0.17208466 -0.24614912 0.25200999
-0.063611917 -0.23526002 0.25200999
0.10627022 -0.23863444 0.25200999
0.11391542 -0.23484908 0.25200999
-0.12702473 -0.22797966 0.25200999
-0.08674401 -0.22529766 0.25200999
0.036390886 -0.22639409 0.25200999
0.055802621 -0.22469786 0.25200999
0.17225538 -0.22263856 0.25200999
0.031281099 -0.21502016 0.25200999
0.046785779 -0.21497183 0.25200999
-0.1992379 -0.20301653 0.25200999
-0.1327904 -0.20834389 0.25200999
-0.12297665 -0.20811357 0.25200999
-0.24024101 -0.1990428 0.2505905
-0.020510092 -0.1963512 0.25200999
0.15293758 -0.19930515 0.25200999
-0.10771605 -0.18254027 0.25200999
0.069868937 -0.18538894 0.25200999
-0.21762615 -0.17593473 0.25200999
0.10078513 -0.17879467 0.25200999
-0.16711614 -0.15642989 0.25200999
-0.039902397 -0.15795615 0.25200999
0.09024626 -0.15375054 0.25200999
0.17176482 -0.15772881 0.25200999
-0.20078477 -0.14863783 0.25200999
0.06490171 -0.14489672 0.25200999
0.070136473 -0.14855805 0.25200999
-0.14798221 -0.1346955 0.25200999
-0.10874014 -0.13812785 0.25200999
-0.15450215 -0.12108216 0.25200999
-0.061294302 -0.12160309 0.25200999
0.006196849 -0.12800205 0.25200999
0.14265075 -0.12616248 0.25200999
-0.2165288 -0.11396657 0.25200999
0.10071965 -0.11146052 0.25200999
0.20811012 -0.11422703 0.25200999
-0.22631383 -0.10131008 0.25200999
-0.10260146 -0.10957757 0.25200999
-0.018351533 -0.10831299 0.25200999
0.007092014 -0.10289772 0.25200999
0.14479674 -0.10052514 0.25200999
-0.17295602 -0.096598707 0.25200999
-0.10983357 -0.098094255 0.25200999
-0.07221593 -0.096944325 0.25200999
-0.21818799 -0.084614649 0.25200999
-0.086458571 -0.086784005 0.25200999
-0.059636571 -0.084060244 0.25200999
0.068830423 -0.08967635 0.25200999
-0.22727528 -0.075952888 0.25200999
-0.02733276 -0.06572663 0.25200999
0.085369915 -0.056740999 0.25200999
-0.00010289997 -0.040533699 0.25200999
-0.22716033 -0.037347779 0.25200999
-0.14505725 -0.034433007 0.25200999
-0.18780985 -0.021947749 0.25200999
-0.16891375 -0.024468794 0.25200999
-0.085039511 -0.023477808 0.25200999
0.20688406 -0.028406091 0.25200999
-0.23497154 -0.016638637 0.25200999
-0.019940611 -0.013932451 0.25200999
0.072535798 -0.010779165 0.25200999
0.16089836 -0.01419809 0.25200999
-0.16387492 -0.0089663789 0.25200999
-0.12598068 -0.00018239021 0.25200999
0.17996743 -0.0085171405 0.25200999
-0.15663703 0.0067064315 0.25200999
-0.12531796 0.0065451264 0.25200999
0.019350849 0.022601463 0.25200999
0.19377983 0.024964951 0.25200999
0.20331985 0.023316013 0.25200999
-0.011518321 0.038907234 0.25200999
0.0039727315 0.049419954 0.25200999
0.21326162 0.057245482 0.25200999
-0.16482212 0.069429688 0.25200999
-0.20799172 0.073762558 0.25200999
0.012951316 0.078137204 0.25200999
0.11705723 0.071274504 0.25200999
0.17366248 0.071193591 0.25200999
0.10596569 0.087448366 0.25200999
0.21061143 0.091262214 0.25200999
0.057752706 0.10053436 0.25200999
0.17215078 0.10920654 0.25200999
-0.058886737 0.11703429 0.25200999
0.11366531 0.11816195 0.25200999
0.14314084 0.11278929 0.25200999
-0.013354475 0.1243549 0.25200999
0.15863322 0.12663911 0.25200999
0.19946192 0.12886128 0.25200999
0.079989776 0.13782237 0.25200999
0.059520684 0.14091806 0.25200999
-0.045764357 0.15430151 0.25200999
0.19748521 0.15370366 0.25200999
0.1718335 0.16290002 0.25200999
-0.21789809 0.17366056 0.25200999
-0.11538861 0.17379752 0.25200999
-0.047951229 0.17076895 0.25200999
0.10174631 0.17844155 0.25200999
-0.16979696 0.18042809 0.25200999
-0.12200372 0.18207479 0.25200999
-0.19871777 0.19936611 0.25200999
-0.17715698 0.1923417 0.25200999
-0.16108824 0.19466856 0.25200999
-0.14983764 0.19524378 0.25200999
0.051263899 0.19378197 0.25200999
-0.18224417 0.20149079 0.25200999
-0.17937304 0.21106765 0.25200999
-0.038261671 0.21205312 0.25200999
0.013876632 0.2114874 0.25200999
0.18211305 0.21860164 0.25200999
-0.17247573 0.23184544 0.25200999
-0.16602322 0.23486724 0.25200999
-0.10912985 0.23429559 0.25200999
-0.19538674 0.24743518 0.25200999
-0.05354999 0.24235889 0.25200999
-0.045328002 0.24212486 0.25200999
0.084286876 0.24294706 0.25200999
0.11083176 0.25175658 0.25200999
-0.24024102 0.26032007 0.25070566
0.023141757 0.2905302 0.25200999
0.077009499 0.29758483 0.25200999
0.096355498 0.29775178 0.25200999
-0.085040994 0.30166379 0.25200999
-0.059750177 0.30798581 0.25200999
-0.048116721 0.30814892 0.25200999
0.00068049319 0.30403128 0.25200999
0.05941477 0.30177817 0.25200999
0.068207592 0.30126998 0.25200999
0.12464999 0.30561182 0.25200999
0.13129319 0.30402076 0.25200999
0.17692406 0.30051002 0.25200999
-0.21309246 0.3140139 0.25200999
-0.083707072 0.31191638 0.25200999
0.12415108 0.31416482 0.25200999
0.1735331 0.31641334 0.25200999
-0.15042372 0.32969922 0.25200999
-0.094150975 0.3211475 0.25200999
-0.17106114 0.33796811 0.25200999
-0.044092804 0.33000469 0.25200999
0.086495504 0.3389343 0.25200999
0.12091903 0.33586603 0.25200999
0.14087285 0.33200392 0.25200999
0.15947674 0.33355939 0.25200999
-0.052304074 0.34103787 0.25200999
-0.17414567 0.35353437 0.25200999
0.14797527 0.35304898 0.25200999
