# .PCD v0.7 - Point Cloud Data file format
VERSION 0.7
FIELDS x y z
SIZE 4 4 4
TYPE F F F
COUNT 1 1 1
WIDTH 978
HEIGHT 1
VIEWPOINT 0 0 0 1 0 0 0
POINTS 978
DATA ascii
-0.27831867 -0.25934201 -0.2971741
-0.22707479 -0.25934201 -0.29686415
0.041696131 -0.25182867 -0.29805699
0.21639612 -0.25780886 -0.29805699
-0.29598039 -0.24420793 -0.29805699
-0.17465606 -0.24167198 -0.29805699
-0.15995049 -0.24515745 -0.29805699
-0.13386264 -0.24825704 -0.29805699
-0.047947273 -0.23165195 -0.29805699
-0.16136557 -0.22484645 -0.29805696
0.10278263 -0.2253249 -0.29805699
-0.060397044 -0.21349379 -0.29805699
0.062191896 -0.21583167 -0.29805699
0.13609037 -0.21469297 -0.29805699
-0.21775855 -0.20348592 -0.29805699
-0.2063444 -0.20313789 -0.29805699
-0.10263133 -0.2004205 -0.29805699
-0.064461365 -0.20891477 -0.29805699
0.10546297 -0.20184341 -0.29805699
0.22830793 -0.20902917 -0.29805699
-0.1109743 -0.19327633 -0.29805699
0.1975874 -0.19742249 -0.29805699
0.20428139 -0.19767074 -0.29805699
0.27547702 -0.19026352 -0.29805699
-0.29336137 -0.18675166 -0.29805699
-0.14370567 -0.18762797 -0.29805699
-0.23399881 -0.172126 -0.29805699
0.11932319 -0.17566684 -0.29805699
0.047735184 -0.16504028 -0.29805699
0.15351008 -0.16336349 -0.29805699
-0.17997071 -0.15732175 -0.29805699
-0.11707419 -0.15630952 -0.29805699
-0.095651098 -0.15467331 -0.29805699
0.29177466 -0.15995282 -0.29805699
-0.30643702 -0.14224762 -0.29707134
-0.24990028 -0.14797099 -0.29805699
-0.090336017 -0.14951916 -0.29805699
-0.23646636 -0.13058954 -0.29805699
-0.18893656 -0.13410103 -0.29805699
0.0063072406 -0.1326645 -0.29805699
0.22002301 -0.12211339 -0.29805699
-0.13604252 -0.11125923 -0.29805699
-0.0060274377 -0.11352343 -0.29805699
0.0011946857 -0.11568757 -0.29805699
0.013362169 -0.11055467 -0.29805699
0.16848871 -0.11668588 -0.29805699
0.19479276 -0.11771696 -0.29805699
-0.21511352 -0.10363644 -0.29805699
0.25373536 -0.10751468 -0.29805699
0.27407071 -0.10399897 -0.29805699
-0.29079211 -0.092118189 -0.29805699
-0.094981335 -0.098957695 -0.29805699
0.02807802 -0.099036686 -0.29805699
0.099816702 -0.097571671 -0.29805699
0.11381063 -0.093344346 -0.29805699
0.24955164 -0.099405333 -0.29805699
0.30643699 -0.090892136 -0.29735041
-0.15067033 -0.083902098 -0.29805699
-0.017264515 -0.086576268 -0.29805699
0.048785478 -0.088332064 -0.29805699
0.19063777 -0.08605738 -0.29805699
0.30643699 -0.086491302 -0.29081491
-0.089127719 -0.071900189 -0.29805699
-0.016738325 -0.070739165 -0.29805699
-0.29579067 -0.066749901 -0.29805699
-0.26555002 -0.060660869 -0.29805699
-0.24733989 -0.064126059 -0.29805699
-0.014244676 -0.066959001 -0.29805699
0.048430324 -0.065025687 -0.29805699
0.30643699 -0.068335608 -0.29236302
-0.20860511 -0.056324199 -0.29805699
0.0011623986 -0.054710116 -0.29805699
0.04855641 -0.051043462 -0.29805699
0.14567524 -0.058348916 -0.29805699
0.30276442 -0.05101512 -0.29805699
-0.30643699 -0.044880472 -0.29158068
-0.25376669 -0.043841556 -0.29805699
-0.22734091 -0.041797698 -0.29805699
0.032970656 -0.049166255 -0.29805699
0.092082404 -0.043802202 -0.29805699
-0.23657605 -0.039989404 -0.29805699
-0.16530965 -0.033599377 -0.29805699
-0.14256023 -0.034911148 -0.29805699
-0.00060923398 -0.037548449 -0.29805699
-0.073287539 -0.029121229 -0.29805699
-0.017159559 -0.022422412 -0.29805699
-0.18449418 -0.012241472 -0.29805699
0.11566196 -0.016273919 -0.29805699
-0.26999068 -0.0052029192 -0.29805699
-0.2010394 -0.0047633722 -0.29805699
-0.045777578 -0.0094120577 -0.29805699
-0.23483548 0.0070890253 -0.29805699
0.00028884411 0.0036799647 -0.29805699
0.094270982 0.0068764947 -0.29805699
0.11122753 0.0018928275 -0.29805696
-0.23084886 0.015002789 -0.29805699
0.077733725 0.012621559 -0.29805699
0.22157344 0.013634125 -0.29805699
0.2999216 0.013682176 -0.29805699
-0.29986057 0.023468073 -0.29805699
-0.0323116 0.023677029 -0.29805699
0.0078445971 0.022108182 -0.29805699
0.020168155 0.025941934 -0.29805699
0.12423903 0.020875659 -0.29805696
0.25598386 0.029548349 -0.29805699
0.29408988 0.025573799 -0.29805699
-0.24325982 0.038743664 -0.29805699
-0.11217637 0.036695458 -0.29805699
-0.047212724 0.036110304 -0.29805699
0.087392293 0.030247057 -0.29805699
0.11136203 0.036442488 -0.29805699
-0.01667263 0.040755454 -0.29805699
0.016685404 0.045357697 -0.29805699
0.082126886 0.041488811 -0.29805696
0.22664358 0.046649218 -0.29805699
-0.18331015 0.058930285 -0.29805699
-0.14536718 0.052428763 -0.29805699
-0.085045785 0.051982775 -0.29805699
-0.20463702 0.067614414 -0.29805699
0.10108879 0.063714162 -0.29805702
0.10167059 0.071251027 -0.29805699
0.15979435 0.076817445 -0.29805696
0.24825622 0.075071007 -0.29805702
0.035471354 0.080351658 -0.29805699
0.22004524 0.081769019 -0.29805699
-0.12551852 0.09750627 -0.29805699
-0.037792616 0.0997473 -0.29450062
0.03138151 0.096118137 -0.29805699
0.11069827 0.09305951 -0.29805699
0.16243258 0.0997473 -0.29559019
0.21121925 0.090226397 -0.29805699
-0.30123058 0.10847459 -0.29805699
-0.28302509 0.11327089 -0.29805699
-0.26833811 0.13970351 -0.29805699
-0.18541293 0.13537805 -0.29805699
-0.27222556 0.14296919 -0.29805699
-0.12112517 0.15225635 -0.29805699
-0.20076057 0.16792804 -0.29805699
-0.15165621 0.16891292 -0.29805699
-0.14332725 0.16983724 -0.29805699
-0.1433852 0.1707242 -0.29805699
-0.25823987 0.18532023 -0.29805699
-0.30643699 0.19733787 -0.29658341
-0.15354319 0.19548604 -0.29805699
-0.2135089 0.2083842 -0.29805699
-0.23129712 0.21102503 -0.29805699
-0.22131827 0.21102852 -0.29805702
-0.30528623 0.22918813 -0.29805699
-0.28053656 0.22397165 -0.29805699
-0.22075313 0.22722292 -0.29805699
-0.18342075 0.22775652 -0.29805699
-0.26557484 0.24530068 -0.29805699
-0.17003639 0.24093878 -0.29805699
-0.24336457 -0.25934201 -0.28638169
0.30643699 -0.17334442 -0.28507805
0.30643699 -0.017681835 -0.28402969
-0.30643699 0.019746751 -0.28296304
-0.050649635 0.0997473 -0.28833222
0.062301628 0.0997473 -0.28478524
0.10047862 0.0997473 -0.28454962
-0.10349035 0.17663021 -0.2838603
-0.098497026 0.18334958 -0.28158084
-0.19704047 0.25934201 -0.28602791
-0.2871829 -0.25934201 -0.2740829
-0.071115181 -0.25934201 -0.27673683
0.093995109 -0.25934201 -0.27188644
0.16771194 -0.25934201 -0.27098194
-0.30643699 -0.22519742 -0.27943969
-0.30643699 -0.21485978 -0.27639291
0.30643699 -0.1647394 -0.27164856
-0.30643696 -0.016462274 -0.27650493
0.04304621 0.0997473 -0.27688295
0.10614927 0.0997473 -0.27918613
0.13376875 0.0997473 -0.27460486
-0.098872676 0.18410493 -0.27012956
-0.30643702 0.19384767 -0.2779423
-0.25138369 0.25934201 -0.27948505
-0.18978214 -0.25934201 -0.26864257
-0.1289596 -0.25934201 -0.26172656
0.082089864 -0.25934201 -0.26710111
0.12020492 -0.25934201 -0.26175216
0.22546226 -0.25934201 -0.26978007
-0.30643699 -0.23164776 -0.26540926
-0.30643699 -0.093381703 -0.26000366
-0.30643699 -0.011017136 -0.26433623
0.30643699 0.039523542 -0.26618782
-0.30643702 0.073451579 -0.26296517
0.015680766 0.088451304 -0.26110566
0.13303305 0.0997473 -0.26687527
-0.10445751 0.12162729 -0.26581863
-0.21832933 -0.25934201 -0.25294399
-0.033834487 -0.25934201 -0.25301862
-0.024941072 -0.25934201 -0.25846192
0.23117784 -0.25934201 -0.25353277
0.30643699 0.036627498 -0.25831887
-0.30643696 0.071813792 -0.25820687
0.11604409 0.088451304 -0.25063664
0.22854239 0.088451304 -0.25338492
-0.30643702 0.11951337 -0.25392851
-0.11149873 0.14867325 -0.25667366
-0.20784043 -0.25934201 -0.24370478
-0.0061336458 -0.25934201 -0.24375235
0.026458941 -0.25934201 -0.24072346
-0.30643699 -0.18294263 -0.24913235
-0.30643699 0.019123167 -0.24016681
0.009509651 0.088451296 -0.24569248
0.17818138 0.088451311 -0.24649994
0.18224861 0.088451304 -0.24359296
0.22994877 0.088451304 -0.24048495
0.30643699 0.080725126 -0.24914216
-0.30643699 0.098872751 -0.24631938
-0.30643699 0.10646605 -0.24141033
-0.11335713 0.13954589 -0.2470023
-0.30643699 0.14136693 -0.24456677
-0.098761082 0.18388125 -0.24205436
-0.1545054 0.22239587 -0.24645111
-0.18868017 0.25934201 -0.24654974
-0.30643699 -0.25707915 -0.23530823
-0.15155524 -0.25934201 -0.23836394
-0.13620415 -0.25934201 -0.23068215
0.048282433 -0.25934201 -0.23008205
0.22532344 -0.25934201 -0.2371901
-0.30643699 -0.15932854 -0.236156
-0.30643699 0.019319862 -0.23158681
0.30643699 0.04727412 -0.23688272
-0.0082802419 0.088451304 -0.23744239
-0.073236324 0.0997473 -0.23141605
0.17729037 0.093188196 -0.23663603
0.284152 0.091228724 -0.23683387
-0.093987755 0.10054735 -0.23113301
-0.30643696 0.14118248 -0.23173775
-0.11929917 0.15150969 -0.23256586
-0.30643699 0.17284194 -0.23509018
-0.26505619 0.25934201 -0.23834223
-0.30643699 -0.2560111 -0.22964129
-0.21775427 -0.25934201 -0.22608343
-0.14245206 -0.25934201 -0.2291161
0.24014547 -0.25934201 -0.22759907
0.29809994 -0.25934201 -0.22604205
0.30643699 -0.15157549 -0.22255945
-0.30643699 -0.04017479 -0.22642928
0.30643699 -0.010192841 -0.22184554
0.26226702 0.088451304 -0.22042634
-0.078253604 0.0997473 -0.22755384
-0.30643699 0.12720281 -0.22601584
-0.22667955 -0.25934201 -0.21801963
0.22504072 -0.25934201 -0.21924213
0.30643702 -0.13509831 -0.2144556
-0.30643699 0.00033220649 -0.21812844
0.30643699 0.02141693 -0.21254274
0.095268115 0.087176003 -0.21307294
-0.30643696 0.098884001 -0.21674599
-0.30643699 0.15710269 -0.2194052
-0.11919804 0.17456523 -0.21911314
-0.20019379 0.25934201 -0.21809833
-0.11355683 -0.25934201 -0.20414436
-0.074612878 -0.25934201 -0.2057634
-0.043067425 -0.25934201 -0.20280394
0.10428664 -0.25934201 -0.20484939
0.2330431 -0.25934201 -0.20837358
-0.30643699 -0.1682858 -0.20117173
0.30643699 -0.072323248 -0.20731264
-0.30643699 -0.042065978 -0.20448382
-0.30643699 0.020033799 -0.20371923
-0.30643699 0.040121824 -0.20154089
0.065983847 0.093188196 -0.20254694
-0.11809972 0.14909452 -0.20739527
-0.30643699 0.24561065 -0.20663615
-0.17903821 0.25934201 -0.20715027
-0.17904039 -0.25934201 -0.19009933
-0.30643699 -0.23268145 -0.19288403
-0.30643699 -0.11786211 -0.19798003
0.30643699 -0.065779082 -0.19503975
0.30643699 0.039190624 -0.19991961
-0.30643699 0.068031512 -0.19449836
-0.30643699 0.081851445 -0.19453239
0.30643699 0.083151773 -0.19541489
-0.13752818 0.18821388 -0.19282079
-0.2067768 -0.25934201 -0.18911274
-0.088819824 -0.25934201 -0.1856471
-0.02785366 -0.25934201 -0.18660058
0.095184438 -0.25934201 -0.18878767
0.30643699 -0.21079363 -0.18492094
0.30643699 -0.19096492 -0.18458252
-0.30643699 -0.18217322 -0.18452978
-0.30643699 -0.16062245 -0.18499167
-0.30643699 -0.12381966 -0.1804387
0.30643699 0.063706137 -0.18531069
-0.30643699 0.072890513 -0.18640286
0.043696836 0.088451304 -0.18680832
0.10266042 0.088451304 -0.18779375
0.13433884 0.088451304 -0.18389879
0.14621615 0.088451304 -0.18391521
-0.19166625 -0.25934201 -0.17549124
-0.13240179 -0.25934201 -0.17327002
0.30643699 -0.11301738 -0.17336205
0.30643699 0.075204015 -0.17521024
0.12910597 0.088451311 -0.17463696
0.28734684 0.0997473 -0.17140722
-0.30643699 0.12470061 -0.17109217
-0.30643702 0.16739163 -0.17218456
-0.30643699 0.18845513 -0.17821571
-0.14168167 0.20837474 -0.1700426
-0.30643699 0.25888139 -0.17812923
-0.14808421 -0.25934201 -0.16665468
0.30643699 -0.22666703 -0.16088858
-0.30643699 -0.21466261 -0.16421118
0.30643699 -0.040004872 -0.16458485
-0.30643699 0.011611789 -0.16972522
-0.30643699 0.06201198 -0.16629969
-0.30643699 0.088265173 -0.16997257
-0.00088545494 0.088451304 -0.16287515
0.078744113 0.088451304 -0.1628364
-0.12296852 0.21826456 -0.16875495
-0.25471401 0.25934201 -0.16373961
-0.21345751 0.25934201 -0.16490065
-0.20794532 -0.25934201 -0.15361473
-0.12334636 -0.25934201 -0.15866821
-0.074035242 -0.25934201 -0.1525474
0.035096787 -0.25934201 -0.15248376
-0.30643699 -0.13071635 -0.1518694
-0.30643699 0.0023773834 -0.1590175
0.30643699 0.078519806 -0.15709361
-0.032388549 0.088451304 -0.15834725
-0.1036681 0.19376077 -0.15425931
-0.13928577 0.21331975 -0.15138188
-0.15492009 -0.25934201 -0.14768344
0.17034195 -0.25934201 -0.14208591
0.30643699 0.048191521 -0.14974076
0.15901315 0.088451304 -0.14807472
-0.074712604 0.099747293 -0.14207692
-0.30643699 0.19261271 -0.1401508
-0.13707989 0.21361771 -0.1459544
-0.15589914 -0.25934201 -0.1366953
-0.14300559 -0.25934201 -0.13402909
-0.053600416 -0.25934201 -0.13645697
0.1159929 -0.25934201 -0.13265958
0.15006849 -0.25934201 -0.13965392
0.27468565 -0.25934201 -0.13147429
0.30643699 -0.01325093 -0.1389704
-0.30643699 0.045154668 -0.1318595
-0.30643699 0.24442232 -0.13522252
-0.18164283 0.25934201 -0.13395059
-0.19342411 -0.25934201 -0.12587805
-0.1413108 -0.25934201 -0.12132878
0.30643699 -0.18362667 -0.12687936
0.30643699 -0.13245615 -0.12111151
-0.30643699 0.0076126084 -0.12101099
0.30643699 0.03738445 -0.12159318
0.30643699 0.077041581 -0.1275557
-0.064525992 0.0997473 -0.12764619
-0.10454018 0.12179372 -0.12103435
-0.10057652 0.1875364 -0.1264199
-0.098213896 0.18277958 -0.12344095
-0.2420568 0.25934201 -0.12139601
-0.18867625 -0.25934201 -0.11783709
-0.035262119 -0.25934201 -0.11539229
0.1484279 -0.25934201 -0.1195953
-0.30643699 -0.091480345 -0.11771227
-0.30643699 -0.043717496 -0.11085742
0.023522239 0.088451304 -0.1161668
-0.084118716 0.0997473 -0.11287255
-0.099822834 0.11229576 -0.11363813
-0.12330706 0.15957904 -0.11486045
-0.098447703 -0.25934201 -0.10808989
-0.074013472 -0.25934201 -0.10962509
0.05604814 -0.25934201 -0.10173909
0.30643699 -0.20275392 -0.10276227
-0.30643699 -0.17631213 -0.10284799
-0.30643699 -0.13159616 -0.10689504
-0.30643696 -0.037874237 -0.10248428
-0.30643699 -0.0083446335 -0.10727985
0.10960645 0.088451304 -0.10815578
-0.30643699 0.21101221 -0.10702324
-0.19367044 -0.25934201 -0.096989304
-0.016787618 -0.25934201 -0.095877647
0.13540491 -0.25934201 -0.091837756
0.1549612 -0.25934201 -0.096464403
0.20861207 -0.25934201 -0.092109025
-0.30643699 -0.23761272 -0.096763678
0.30643699 -0.20479095 -0.095377713
0.30643702 -0.1210304 -0.095987715
-0.30643699 -0.055643085 -0.097339123
-0.30643699 0.018537998 -0.091077656
0.30643699 0.013776992 -0.095825121
-0.0091958251 0.088451304 -0.09541364
0.045030046 0.088451304 -0.094787769
-0.15510193 0.22359724 -0.090564571
-0.16241866 0.23832923 -0.090987995
-0.30643699 0.2482561 -0.091986552
-0.17293994 0.25934201 -0.094470166
-0.24277079 -0.25934201 -0.086067557
-0.042821374 -0.25934201 -0.083819062
-0.014123335 -0.25934201 -0.086093605
0.034809381 -0.25934201 -0.082249202
0.29004014 -0.25934201 -0.086590998
-0.30643699 -0.055174485 -0.08123266
-0.30643696 -0.045589864 -0.080921642
0.30643699 -0.035158087 -0.08575467
0.17214237 0.088451304 -0.084245875
-0.30643699 0.11307652 -0.080000922
-0.30643699 0.22387555 -0.088155642
-0.25326195 0.25934201 -0.087699324
0.15380161 -0.25934201 -0.076473832
0.30643699 -0.10469533 -0.079521738
-0.30643699 0.013673419 -0.074836798
-0.30643699 0.025864078 -0.072611198
-0.032552101 0.088451304 -0.071278989
0.012609874 0.088451304 -0.075041771
0.22991228 0.088451304 -0.073856093
-0.081220672 0.0997473 -0.078561321
-0.11019889 0.1331781 -0.075496756
-0.1349587 0.15395951 -0.070200995
-0.13921311 0.19160619 -0.078092232
-0.15979937 0.20850952 -0.076017901
-0.16518405 0.21481654 -0.071891718
-0.19380021 -0.25934201 -0.061549433
0.28990585 -0.25934201 -0.063314289
0.090857819 0.088451304 -0.06953904
0.22912818 0.088451311 -0.061111409
-0.084600314 0.0997473 -0.069458298
0.284152 0.099487141 -0.062159892
-0.30643699 0.13777566 -0.0639029
-0.30643696 0.22171603 -0.061871417
-0.23723756 0.25934201 -0.069355682
-0.17306307 0.25934201 -0.067599781
0.19664794 -0.25934201 -0.053237304
-0.30643696 -0.11116698 -0.053798571
0.30643699 -0.11484574 -0.058890879
0.30643699 -0.076275274 -0.053672768
-0.30643699 0.0098485649 -0.053033806
0.14514966 0.088451304 -0.052271672
0.21784896 0.088451304 -0.055130359
-0.30643699 0.098414093 -0.052034564
-0.14108784 0.16630021 -0.056299124
-0.1511465 0.18655272 -0.057160534
-0.26925793 0.25934201 -0.058704842
-0.25894019 -0.25934201 -0.044146717
-0.22028542 -0.25934201 -0.04286737
-0.219659 -0.25934201 -0.044338971
-0.098047972 -0.25934201 -0.049739227
0.094270915 -0.25934201 -0.044867963
0.15457736 -0.25934201 -0.04942771
0.23751599 -0.25934201 -0.047979929
0.28962421 -0.25934201 -0.044124007
0.24891381 0.088451304 -0.044291317
-0.30643699 0.23814934 -0.041422114
-0.19668342 0.25934201 -0.044296265
-0.010008395 -0.25934201 -0.030939579
0.10098177 -0.25934201 -0.034595996
0.12409934 -0.25934201 -0.037709624
0.23282069 -0.25934201 -0.034137845
0.30643696 -0.13047019 -0.032988355
-0.30643699 -0.090125173 -0.031177312
-0.30643699 0.043789983 -0.030528106
0.046198227 0.088451304 -0.034655612
0.21245801 0.088451304 -0.036783636
0.284152 0.0994206 -0.030912329
-0.30643699 0.12037055 -0.037572205
-0.30643699 0.13229482 -0.038083248
-0.30643699 0.17676601 -0.032874703
-0.16967285 0.22385444 -0.039018497
-0.30643699 -0.2525304 -0.021579079
-0.25513041 -0.25934201 -0.023088425
-0.23590916 -0.25934201 -0.02139774
-0.17996499 -0.25934201 -0.027181119
-0.073948793 -0.25934201 -0.029943768
-0.021427572 -0.25934201 -0.025572389
-0.30643699 -0.067822911 -0.020596817
0.30643699 -0.016820764 -0.026448436
0.17846079 0.088451304 -0.021787859
0.23965931 0.088451304 -0.029153191
0.25815523 0.088451296 -0.02379398
0.29000416 0.0997473 -0.022811279
-0.11919191 0.12871261 -0.023240101
-0.30643699 0.16655326 -0.023150463
-0.30643699 0.18578167 -0.023756877
0.11966683 -0.25934201 -0.017300528
-0.30643699 -0.23561041 -0.018541068
-0.30643699 -0.15041327 -0.012294814
-0.30643699 -0.09323597 -0.011799619
0.10676171 0.088451304 -0.015220031
0.16059768 0.088451304 -0.017054697
0.27296034 0.088451304 -0.018142343
-0.080843538 0.0997473 -0.013502955
-0.30643699 0.11299565 -0.017880976
-0.15293378 0.19015127 -0.015583687
-0.30370423 0.25934201 -0.015358508
-0.25044733 0.25934201 -0.01871416
-0.083237827 -0.25934201 -0.0066040754
0.035153784 -0.25934201 -0.007509619
0.12988351 -0.25934201 -0.0021048002
0.30643699 -0.17613794 -0.00058272481
0.30643699 -0.053289622 -0.0066867005
0.30643699 0.025155962 -0.00018764287
-0.013479989 0.088451304 -0.00092375651
0.074459769 0.088451296 -0.0078981593
0.29270145 0.0997473 -0.0011358708
-0.30643699 0.10525015 -0.0017815977
-0.30643699 0.23843807 -0.0070015718
-0.23648088 -0.25934201 0.0069320686
0.060477708 -0.25934201 0.0030084141
0.30643699 -0.20296741 0.0091756359
0.30643699 -0.19357491 0.0066744983
-0.015465923 0.088451304 0.0062024742
0.28125119 0.088451304 0.0088036954
-0.082449749 -0.25934201 0.011688054
0.1597877 -0.25934201 0.013456568
0.20613319 -0.25934201 0.014342822
0.30643699 -0.19942756 0.013171047
0.30643699 -0.16556995 0.016214341
-0.30643699 -0.15240213 0.015268993
0.30643699 -0.13635483 0.018697023
0.30643699 -0.059407003 0.011273229
-0.30643699 -0.022491425 0.016417626
-0.30643699 0.022972599 0.013463521
-0.30643699 0.086374015 0.014570866
-0.022336928 0.088451304 0.016207568
0.028710132 0.088451304 0.019327417
0.1835061 0.088451304 0.017887682
0.21936461 0.088451304 0.017179832
-0.098990411 0.11061975 0.018389314
-0.11191273 0.13232708 0.011625847
-0.29491931 0.25934201 0.012740627
-0.25773939 0.25934201 0.01835382
-0.23313043 -0.25934201 0.029020958
0.26359552 -0.25934201 0.020547412
-0.30643699 -0.19723895 0.021450683
0.30643699 -0.1972557 0.023221329
0.30643699 -0.15631813 0.029866576
-0.30643699 -0.12511215 0.024118092
-0.041961901 0.099141195 0.021120109
-0.16335459 -0.25934201 0.035684891
0.050221212 -0.25934201 0.037571333
-0.30643699 -0.16300341 0.031466641
-0.30643699 -0.033371877 0.037941232
-0.30643699 0.0013648868 0.0346485
0.30643699 0.070326976 0.039856188
0.011544506 0.088451304 0.038286027
0.047523618 0.088451304 0.03965243
-0.30643699 0.15384069 0.033158958
-0.13883413 0.16176251 0.039003793
-0.23760694 0.25934201 0.030609787
-0.17953923 0.25934201 0.035856456
-0.21552947 -0.25934201 0.045488045
-0.18825184 -0.25934201 0.044404045
-0.013840362 -0.25934201 0.043553054
0.30400836 -0.25934201 0.040037125
0.30643699 -0.15434785 0.040155292
-0.30643699 -0.077279843 0.04396487
-0.30643699 -0.036818266 0.040308744
-0.30643699 0.053112715 0.049830616
0.061856069 0.088451304 0.042752065
0.29455847 0.0997473 0.044293053
-0.30643699 0.18425107 0.043478124
-0.15658632 0.19750544 0.04850401
-0.26615492 0.25934201 0.048532542
-0.19711566 0.25934201 0.04513666
-0.20191327 -0.25934201 0.055109695
-0.17757103 -0.25934201 0.053888507
0.03098559 -0.25934201 0.054883543
-0.30643699 -0.23233929 0.057266735
-0.30643699 0.021427877 0.057676002
0.30643699 0.049159639 0.053014375
0.30643699 0.073727697 0.052132249
0.034457535 0.088451304 0.054560896
0.1270289 0.088451304 0.055239454
0.17200992 0.088451304 0.058614813
0.18455997 0.088451304 0.053735778
-0.049891464 0.0997473 0.053810868
-0.12998964 -0.25934201 0.068380356
0.057475839 -0.25934201 0.067264028
0.11768335 -0.25934201 0.06627357
0.16973729 -0.25934201 0.064250447
-0.30643699 -0.20826665 0.069841571
-0.30643699 -0.072435953 0.067736089
-0.30643699 0.033184506 0.065661415
0.056602459 0.088451304 0.060925212
0.28047192 0.088451304 0.063614249
-0.075151898 0.0997473 0.060669608
-0.10770252 0.12816149 0.060553577
-0.30643699 0.21535334 0.062352255
-0.30643699 0.23882553 0.064057961
-0.30643699 -0.25458735 0.073589265
-0.23227552 -0.25934201 0.076421149
-0.14030889 -0.25934201 0.075011864
0.080692783 -0.25934201 0.072553292
0.18283431 -0.25934201 0.07409054
0.28008598 -0.25934201 0.075484127
-0.30643699 -0.11727361 0.079391286
0.30643699 -0.11722122 0.070444278
0.30643699 -0.038063172 0.070857912
-0.30643699 -0.0088708103 0.079802714
0.30643699 0.030724892 0.075228274
0.30643699 0.055846274 0.070486404
0.24188624 0.088451304 0.078212909
-0.11290842 0.13183266 0.07106299
-0.15377283 0.19184065 0.073337384
-0.22599778 0.25934201 0.079272188
-0.21648107 0.25934201 0.072408646
-0.29456353 -0.25934201 0.080670469
-0.027969161 -0.25934201 0.086530164
0.30643699 -0.10690861 0.085669897
-0.036494955 0.088451304 0.086490996
0.12516253 0.088451304 0.080658831
-0.091935709 0.0997473 0.080097593
-0.30643696 0.14400464 0.087713175
-0.16440845 0.24233553 0.084263921
-0.25768572 0.25934201 0.080393717
-0.10639229 -0.25934201 0.097292811
-0.038581766 -0.25934201 0.09702497
-0.020104758 -0.25934201 0.091187552
0.1920708 -0.25934201 0.092779949
0.30643699 -0.22434044 0.092488185
0.30643699 -0.21318355 0.090625964
-0.30643699 -0.20503931 0.094152577
-0.30643699 -0.15441117 0.093355149
0.30643699 -0.12897398 0.090639114
0.30643699 -0.001060124 0.096847542
-0.3021701 0.25934201 0.098396517
-0.2727167 0.25934201 0.0962511
-0.24765176 -0.25934201 0.10434798
0.062145956 -0.25934201 0.10858366
0.12329851 -0.25934201 0.10167361
0.13957231 -0.25934201 0.10862526
0.30643699 -0.18303294 0.10337593
0.30643699 -0.017607264 0.10475201
0.30643699 0.0074662287 0.10582832
0.071834095 0.088451304 0.10626962
0.22665372 0.088451311 0.10485307
-0.121849 0.12756392 0.10437457
-0.1831425 -0.25934201 0.1181453
-0.14840364 -0.25934201 0.11344823
-0.13658127 -0.25934201 0.11979001
-0.032080743 -0.25934201 0.11412917
-0.017812468 -0.25934201 0.11463735
0.19359863 -0.25934201 0.11940844
0.30643696 -0.24020541 0.11901554
-0.30643699 -0.11159339 0.11038262
-0.30643699 -0.022091433 0.11099866
0.071518011 0.088451304 0.11874862
0.081945524 0.088451304 0.11746553
-0.30643699 0.09471792 0.11409254
-0.162403 0.23255689 0.11307585
-0.20188251 0.25934201 0.11580814
-0.06919723 -0.25934201 0.12802684
0.17604311 -0.25934201 0.12353157
0.19189279 -0.25934201 0.12985104
0.22330941 -0.25934201 0.12795976
0.24183425 -0.25934201 0.12518169
-0.30643699 -0.23411447 0.12387793
0.10539542 0.088451304 0.12389529
0.15971728 0.088451304 0.12534115
-0.19231325 0.25934201 0.1221064
0.2455359 -0.25934201 0.13307324
0.30643699 -0.13074672 0.13518384
-0.30643699 -0.017116144 0.13032851
0.30643699 0.002962026 0.13203223
0.12914354 0.088451304 0.13756554
0.13795885 0.088451304 0.13647014
-0.12418321 0.13226369 0.13561575
0.064719751 -0.25934201 0.14945278
0.27773961 -0.25934201 0.14744657
-0.30643699 -0.24407856 0.14623651
0.30643699 -0.2351692 0.14996135
-0.30643699 -0.18141016 0.14178571
0.30643699 -0.038019624 0.14905277
0.30643699 -0.01275056 0.1406882
-0.30643699 0.037745502 0.14290234
-0.012646109 0.088451311 0.14177479
0.20742255 0.088451304 0.14384894
0.30000573 0.0997473 0.14526524
-0.30643699 0.12481818 0.14310095
-0.30643699 0.19720697 0.14312467
-0.1615511 0.2365825 0.14592686
-0.18611276 0.25934201 0.14677097
-0.28471985 -0.25934201 0.15052359
-0.19259065 -0.25934201 0.15290144
-0.18698595 -0.25934201 0.15630566
0.18975919 -0.25934201 0.15122777
-0.30643699 -0.070634037 0.15185091
0.30643699 -0.053194705 0.15244222
-0.30643699 -0.00024812669 0.15403822
0.30643699 0.067606613 0.15639824
-0.30643699 0.084756516 0.15613265
-0.032508466 0.088451304 0.15975226
0.035505675 0.088451311 0.15655759
0.0793029 0.088451311 0.15668817
0.30114856 0.0997473 0.15723866
-0.12795366 0.13985531 0.150737
-0.25871706 0.25934201 0.15350147
-0.28961414 -0.25934201 0.16703767
0.24803025 -0.25934201 0.16380528
0.30643702 -0.21746522 0.16024119
0.30643702 0.077215657 0.16176356
0.23508516 0.088451304 0.16943184
-0.079595298 0.0997473 0.16391245
-0.30643699 0.14091195 0.16066357
-0.30643699 0.21870121 0.16625965
-0.1688686 0.22934504 0.16175157
-0.030516792 -0.25934201 0.17482054
0.1674298 -0.25934201 0.17932829
0.30471092 -0.25934201 0.17045087
-0.30643699 -0.15468942 0.17974757
0.30643699 -0.029315991 0.17789501
0.30643699 0.060737766 0.17248681
0.12133259 0.088451304 0.17021111
-0.067693502 0.0997473 0.17994925
0.284152 0.090066917 0.17294306
-0.30643699 0.15379983 0.17343913
-0.29580411 -0.25934201 0.18885368
-0.19389573 -0.25934201 0.18528822
-0.15434179 -0.25934201 0.18166238
0.2846044 -0.25934201 0.18059678
0.30643699 -0.19761401 0.18218204
0.30643699 -0.034349225 0.18995787
-0.30643699 0.013710432 0.18430099
-0.088554986 0.0997473 0.18165925
-0.28450975 -0.25934201 0.19197115
-0.26005092 -0.25934201 0.19291413
-0.15747075 -0.25934201 0.19319475
0.24053225 -0.25934201 0.19866222
-0.30643699 -0.18239862 0.191581
0.30643699 -0.1318716 0.19083139
-0.30643699 -0.12154294 0.1997133
0.30643699 -0.012788087 0.19296774
0.30643699 0.051846791 0.19572611
0.30643699 0.063462101 0.19090411
-0.0053580068 0.088451304 0.19125098
0.012815094 0.088451304 0.19605365
0.10125442 0.088451304 0.19007021
0.13365678 0.088451304 0.19417547
0.24799412 0.088451304 0.19818956
-0.14562535 0.17543621 0.19054423
-0.15229599 0.20900038 0.190703
-0.14656846 0.20641583 0.19085515
-0.30643699 0.24578179 0.19097635
-0.11698809 -0.25934201 0.20087689
0.15731773 -0.25934201 0.20347832
0.25592947 -0.25934201 0.20810136
-0.30643699 -0.14432946 0.20960136
-0.30643699 -0.12809548 0.20910531
0.20287144 -0.25934201 0.21584532
-0.30643702 -0.1847505 0.21363625
-0.30643699 0.01725477 0.21795656
-0.0095914435 0.088451304 0.21932946
-0.041961901 0.090107024 0.21889752
-0.30643696 0.14515856 0.21225037
-0.11537118 0.14360185 0.21575578
-0.24036089 0.25934201 0.21263534
-0.21763891 0.25934201 0.21299919
-0.27113554 -0.25934201 0.22778869
-0.14433499 -0.25934201 0.22282249
-0.048557095 -0.25934201 0.22732276
0.12858467 -0.25934201 0.22759134
-0.30643699 -0.21802932 0.22360095
-0.30643699 0.021378793 0.22000775
0.30643699 0.0575088 0.22224423
-0.037821557 0.088451304 0.22882368
0.022543855 0.088451304 0.22364917
-0.056388482 0.0997473 0.2242837
-0.047022935 0.0997473 0.22585675
-0.30643699 0.11048156 0.22152719
-0.30643699 0.24122167 0.22313958
-0.28187534 0.25934201 0.2224084
-0.27212721 0.25934201 0.22845949
-0.30485097 -0.25934201 0.23977761
-0.30643699 -0.065761589 0.23437697
-0.30643699 -0.017190397 0.23070782
0.30643699 0.053053662 0.23709007
0.028410289 0.088451304 0.23784551
0.26581317 0.088451304 0.2312721
-0.041961901 0.09749721 0.23455428
-0.13489988 0.18292175 0.2315663
-0.16305119 0.23960274 0.2361781
-0.26885334 0.25934201 0.23363264
-0.092379302 -0.25934201 0.24769351
0.039508253 -0.25934201 0.24295411
0.173471 -0.25934201 0.24372479
0.30176932 -0.25934201 0.24217132
0.30643699 -0.18836674 0.24656965
-0.30643699 -0.14916909 0.24422733
-0.30643699 -0.11597529 0.24425729
-0.30643702 -0.058166258 0.24479756
-0.30643699 -0.046338759 0.24831049
0.010732315 0.088451304 0.24331795
0.17902806 0.088451304 0.24013235
0.086301737 0.091468602 0.24569264
0.284152 0.094623864 0.24426955
-0.09955053 0.11174777 0.24634962
-0.11999823 -0.25934201 0.2560938
-0.10337302 -0.25934201 0.2575303
0.1432249 -0.25934201 0.25819588
0.30643699 -0.087119356 0.25026581
0.30643699 0.019650185 0.25985792
0.1742539 0.088451304 0.25681084
0.021110129 0.096998066 0.25613773
0.061245788 0.095297888 0.25292611
-0.30643699 0.12279546 0.25415337
-0.30643699 -0.20431426 0.26862344
0.0053607263 0.089692838 0.26133099
-0.017121937 0.093020163 0.26133099
-0.30643699 0.1631019 0.26713556
-0.30643699 0.19263406 0.26242152
-0.14236175 0.1979457 0.26265815
-0.16751063 0.2485815 0.26163325
-0.28579801 0.25934201 0.26225996
-0.26245624 0.25934201 0.26919547
-0.25271189 0.25934201 0.26653406
-0.19836926 -0.25934201 0.27782062
-0.037749685 -0.25934201 0.2793673
0.13129589 -0.25934201 0.27376029
0.30643699 0.014683299 0.27516463
0.30643696 0.088663049 0.27722964
-0.012596775 0.0997473 0.27944812
0.017412856 0.0997473 0.27539921
-0.30643699 0.12741593 0.27272165
-0.17626458 -0.25934201 0.28058216
-0.069546513 -0.25934201 0.28018847
0.026582303 -0.25934201 0.28067586
0.30643699 -0.20717384 0.28597328
-0.30643699 -0.11577606 0.28437579
0.30643699 -0.11655454 0.28502557
0.20909575 0.0997473 0.288872
-0.13571833 0.18456951 0.28149816
-0.23027796 0.25934201 0.28243381
-0.24608792 -0.2577228 0.29805696
-0.22019604 -0.25934201 0.29746664
-0.11221068 -0.25754911 0.29805699
-0.092814393 -0.25934201 0.29158184
-0.045185201 -0.25934201 0.29644486
0.042133659 -0.25934201 0.29682124
0.070041269 -0.25934201 0.29346302
0.18475814 -0.25231981 0.29805699
-0.30643699 -0.24768916 0.29402396
0.095963404 -0.24043898 0.29805702
-0.27439249 -0.23182692 0.29805699
-0.2007598 -0.23187904 0.29805702
-0.023766384 -0.23061901 0.29805699
0.1375412 -0.23907003 0.29805699
0.25668755 -0.23474684 0.29805702
0.027391404 -0.22840431 0.29805699
0.1157169 -0.22499606 0.29805699
0.12643498 -0.22524312 0.29805699
0.14333159 -0.22939163 0.29805699
0.20556903 -0.22744516 0.29805699
-0.30643699 -0.21418712 0.29621351
-0.1481325 -0.21218416 0.29805702
0.16455552 -0.21478879 0.29805702
0.19977283 -0.21911372 0.29805699
-0.23743835 -0.20759624 0.29805699
-0.17178506 -0.20758441 0.29805699
0.01900579 -0.20986894 0.29805699
0.10042243 -0.20950502 0.29805699
0.21630155 -0.20302056 0.29805699
-0.30643699 -0.19268782 0.29031703
-0.24316433 -0.19268668 0.29805702
-0.25733671 -0.18796796 0.29805702
-0.25859413 -0.17843924 0.29805699
0.033322006 -0.17319462 0.29805699
0.25293654 -0.17430955 0.29805699
-0.30643702 -0.16753899 0.29579425
-0.23700823 -0.16471657 0.29805699
-0.18356268 -0.16172846 0.29805696
-0.14594993 -0.16013636 0.29805699
0.051410846 -0.1683028 0.29805699
0.10554507 -0.16418517 0.29805699
0.26965183 -0.16854662 0.29805696
-0.26797643 -0.15147802 0.29805702
0.20230813 -0.15905237 0.29805699
0.27814588 -0.15738648 0.29805696
-0.14832631 -0.14583533 0.29805699
0.20559886 -0.14391544 0.29805699
-0.15551332 -0.13900372 0.29805699
0.066895142 -0.13467446 0.29805699
0.27780417 -0.1373207 0.29805699
-0.22558436 -0.12275679 0.29805699
0.041903779 -0.12682547 0.29805699
0.10430084 -0.11251856 0.29805699
-0.19485325 -0.10289668 0.29805699
-0.30181128 -0.098768078 0.29805699
-0.21397948 -0.09648408 0.29805699
-0.16780551 -0.096666433 0.29805699
-0.10639264 -0.094276644 0.29805699
0.018203959 -0.096261866 0.29805699
-0.22237878 -0.085922629 0.29805699
-0.25283539 -0.076225683 0.29805699
-0.10174571 -0.070720613 0.29805696
0.018664833 -0.072029725 0.29805699
0.032651454 -0.075296506 0.29805702
0.28548917 -0.075722672 0.29805699
-0.16293576 -0.068877831 0.29805699
-0.14726768 -0.065397009 0.29805699
-0.01219444 -0.06210101 0.29805699
0.038503684 -0.055838857 0.29805699
0.043975949 -0.056940883 0.29805699
-0.096023716 -0.047010034 0.29805699
-0.034255482 -0.048547089 0.29805699
0.27727425 -0.041976187 0.29805702
-0.16865686 -0.038934331 0.29805699
0.023383237 -0.039811745 0.29805699
0.046051763 -0.035287518 0.29805699
0.20217605 -0.034962595 0.29805699
0.21160933 -0.034174263 0.29805699
0.28287789 -0.037984792 0.29805699
-0.23943649 -0.02825468 0.29805699
-0.0056079123 -0.025354192 0.29805699
0.21049628 -0.02784778 0.29805699
-0.24725825 -0.016851313 0.29805696
-0.17847849 -0.016463526 0.29805699
0.045030449 -0.015248533 0.29805699
0.12995976 -0.012595473 0.29805699
-0.20234579 -0.0036548823 0.29805699
0.003226079 -0.0073212311 0.29805699
0.095757924 -0.0051112212 0.29805699
0.20329162 -0.00011327863 0.29805699
0.21231183 -0.0092503987 0.29805699
-0.095688358 0.0029395428 0.29805699
0.040473178 0.0098554092 0.29805696
0.22310652 0.0017808191 0.29805699
-0.21513267 0.017513804 0.29805699
-0.11579325 0.013259108 0.29805699
0.035132758 0.015010256 0.29805699
0.081100404 0.012994647 0.29805696
0.11926039 0.016377259 0.29805699
0.06729193 0.024390157 0.29805699
0.074869655 0.029416144 0.29805699
-0.23088476 0.039685942 0.29805699
-0.11012657 0.033735428 0.29805699
0.041015707 0.031646717 0.29805702
0.11069918 0.030945113 0.29805699
0.29292035 0.036588352 0.29805699
-0.30643699 0.04808183 0.29526359
-0.21925208 0.05069866 0.29805699
-0.16641736 0.053748354 0.29805699
-0.096126735 0.059485741 0.29805699
0.24189231 0.052718677 0.29805699
0.27437618 0.058398128 0.29805699
0.29369661 0.050901067 0.29805702
-0.16241962 0.066753134 0.29805699
-0.070050076 0.066400483 0.29805699
-0.22533372 0.079412363 0.29805699
-0.19971529 0.07428477 0.29805699
0.080315895 0.078232758 0.29805699
0.19526798 0.074401572 0.29805699
-0.30643699 0.089124709 0.29079738
-0.22744784 0.083077006 0.29805699
0.18781772 0.089586802 0.29805699
-0.22678784 0.09817303 0.29805699
0.055392396 0.098976284 0.29567826
0.069158882 0.0997473 0.29371241
0.08545278 0.0997473 0.29685605
0.14136349 0.0997473 0.2907306
-0.17973526 0.10217348 0.29805699
-0.30643699 0.11909398 0.29074204
-0.23143114 0.11449578 0.29805699
-0.30339268 0.12780923 0.29805699
-0.24816099 0.12132942 0.29805699
-0.22985223 0.12463647 0.29805699
-0.20717059 0.12086721 0.29805699
-0.1217229 0.13104427 0.29805699
-0.19563584 0.15012959 0.29805699
-0.29123926 0.18294427 0.29805699
-0.25673828 0.18659541 0.29805699
-0.20164685 0.18299602 0.29805699
-0.29783681 0.19917242 0.29805699
-0.30128226 0.2044187 0.29805699
-0.29137456 0.20465541 0.29805699
-0.26491702 0.20074993 0.29805699
-0.16873717 0.20094936 0.29805699
-0.28458428 0.21103841 0.29805699
-0.25055918 0.21848488 0.29805699
-0.18690549 0.21607324 0.29805699
-0.27226272 0.22610468 0.29805699
-0.23368956 0.24213976 0.29805699
-0.19316362 0.24460155 0.29805699
-0.28634852 0.25929201 0.29805699
-0.18127589 0.25848028 0.29805699
