# .PCD v0.7 - Point Cloud Data file format
VERSION 0.7
FIELDS x y z
SIZE 4 4 4
TYPE F F F
COUNT 1 1 1
WIDTH 981
HEIGHT 1
VIEWPOINT 0 0 0 1 0 0 0
POINTS 981
DATA ascii
0.050655104 -0.34214252 -0.25263599
0.10917576 -0.3380045 -0.25263599
-0.15495498 -0.32471925 -0.25263599
0.19423351 -0.32070115 -0.25263599
-0.20605525 -0.31665674 -0.25263599
-0.080943361 -0.31342468 -0.25263599
0.1390352 -0.31178403 -0.25263599
0.16120943 -0.31806669 -0.25263599
0.010672688 -0.3029446 -0.25263599
-0.13176177 -0.2966361 -0.25263599
-0.044170834 -0.2910597 -0.25263599
0.11796517 -0.29584199 -0.25263599
-0.18890703 -0.28034616 -0.25263599
0.13324982 -0.2848545 -0.25263599
0.16264407 -0.27609074 -0.25263599
0.17200682 -0.27527893 -0.25263599
0.18525268 -0.27501848 -0.25263599
-0.036371052 -0.26002806 -0.25263599
0.0029122196 -0.26464429 -0.25263599
0.16217886 -0.26937106 -0.25263599
0.17038892 -0.26624045 -0.25263599
-0.15130977 -0.25108227 -0.25263599
0.07693211 -0.25267419 -0.25263599
-0.061188173 -0.24377944 -0.25263599
-0.14142703 -0.23837821 -0.25263599
-0.12996866 -0.23142299 -0.25263599
-0.066024452 -0.23915464 -0.25263599
-0.01007669 -0.23742723 -0.25263599
0.040806599 -0.23217483 -0.25263599
0.12740555 -0.23678039 -0.25263599
0.059593301 -0.22369471 -0.25263599
0.15206636 -0.22055398 -0.25263599
0.16993366 -0.22801255 -0.25263602
0.19980784 -0.22909597 -0.25263599
-0.22819698 -0.18097556 -0.25263599
0.15005586 -0.18024676 -0.25263599
0.1878739 -0.18250024 -0.25263599
0.075606242 -0.16786033 -0.25263599
0.12159131 -0.16136451 -0.25263599
-0.14786655 -0.15697739 -0.25263599
-0.12714586 -0.1506411 -0.25263599
-0.034628682 -0.15056591 -0.25263599
-0.1110075 -0.14618476 -0.25263599
0.03046285 -0.14142001 -0.25263599
0.081590667 -0.149773 -0.25263599
0.059536804 -0.13973479 -0.25263599
-0.017027702 -0.12206684 -0.25263599
-0.031655245 -0.11830164 -0.25263599
0.060493566 -0.10423726 -0.25263599
-0.072178267 -0.096536517 -0.25263599
0.02090954 -0.084683731 -0.25263599
-0.22960754 -0.072255239 -0.25263596
-0.015529996 -0.076403931 -0.25263599
0.035662584 -0.075777866 -0.25263599
0.16160169 -0.079087913 -0.25263599
0.17219383 -0.077505037 -0.25263599
0.054083407 -0.060860258 -0.25263599
0.11827412 -0.061608192 -0.25263599
-0.16068812 -0.053501323 -0.25263599
-0.066373326 -0.051188216 -0.25263599
-0.042612076 -0.056264944 -0.25263599
-0.0034879372 -0.057960033 -0.25263599
0.073990226 -0.058582515 -0.25263599
0.01600422 -0.042059526 -0.25263599
-0.020229319 -0.031937908 -0.25263599
0.054343082 -0.031901911 -0.25263599
-0.051317256 -0.024077997 -0.25263599
-0.017967463 -0.02178055 -0.25263599
0.026725635 -0.013356194 -0.25263599
0.033666886 -0.016429052 -0.25263599
0.15931378 -0.01856187 -0.25263599
0.16110206 -0.01905264 -0.25263599
-0.11227422 -0.0089474618 -0.25263599
-0.013208464 -0.0086102337 -0.25263599
0.018633222 -0.00592684 -0.25263599
-0.20655482 0.012677833 -0.25263599
-0.098713234 0.028167527 -0.25263599
-0.014936637 0.022400677 -0.25263599
0.022709586 0.035343051 -0.25263599
0.11170885 0.031435192 -0.25263599
-0.090942249 0.040573761 -0.25263599
-0.026966624 0.043477729 -0.25263599
0.027534716 0.043080501 -0.25263599
0.17194185 0.048403531 -0.25263599
-0.0011100378 0.050730303 -0.25263599
0.033093214 0.055065647 -0.25263599
-0.21573743 0.063244745 -0.25263599
-0.16643909 0.072002485 -0.25263596
-0.048924476 0.073204003 -0.25263599
-0.057880022 0.080792993 -0.25263599
0.030836679 0.083253086 -0.25263599
0.144886 0.085749753 -0.25263599
-0.16009736 0.094735563 -0.25263596
-0.0031109154 0.095506877 -0.25263599
-0.15310504 0.10893366 -0.25263602
-0.15396281 0.11714286 -0.25263599
-0.11339141 0.11544496 -0.25263599
-0.22986001 0.12100615 -0.25200462
-0.10579639 0.13822162 -0.25263599
-0.074700676 0.13866344 -0.25263599
-0.0080906339 0.13455297 -0.25263599
0.066906959 0.1338225 -0.25263599
-0.20600642 0.14448915 -0.25263599
0.0016347989 0.14606334 -0.25263599
-0.16693291 0.15460563 -0.25263599
-0.12601213 0.15470846 -0.25263599
-0.010794554 0.15747392 -0.25263599
-0.1039821 0.16390914 -0.25263599
0.1466002 0.16421272 -0.25263599
-0.055839468 0.17238373 -0.25263599
-0.02207496 0.17715415 -0.25263599
0.18071362 0.17633732 -0.25263596
-0.094252057 0.18807195 -0.25263599
-0.023137577 0.18558842 -0.25263599
0.08119835 0.19939739 -0.25263599
-0.17690255 0.2117738 -0.25263599
0.10830829 0.21607405 -0.25263599
0.19493932 0.21782205 -0.25263599
-0.13135663 0.22179233 -0.25263599
0.082032055 0.239749 -0.25263599
0.13244002 0.23010589 -0.25263599
-0.14930901 0.24549536 -0.25263599
0.12473518 0.2544792 -0.25263599
0.16927932 0.25830981 -0.25263599
0.17336001 0.2506952 -0.25263599
-0.034610987 0.26259762 -0.25263599
0.1415278 0.26248437 -0.25263599
0.17842922 0.26297054 -0.25263599
0.19911191 0.26232541 -0.25263599
-0.14232063 0.27717441 -0.25263599
-0.16221306 0.28035158 -0.25263599
-0.1362292 0.28899938 -0.25263599
-0.11399265 0.28612256 -0.25263599
-0.092085153 0.28924003 -0.25263599
0.037893236 0.2808525 -0.25263599
-0.22396511 0.29264015 -0.25263599
-0.14888781 0.29357472 -0.25263599
-0.022734419 0.29546279 -0.25263599
-0.11870386 0.30430299 -0.25263599
0.13813947 0.30230269 -0.25263599
0.19040501 0.30220011 -0.25263599
-0.15151373 0.31969702 -0.25263599
-0.074938528 0.31915274 -0.25263602
-0.12116811 0.32632089 -0.25263599
0.15666524 0.32146129 -0.25263599
-0.22601359 0.33570027 -0.25263599
0.032560013 0.33729675 -0.25263599
-0.14144747 0.34253997 -0.25263599
-0.11282219 0.34768906 -0.25263599
0.14856403 0.34718508 -0.25263599
0.067742988 0.35283375 -0.25263599
0.12789345 0.3536799 -0.25263599
0.16269189 0.35317561 -0.25263599
-0.18588045 -0.361211 -0.2487203
-0.015368594 -0.35049701 -0.24996431
0.067015156 -0.35049701 -0.24108975
0.20503899 -0.2093063 -0.24886985
-0.22985999 -0.1619032 -0.24795702
0.20503899 -0.092124268 -0.24003506
-0.22985999 0.27069974 -0.24492259
-0.22985999 0.30825746 -0.24477889
-0.22985999 0.32480431 -0.24179271
0.02163798 0.361211 -0.2467643
0.054242574 0.36120996 -0.24463502
-0.082972698 -0.35049701 -0.23011775
-0.22986001 -0.30466998 -0.23217449
0.20503899 -0.24335301 -0.23695958
0.20503899 -0.1968254 -0.23700449
-0.22986001 -0.18711226 -0.23330088
0.20503899 -0.027718309 -0.23361625
-0.22985998 0.11484724 -0.23784553
-0.22985999 0.16870284 -0.2364518
-0.22986001 0.28080699 -0.23738809
0.15392935 0.35958201 -0.2350523
-0.060987148 -0.35049701 -0.22244292
0.13012674 -0.35049701 -0.22266701
-0.22985999 -0.010499395 -0.22559644
0.20503899 0.30796236 -0.22410142
-0.22985999 0.34280503 -0.22264335
-0.12703918 0.35958201 -0.22241272
-0.076654144 0.35958201 -0.22315511
-0.17632273 -0.35049701 -0.21710616
-0.031024799 -0.35049701 -0.21255654
-0.02248924 -0.35049701 -0.21391454
0.14918381 -0.35049701 -0.219152
0.20503899 -0.34401661 -0.21401577
-0.22986001 -0.25706434 -0.21306866
0.20503899 -0.17668015 -0.21603197
0.20503899 -0.091566235 -0.21531531
0.20503899 -0.072324984 -0.21860996
-0.22986001 0.078411728 -0.21893671
0.20503899 0.23202999 -0.21627226
0.20503899 0.25158593 -0.21738933
-0.22985998 0.31940845 -0.21792485
0.085484408 0.35958201 -0.21191838
-0.19361708 -0.35049701 -0.20727015
-0.096254557 -0.35049701 -0.20339823
0.0011862069 -0.35049701 -0.20736454
-0.22985999 -0.31550372 -0.20993888
0.20503899 -0.2414481 -0.2022725
0.20503899 -0.19535708 -0.20270324
0.20503899 -0.13121249 -0.20353168
-0.22986001 -0.1182995 -0.20124261
0.20503899 -0.10882457 -0.20166367
-0.22985999 0.054617867 -0.20288493
-0.22985999 0.12508586 -0.20052183
0.20503899 0.13896494 -0.20939094
-0.22985999 0.1768856 -0.20895158
0.20503899 0.31661543 -0.20241527
0.017452121 -0.35049701 -0.19594747
-0.22985999 -0.33270586 -0.19294654
0.20503899 -0.17513487 -0.19605415
0.20503899 -0.070417404 -0.19130194
-0.19453445 0.1219134 -0.19711401
-0.19581744 0.17477539 -0.19711401
-0.1879314 0.18999135 -0.19711401
-0.21500033 0.23560616 -0.19711401
-0.18842302 0.26885763 -0.19711401
0.20668937 0.27845499 -0.19962016
-0.22647184 0.30423495 -0.19711399
0.091178164 0.35958201 -0.19564097
0.20503899 0.35208315 -0.19516642
0.10509096 -0.35049704 -0.18781544
0.20503899 -0.18829358 -0.18323795
-0.22985999 -0.12809511 -0.18221423
0.20503899 -0.065857768 -0.18804139
-0.22986001 0.0040632649 -0.18892579
0.20503899 0.25794896 -0.18951444
0.20503899 0.32205296 -0.18844387
-0.19772865 0.35958201 -0.18696119
-0.11106116 0.35958201 -0.18288508
0.15007299 0.35958201 -0.18593378
0.02094572 -0.35049701 -0.17973217
-0.22985999 -0.28905794 -0.17271687
0.20503899 -0.0913634 -0.17546365
0.20648924 -0.058591351 -0.17412165
-0.22985998 -0.037313391 -0.17720394
-0.22986001 0.055472843 -0.17605689
-0.22985999 0.34597391 -0.1729248
0.12625252 0.35958201 -0.17715846
0.20285265 0.361211 -0.17282169
-0.14847144 -0.35049701 -0.1657026
0.028164998 -0.35049701 -0.16611972
0.20503899 -0.22673652 -0.16805303
0.20503899 -0.1421918 -0.16330618
0.21931589 -0.012294726 -0.16815272
-0.22985999 0.092500068 -0.16392203
-0.187024 0.15621921 -0.16736081
-0.187024 0.19841644 -0.16360787
0.20503899 0.26182169 -0.16111621
-0.17230518 -0.35049701 -0.1591792
0.083961308 -0.35049701 -0.15229262
-0.22986001 0.060409341 -0.15508562
-0.19301894 0.109595 -0.15724981
0.20519307 0.28518966 -0.156518
-0.21780798 0.31297952 -0.15310016
-0.19015238 0.35958204 -0.15833732
0.048298866 0.35958201 -0.15237279
0.10996412 0.35958201 -0.15602703
-0.22378579 0.361211 -0.15186763
0.11277221 -0.35049701 -0.14130239
0.20503899 -0.32048532 -0.14658077
-0.22985999 -0.17515391 -0.14909512
0.20937017 -0.13933605 -0.14485292
0.236011 -0.016872942 -0.14514516
0.236011 -0.0048276442 -0.14527038
0.21147262 0.057200447 -0.14082745
0.20503899 0.062616371 -0.14545603
0.20503899 0.20430359 -0.14164113
-0.22198378 0.31442213 -0.14543191
-0.22985999 0.35118827 -0.14571473
-0.033267058 0.35958201 -0.14348672
0.10202833 0.35958201 -0.14718653
0.20446119 0.361211 -0.14646569
-0.20634517 -0.35049701 -0.13721755
-0.035728686 -0.35049701 -0.13604522
0.21571478 -0.15137711 -0.13214861
0.23309588 -0.062464219 -0.13086557
-0.22985998 -0.051492132 -0.13642611
0.23282222 -0.025125314 -0.13099936
-0.22985999 0.035738863 -0.13968286
0.236011 0.042975411 -0.13411188
-0.22986001 0.055173658 -0.13078728
-0.22985998 0.069691762 -0.13661726
-0.19173206 0.109595 -0.13801664
-0.187024 0.11617133 -0.13537396
-0.187024 0.14376953 -0.13486367
0.20503899 0.21107602 -0.13200209
-0.20716673 0.22374786 -0.13029842
0.20503899 0.22866669 -0.13139586
0.20503899 0.34293291 -0.13806376
-0.21035868 0.35958201 -0.1370988
-0.17857717 -0.35049701 -0.12214631
-0.11585767 -0.35049701 -0.12268807
0.20503899 -0.31997147 -0.12520893
-0.22985999 -0.30523872 -0.12995444
0.20503899 -0.29033667 -0.12729418
-0.22985998 -0.27015051 -0.1235726
0.236011 0.04166 -0.12225853
0.20503899 0.16526946 -0.12790808
0.20503899 0.26487535 -0.12227746
-0.20701344 0.35958201 -0.12354463
-0.14404365 0.35958201 -0.1254963
-0.036397465 0.35958201 -0.12515348
-0.18522713 -0.35049701 -0.11796573
0.16734928 -0.35049701 -0.11195563
0.18465708 -0.35049701 -0.11809967
0.20503899 -0.18813249 -0.11972841
-0.22985999 -0.17805573 -0.11524786
0.23369768 -0.16089514 -0.1169619
0.20967145 -0.042089231 -0.11002411
0.21295635 -0.028846098 -0.11213659
0.21668008 -0.017763808 -0.11384778
0.22168848 -0.005781224 -0.11490327
-0.22986001 0.093642406 -0.11470706
-0.22565159 0.109595 -0.11318147
0.20503899 0.13667616 -0.11114944
0.20503899 0.20493951 -0.11984832
-0.187024 0.28838179 -0.11579791
0.024226587 0.35958201 -0.11199922
0.085334539 0.35958201 -0.1100065
0.094147205 0.35958201 -0.11219484
-0.20889547 -0.35049701 -0.10959527
-0.084934227 -0.35049701 -0.10842824
0.10346295 -0.35049701 -0.10501587
-0.22985999 -0.34316912 -0.10942341
0.20503899 -0.31843522 -0.10702117
-0.22985999 -0.30741218 -0.10274864
-0.22985999 -0.1855818 -0.10489702
-0.22985999 -0.17693858 -0.10448153
0.21583624 -0.098437846 -0.10256267
0.20503899 0.15031399 -0.10181505
-0.210923 0.24577361 -0.10710876
-0.22985999 0.32534197 -0.10590781
-0.22986001 0.33925861 -0.10466003
-0.22954002 0.35987794 -0.10476743
-0.20015511 0.35958201 -0.1079096
-0.016947247 -0.35049701 -0.090859979
-0.22985999 -0.3387976 -0.090781905
-0.22985999 -0.23739529 -0.090591095
0.19777173 -0.027724523 -0.097293228
-0.22985998 -0.0056563169 -0.09004654
-0.22985999 0.029919691 -0.098119132
0.23323846 0.053464077 -0.09083005
0.20503899 0.20538518 -0.091451123
-0.210923 0.24306764 -0.098569639
-0.19873431 0.26060545 -0.093595006
0.20499796 0.30190331 -0.091824785
-0.11385864 0.35958201 -0.098159723
-0.034336016 0.35958201 -0.093673319
0.11655018 0.35958201 -0.096716672
-0.13405576 -0.35049701 -0.083311088
-0.01814688 -0.35049701 -0.080497891
0.20503899 -0.33214694 -0.086145401
0.20503899 -0.2177397 -0.082644492
-0.22985999 -0.17575848 -0.080117926
0.18628511 -0.038644299 -0.087205738
0.212543 0.027441846 -0.085327782
-0.22986001 0.089189723 -0.080899581
0.236011 0.08307565 -0.086007938
-0.22586998 0.10959501 -0.087296531
-0.210923 0.17034242 -0.085719019
0.20503899 0.22587056 -0.086215273
-0.187024 0.26567996 -0.080621079
-0.10727506 -0.35049701 -0.07527189
0.12883398 -0.35049701 -0.075270981
0.17859827 -0.35049701 -0.074445039
0.22876884 -0.19265829 -0.075886205
-0.22986001 -0.099082634 -0.07898584
0.17995456 -0.077291645 -0.07632602
-0.22795388 0.109595 -0.07441996
-0.20292939 0.109595 -0.078353651
-0.210923 0.16703382 -0.074958131
-0.210923 0.24158712 -0.074505568
0.20503899 0.24887486 -0.074135944
-0.210923 0.25860661 -0.076460078
-0.17320704 0.35958201 -0.07974115
0.11996368 0.35958201 -0.079605505
0.1535235 0.35958201 -0.070641316
0.078361243 -0.35049701 -0.061647512
0.20503899 -0.29120713 -0.060774475
-0.22986001 -0.21191229 -0.062839828
-0.22985999 -0.066675566 -0.065155506
-0.22986001 -0.052275591 -0.064381346
-0.22985999 0.033941131 -0.061983459
-0.21092299 0.18615606 -0.064664572
-0.210923 0.20997068 -0.06228295
0.20503899 0.21314847 -0.067062132
-0.22484179 0.22550513 -0.06906423
0.20503899 0.26610476 -0.066300094
-0.22986001 0.31850111 -0.069564119
-0.21374154 0.35958201 -0.066211566
-0.17116804 0.35958201 -0.062723875
0.18261787 0.35958201 -0.069618769
-0.22985999 -0.33093375 -0.05375129
0.20503899 -0.26599371 -0.05112638
0.21492009 -0.1466125 -0.050439402
0.19502828 -0.12111807 -0.056595497
-0.22985998 -0.011642374 -0.053674616
0.22682372 0.06996499 -0.05280821
-0.22586969 0.109595 -0.056876272
-0.19370371 0.109595 -0.051249772
-0.22986001 0.32996055 -0.051412068
0.12005239 0.35958201 -0.050517663
0.17420381 0.35958201 -0.057377391
0.054382186 -0.35049701 -0.0447537
0.065573491 -0.35049701 -0.045041244
0.14687251 -0.35049701 -0.043522909
0.20503899 -0.24624231 -0.047456931
-0.22985999 -0.21997805 -0.045620739
0.19680072 -0.13078828 -0.04385335
-0.187024 0.1487188 -0.045795485
-0.21092302 0.19233865 -0.044259254
0.008769487 0.35958201 -0.045046534
-0.19945319 -0.35049701 -0.030363388
-0.18690257 -0.35049701 -0.036163189
0.074966453 -0.35049701 -0.035391957
0.17309923 -0.35049701 -0.032093868
0.20642161 -0.14210841 -0.038749814
-0.22985999 -0.083256438 -0.036268324
-0.22985998 0.045218874 -0.03548152
0.20503899 0.15266265 -0.033557698
0.20503899 0.2457317 -0.0315786
-0.187024 0.27455834 -0.035891756
-0.21036555 0.35958201 -0.036215492
-0.1410781 0.35958201 -0.036445323
0.1645752 0.35958201 -0.036234118
-0.16799292 -0.35049701 -0.020000271
-0.057129011 -0.35049701 -0.021469051
0.056388743 -0.35049701 -0.023484699
-0.22985999 -0.3115319 -0.020003654
0.20503899 -0.2569114 -0.025641583
0.22063436 -0.2104876 -0.02802117
0.22244884 0.072999015 -0.026949517
-0.22986001 0.099042341 -0.027550064
0.236011 0.10113478 -0.0234433
0.20503899 0.21399917 -0.02009581
-0.19480371 0.30503255 -0.024322249
-0.12406097 0.35958201 -0.029288951
0.11059608 0.35958201 -0.022309341
-0.12119946 -0.35049701 -0.019097753
-0.11661802 -0.35049701 -0.014386643
0.20503899 -0.23365335 -0.015328007
0.20503899 -0.22482026 -0.014114047
-0.22985999 -0.1891958 -0.011345178
0.18527409 -0.12746592 -0.01275334
0.179875 -0.10320825 -0.015590149
-0.22985998 0.034017634 -0.015434373
-0.18840906 0.109595 -0.012397476
-0.187024 0.11347258 -0.01909095
0.236011 0.11563783 -0.019305594
-0.187024 0.19822426 -0.016925082
-0.187024 0.29854909 -0.019195825
-0.20778812 0.3095181 -0.014397688
0.12318201 0.35958201 -0.013277322
0.1488336 0.35958201 -0.017562546
0.16197124 0.35958201 -0.018950202
-0.22719929 -0.35049701 -0.0071033463
0.072480634 -0.35049701 -0.0070114248
-0.22985999 -0.21921714 -0.0029435125
0.179875 -0.013274481 -0.0039249817
-0.22986001 0.024850085 -0.0038519986
-0.22985998 0.32661819 -0.0090001374
0.20503899 0.34208447 -0.00026050117
-0.17473365 0.35958201 -0.0031846464
0.11796446 0.35958201 -0.001910679
-0.094683863 -0.35049701 0.0045343693
0.08202149 -0.35049701 0.0058759749
0.1084297 -0.35049701 0.0018820316
0.13592926 -0.35049701 0.0093924552
0.18865237 0.033203453 0.0036484799
-0.22337183 0.31490159 0.0096616596
-0.15481547 0.35958201 0.0057666302
-0.069301605 0.35958201 0.0054204017
0.078726247 0.35958201 0.0045299008
0.11046986 0.35958201 0.0095809102
-0.19346894 -0.35049701 0.018909752
-0.011415906 -0.35049701 0.01746764
0.063176543 -0.35049701 0.012676232
0.16481495 -0.35049701 0.015773825
0.20503899 -0.3419078 0.016720019
-0.22985999 -0.32029748 0.011908285
-0.22986001 -0.31914407 0.01618322
0.20503899 -0.30693364 0.016064942
0.20240356 -0.14357597 0.012330551
0.19698216 -0.1383473 0.010892281
0.18187474 -0.12229854 0.015383945
-0.22986001 -0.09224011 0.010038616
-0.22985998 0.025502404 0.013771269
0.22099009 0.073173575 0.011849277
-0.22024924 0.109595 0.014468335
0.20737904 0.13140568 0.012128105
0.20503899 0.29251534 0.01129163
-0.12162302 0.35958201 0.011044689
-0.13544919 -0.35049701 0.025530383
0.20503899 -0.29307228 0.027679194
0.20503899 -0.25692981 0.028969619
0.20723335 -0.14678538 0.021448344
0.179875 -0.014274788 0.02783123
-0.187024 0.18957628 0.02304462
-0.187024 0.19417092 0.026237547
0.20503899 0.23260069 0.024847127
-0.20763333 0.30946463 0.020000294
0.20082273 0.3056432 0.023049301
0.0077835545 -0.35049701 0.032324791
0.096264459 -0.35049701 0.032312438
0.13797638 -0.35049701 0.032420538
-0.22986001 -0.33222693 0.036502317
0.20503899 -0.31531435 0.030374289
0.20503899 -0.29363915 0.036995891
0.20503899 -0.24604836 0.030689472
0.236011 -0.17928037 0.030237172
0.18239559 -0.11731961 0.030467734
-0.22985999 -0.00064509083 0.033058695
0.20503899 0.23425961 0.036774501
-0.187024 0.26845878 0.03419891
-0.22019702 0.35958201 0.032861099
-0.1627588 0.35958201 0.035787996
-0.039795738 0.35958201 0.033191141
-0.0029492006 0.35958201 0.035746865
-0.18844819 -0.35049701 0.042852461
-0.22985998 -0.30849034 0.049443189
-0.22985999 -0.05492425 0.040891543
-0.22986001 0.064132646 0.042132221
-0.20781922 0.18745147 0.04410284
0.20503899 0.30217338 0.04154215
-0.2144872 0.31183234 0.047476564
-0.079424262 0.35958201 0.040824257
0.10895982 0.35958201 0.044229835
0.029211108 -0.35049701 0.059193887
0.13308299 -0.35049701 0.054789931
0.20503899 -0.24050295 0.05567259
-0.22985999 -0.08949694 0.054819737
-0.22986001 -0.054288901 0.053719752
0.179875 -0.03093804 0.055602543
0.20822935 0.04412875 0.051021554
-0.21253422 0.109595 0.059612844
-0.187024 0.14014956 0.057116896
0.20503899 0.14485563 0.053842708
0.20503899 0.2343649 0.055911183
0.20503899 0.24725312 0.054357246
-0.187024 0.28411353 0.056804016
0.20503899 0.28395188 0.057089854
-0.21840006 0.31318408 0.056595027
-0.22954002 0.356857 0.050437301
0.076438189 0.35958201 0.056124263
0.11894524 0.35958201 0.055570759
-0.22026554 -0.35049701 0.06067466
-0.01218533 -0.35049701 0.06836538
-0.22985999 -0.22145654 0.066716835
0.23258977 -0.15748292 0.064477935
-0.22985998 -0.1342465 0.066245563
-0.22986001 -0.12237686 0.067376271
-0.22985998 -0.053919256 0.06990771
0.20328839 0.023412313 0.068756163
0.21555182 0.044734068 0.066303581
0.20503899 0.22961567 0.064506374
0.20503899 0.24881461 0.062599316
-0.065133229 0.35958201 0.061955258
-0.22606897 -0.35049701 0.072336063
0.11604164 -0.35049701 0.070900097
0.13871589 -0.35049701 0.071874402
0.14854139 -0.35049701 0.079683371
-0.22985999 -0.24249697 0.074174725
0.179875 -0.04013047 0.071189627
-0.22985999 -0.014703501 0.070394903
0.20973752 0.02340192 0.079313733
-0.22985998 0.061750822 0.075687006
-0.19878639 0.20713638 0.076843247
-0.210923 0.24211268 0.073627584
0.20370202 0.25538501 0.075238712
0.06030954 0.35958201 0.079854622
-0.00082309917 -0.35049701 0.083610743
0.010363299 -0.35049701 0.089918137
0.16567899 -0.35049701 0.085906699
0.23155841 -0.18597715 0.08652579
0.195235 -0.074711777 0.085030206
-0.187024 0.14861557 0.08877638
-0.18972008 0.21914527 0.080818601
-0.19078577 0.22313549 0.088131733
-0.22985998 0.35040489 0.089277707
-0.05488541 0.35958201 0.089121751
0.15685961 0.35958201 0.085645266
0.20503899 -0.32656887 0.092406616
-0.22985998 -0.25309482 0.094046757
0.20503899 -0.22924981 0.09522973
0.23361635 -0.13490029 0.095898814
-0.22985998 -0.11156324 0.098044872
0.21117282 -0.097208679 0.094463728
0.20665731 -0.077071279 0.097231731
-0.22985999 0.045889057 0.090771683
0.20503899 0.10452375 0.098360904
-0.187024 0.1210397 0.092402093
-0.20642968 0.19476986 0.091822103
0.20503899 0.25415561 0.090195268
0.19425544 0.266635 0.092232823
0.19615728 0.2928701 0.096926384
-0.22985999 0.31825274 0.090582311
-0.22986001 0.34033442 0.096871145
-0.10899415 0.35958201 0.099582523
-0.03789445 0.35958201 0.095842913
0.0092526861 0.35958201 0.090475321
0.089024082 0.35958201 0.093114428
-0.2183778 -0.35049701 0.10594764
-0.14251935 -0.35049701 0.10182533
0.041377898 -0.35049701 0.10990801
-0.22985999 -0.19403617 0.10900216
0.214294 -0.18020304 0.10536271
-0.22985999 -0.12895361 0.10044127
0.23140115 -0.023544954 0.10348789
0.23137966 -0.018202918 0.10366762
0.23246685 0.037518676 0.10359479
-0.2269389 0.109595 0.1034074
-0.187024 0.1152676 0.10257345
0.20503899 0.17713425 0.10494843
0.20503899 0.19599177 0.10507068
-0.21340993 0.22247133 0.10340388
-0.210923 0.23325981 0.10940271
-0.187024 0.27916569 0.10426793
0.2024876 0.34879601 0.10412282
-0.16503976 0.35958201 0.105025
-0.14356667 0.35958201 0.10657729
0.034886923 0.35958201 0.10508008
0.040488929 -0.35049701 0.11392123
-0.22986001 -0.28128406 0.11690801
0.20503899 -0.28176761 0.11407452
0.20503899 -0.24439798 0.11628278
-0.22985999 -0.087519884 0.115899
0.22435901 -0.072942816 0.11555784
-0.22985999 -0.03850086 0.11128059
0.22651441 0.014454508 0.11002827
-0.22985998 0.079357535 0.11248015
-0.19919276 0.109595 0.11433062
0.20503899 0.20976852 0.11572428
0.18156099 0.26879904 0.11614755
0.20503899 0.33725339 0.11449724
-0.19190234 -0.35049701 0.12798806
-0.060289923 -0.35049701 0.12291247
0.1338374 -0.35049701 0.12744604
-0.22986001 -0.34470859 0.1205011
0.20503899 -0.30300891 0.12689908
-0.22986001 -0.28378314 0.12124356
-0.22985999 -0.19105633 0.12139386
-0.22985998 -0.18072337 0.12844855
0.236011 -0.11736944 0.12040902
0.236011 -0.072265126 0.12407877
-0.22985998 -0.021904681 0.12298314
0.20503899 0.10873815 0.12662432
0.20054141 0.25538501 0.12156438
0.18156099 0.28872624 0.1226408
-0.15449835 0.35958198 0.12607828
-0.20970215 -0.35049701 0.13266252
0.015001863 -0.35049701 0.1333082
-0.22985998 -0.33312848 0.13824536
-0.22985998 -0.26841384 0.1388253
0.20503899 -0.22534664 0.13029854
0.22435901 -0.054986678 0.13083845
-0.20505442 0.24067718 0.13077986
0.20409831 0.258993 0.13516109
-0.187024 0.2982986 0.1378258
0.067758501 0.35958201 0.13209516
0.074608222 0.35958201 0.13816421
0.17390363 0.35958201 0.13199475
0.20327054 -0.35049701 0.14776407
-0.22985999 -0.33145589 0.14983533
0.20503899 -0.31300205 0.14070229
0.20503899 -0.27184221 0.1401536
0.20503899 -0.26758614 0.14313537
-0.22985999 -0.014340259 0.14568534
0.236011 0.035836644 0.14344266
0.22602038 0.050872926 0.14206392
-0.187024 0.25316811 0.14290193
-0.19919404 0.30654925 0.14295548
0.19626012 0.30216801 0.14509213
0.20503899 0.34265319 0.14944233
-0.14341182 0.35958201 0.14403723
0.093082756 0.35958201 0.14910229
0.11507893 0.35958201 0.1473982
-0.10150883 -0.35049701 0.15664318
0.14700446 -0.35049701 0.15541208
0.19106263 -0.35049704 0.15626499
-0.22986001 -0.31894007 0.15069276
0.20503899 -0.29321605 0.15568212
0.20503899 -0.17453772 0.15526204
0.20503899 -0.16618578 0.15437756
0.22526203 -0.12184758 0.15120618
-0.22985999 -0.11431149 0.15445538
0.23467931 -0.098462194 0.15573801
0.20503899 0.060630638 0.15232506
-0.1941994 0.109595 0.1518949
-0.187024 0.14242357 0.15654989
-0.187024 0.22587542 0.15031438
-0.187024 0.27529034 0.15451042
-0.21878138 0.31331581 0.15551402
0.18977147 0.35958201 0.15500464
-0.22986001 -0.26672724 0.16395964
-0.22985999 -0.03790731 0.16255596
-0.187024 0.23624529 0.16899988
0.20503899 0.32825562 0.16948101
0.067551717 0.35958201 0.16487288
-0.22549553 -0.35049701 0.17466258
-0.12818837 -0.35049701 0.17203639
-0.11717744 -0.35049701 0.17674837
-0.045385443 -0.35049701 0.1716574
0.20503899 -0.093135282 0.1792846
0.20971276 -0.039539658 0.17751938
-0.22986001 -0.019138757 0.17821476
-0.22985999 0.0022633411 0.17699966
-0.187024 0.15459859 0.1748044
-0.187024 0.24475047 0.17230602
-0.187024 0.29013461 0.17880823
0.18156099 0.29796818 0.17536594
-0.22985998 0.32156536 0.17199594
0.061277758 0.35958201 0.17645347
0.12535879 -0.35049701 0.18729143
0.20503899 0.080147572 0.18170449
0.20503899 0.23402576 0.18104622
0.20503899 0.25508431 0.18933505
-0.0047869235 0.35958201 0.18219402
0.204722 0.35717687 0.18367334
-0.12360385 -0.35049701 0.19796543
0.040337436 -0.35049701 0.19855085
-0.22986001 -0.30666891 0.19394194
-0.22985999 -0.27596831 0.19714586
-0.22985999 0.099633761 0.19578233
0.20503899 0.31037149 0.19857337
-0.21866666 0.35958201 0.19876595
-0.21877906 -0.35116339 0.205677
-0.10988717 -0.35049701 0.20203672
-0.029488899 -0.35049701 0.20929129
0.12170917 -0.35049701 0.2079297
0.20503899 -0.08190871 0.20879924
-0.22985999 -0.075398453 0.20532969
-0.22985999 -0.062059492 0.20337366
-0.22985999 0.10948684 0.20934583
-0.187024 0.12625761 0.20856464
-0.187024 0.16993487 0.20572139
0.20503899 0.20529981 0.20120582
-0.20534661 0.30867469 0.20828068
-0.13097548 0.35958201 0.20004097
0.050731733 0.35958201 0.20329838
-0.22575231 -0.361211 0.21869871
-0.18290716 -0.35049701 0.21022819
-0.090839967 -0.35049701 0.21283393
-0.0098043084 -0.35049701 0.21336174
-0.23180902 -0.31498778 0.21247004
0.20503899 -0.21991993 0.21554185
0.20503899 -0.18538633 0.21051946
-0.22985999 -0.015407771 0.21350931
-0.22986001 0.01028049 0.21731356
0.20503899 0.059840959 0.21811417
-0.22985998 0.096210331 0.21771216
0.20503899 0.10773601 0.21044987
-0.22698116 0.11815134 0.210143
-0.19523561 0.12937906 0.210143
-0.22985999 0.17907518 0.21149027
-0.21399711 0.17920072 0.210143
0.20503899 0.18099526 0.21570489
-0.2059073 0.27863586 0.210143
0.05824589 0.35958201 0.21137208
-0.20213039 -0.35049701 0.22888803
-0.027218599 -0.35049701 0.22672085
0.20503899 -0.11487967 0.2295472
-0.22985998 -0.097584978 0.22804242
-0.22985999 -0.012465268 0.22922862
-0.22985999 0.27880251 0.22745286
0.20503899 0.30452916 0.22002387
-0.20869693 0.35958204 0.22495788
-0.15149549 0.35958201 0.22298068
-0.12234926 0.35958201 0.22556032
-0.11324458 0.35958201 0.22593293
0.035125665 0.35958201 0.22996913
0.19470507 -0.361211 0.23475984
-0.13876005 -0.35049701 0.23670967
-0.079381689 -0.35049701 0.23421639
-0.22986001 -0.24985251 0.23397422
-0.22985999 -0.19146612 0.23923033
0.20503899 -0.1962188 0.23058733
-0.22985998 -0.060398981 0.23305337
0.20503899 0.048318457 0.23460048
0.20503899 0.068115585 0.23986468
-0.22985999 0.16907342 0.23554875
-0.22985999 0.24539949 0.23742688
-0.22985998 0.27809101 0.23230782
-0.22985999 0.32122278 0.23547974
-0.030577866 0.35958201 0.23036917
-0.001899302 0.35958201 0.2306041
0.051029116 0.35958201 0.23932044
0.10806687 0.35958201 0.23029226
-0.12327515 -0.35049701 0.24521784
-0.0883068 -0.35049701 0.24712905
0.016769201 -0.35049701 0.24887635
-0.22985999 -0.26506311 0.24927612
0.20503899 -0.2368069 0.24207243
-0.22985999 0.028043136 0.24867371
0.20503899 0.1647395 0.24783182
0.20503899 0.20210487 0.24219072
0.20503899 0.33991796 0.24493814
0.018474845 0.35958201 0.24331181
0.079694584 0.35967749 0.244635
-0.0031686835 0.36066487 0.244635
0.05722139 0.361211 0.24512559
0.029567771 -0.34252033 0.25263599
0.17467722 -0.34145033 0.25263599
-0.13968229 -0.33816573 0.25263599
-0.042915173 -0.33213311 0.25263599
-0.020927399 -0.33837008 0.25263599
0.13239688 -0.33907434 0.25263599
-0.055610575 -0.32784221 0.25263599
-0.031430811 -0.32623878 0.25263599
-0.00057921559 -0.32421821 0.25263599
0.067510709 -0.32618746 0.25263599
0.097369678 -0.32177874 0.25263599
-0.11521252 -0.31098244 0.25263599
0.012057513 -0.30764753 0.25263599
-0.15539384 -0.29459524 0.25263599
-0.12144367 -0.29079378 0.25263599
-0.093013108 -0.2938742 0.25263599
0.031347983 -0.29553598 0.25263599
-0.11769802 -0.28155577 0.25263599
0.14500785 -0.28499261 0.25263599
0.1955747 -0.28573489 0.25263599
-0.083588794 -0.2779797 0.25263599
-0.07680057 -0.27411735 0.25263599
-0.22980665 -0.26023716 0.25263599
0.17169547 -0.26383471 0.25263599
-0.078224964 -0.25405797 0.25263599
0.15128022 -0.25211746 0.25263599
-0.18904115 -0.24596223 0.25263599
0.040621173 -0.2491601 0.25263599
-0.11114327 -0.23123153 0.25263599
-0.056087106 -0.23186532 0.25263599
0.13507497 -0.23129182 0.25263599
-0.21704963 -0.22135359 0.25263599
-0.15404645 -0.22272715 0.25263599
0.018034503 -0.22741129 0.25263599
0.041792363 -0.22081751 0.25263599
-0.14052874 -0.21447429 0.25263599
0.0054324269 -0.21005028 0.25263599
0.037028931 -0.2073112 0.25263599
0.090497531 -0.20477386 0.25263599
-0.18957755 -0.18380977 0.25263599
-0.15084983 -0.18955749 0.25263599
0.14411291 -0.17690611 0.25263599
0.20478341 -0.17468214 0.25263599
-0.20970297 -0.16670249 0.25263599
-0.15982962 -0.15708506 0.25263599
-0.10628866 -0.14401215 0.25263599
-0.09294083 -0.14826609 0.25263599
0.16999571 -0.14310297 0.25263599
-0.1697416 -0.1338276 0.25263599
-0.11495255 -0.13647527 0.25263599
-0.091312572 -0.1346288 0.25263599
0.051211156 -0.13710919 0.25263599
-0.015806828 -0.12100558 0.25263599
0.082908243 -0.12495577 0.25263599
0.10039421 -0.11093993 0.25263599
-0.19528037 -0.1002871 0.25263599
-0.06605199 -0.10351481 0.25263599
0.15514019 -0.10486987 0.25263599
-0.16817434 -0.096636541 0.25263599
-0.12453806 -0.097376511 0.25263599
-0.16498826 -0.082689941 0.25263599
-0.075429991 -0.080781639 0.25263599
0.17156608 -0.086345345 0.25263599
-0.16619954 -0.079316013 0.25263599
-0.002594545 -0.07931862 0.25263599
0.0012795306 -0.076987855 0.25263599
0.015946526 -0.071785383 0.25263599
0.052325696 -0.076072633 0.25263599
0.11551561 -0.065294765 0.25263599
0.19686002 -0.062407747 0.25263599
-0.085803159 -0.054800242 0.25263599
-0.043457888 -0.056358047 0.25263599
-0.0243944 -0.059448272 0.25263602
0.0015451089 -0.055425979 0.25263599
0.082270473 -0.054760911 0.25263599
0.13242075 -0.055033922 0.25263599
-0.054480955 -0.049551129 0.25263599
0.0071483999 -0.043684028 0.25263599
0.135783 -0.04655239 0.25263599
0.2026632 -0.04748578 0.25171286
-0.023772104 -0.03512837 0.25263599
-0.21116479 -0.02596337 0.25263599
-0.032619238 -0.026426936 0.25263599
-0.14727083 -0.014621966 0.25263599
-0.12137169 -0.016239665 0.25263599
-0.035069481 -0.012121284 0.25263599
0.052236915 -0.0062642992 0.25263599
0.11060911 -0.0096219853 0.25263599
-0.18282121 0.014441062 0.25263599
-0.092318952 0.016535722 0.25263599
0.093488328 0.013357021 0.25263599
-0.055272967 0.021287397 0.25263599
-0.14125311 0.036962338 0.25263599
-0.11919332 0.03939002 0.25263599
0.032842729 0.037149031 0.25263599
0.1460506 0.034324296 0.25263599
0.19438529 0.038467363 0.25263599
-0.22488025 0.043833613 0.25263599
-0.031511806 0.047899187 0.25263599
-0.024860958 0.047437988 0.25263599
0.075586371 0.043316741 0.25263599
0.15975267 0.047708251 0.25263599
-0.19942586 0.052516669 0.25263599
-0.013682891 0.05619926 0.25263599
0.16078831 0.051175982 0.25263599
-0.037075259 0.060628369 0.25263599
0.084559947 0.060212757 0.25263599
-0.20268911 0.075211957 0.25263599
0.03652519 0.078518137 0.25263599
0.10277134 0.070891298 0.25263599
-0.17336221 0.087790579 0.25263599
-0.0070617497 0.089392014 0.25263599
0.051862955 0.093877338 0.25263599
0.15952297 0.09476991 0.25263599
0.20495935 0.09448155 0.25263599
-0.12936808 0.10801633 0.25263599
-0.046987616 0.10369363 0.25263599
-0.1991623 0.1143834 0.25263599
-0.049967118 0.12640554 0.25263599
0.076795422 0.12201301 0.25263599
0.16202717 0.12094175 0.25263599
-0.22720434 0.13155669 0.25263599
-0.051572457 0.13407424 0.25263599
-0.045557082 0.13332644 0.25263599
0.024669006 0.13822807 0.25263599
0.15414192 0.13997626 0.25263599
0.19586438 0.13927253 0.25263599
-0.086412407 0.14764529 0.25263599
-0.18815903 0.15884466 0.25263599
-0.031162918 0.15428072 0.25263599
0.065803744 0.15664504 0.25263599
0.070979349 0.15630226 0.25263599
-0.13432774 0.16976868 0.25263599
-0.09855333 0.1603505 0.25263599
-0.090731449 0.17278612 0.25263599
0.16759226 0.17522487 0.25263599
0.031718995 0.19775975 0.25263599
-0.024339709 0.20352873 0.25263599
-0.0023951158 0.20043345 0.25263599
0.071478717 0.20188324 0.25263599
0.17721732 0.21477965 0.25263599
-0.061359242 0.22919616 0.25263599
0.11042257 0.22985996 0.25263599
0.20475355 0.22026026 0.25263599
-0.11821382 0.2389749 0.25263599
0.15942471 0.23589505 0.25263599
-0.15165004 0.2463149 0.25263599
0.091127336 0.24372402 0.25263599
-0.21635988 0.26292664 0.25263599
-0.066348732 0.2634086 0.25263602
0.045623388 0.26014876 0.25263599
-0.19175856 0.2767314 0.25263599
-0.18224931 0.27227929 0.25263599
-0.11632428 0.27472404 0.25263599
-0.08240357 0.27653098 0.25263599
-0.050057277 0.27147579 0.25263599
0.019884214 0.27634934 0.25263599
-0.20257013 0.28707096 0.25263599
-0.11139475 0.28056651 0.25263599
-0.076325387 0.28514519 0.25263599
-0.091917723 0.29197401 0.25263599
-0.057566434 0.29408371 0.25263599
0.034382261 0.29449251 0.25263599
-0.14921187 0.3065556 0.25263599
-0.08042419 0.30324322 0.25263599
0.11392428 0.30915675 0.25263599
0.18757397 0.30705196 0.25263599
-0.20083047 0.31464657 0.25263599
-0.016808212 0.3204568 0.25263599
0.15884791 0.32314807 0.25263599
0.017115995 0.33041966 0.25263596
0.18354733 0.3302848 0.25263599
0.029945113 0.3485671 0.25263602
-0.19897032 0.35783777 0.25231799
-0.12128358 0.35929897 0.25231799
0.028917534 0.35948837 0.25231799
0.037584797 0.35524523 0.25263599
0.1075784 0.35517651 0.25263599
-0.22766007 0.361211 0.25199416
