# .PCD v0.7 - Point Cloud Data file format
VERSION 0.7
FIELDS x y z
SIZE 4 4 4
TYPE F F F
COUNT 1 1 1
WIDTH 967
HEIGHT 1
VIEWPOINT 0 0 0 1 0 0 0
POINTS 967
DATA ascii
-0.11218975 -0.34040168 -0.26788899
-0.10454794 -0.31243607 -0.26788899
-0.137813 -0.30132705 -0.26564825
0.16146335 -0.2636047 -0.26102015
-0.13132142 -0.25103298 -0.26788899
0.14553368 -0.21012135 -0.26761824
0.14205745 -0.20247412 -0.26788899
0.13801879 -0.19868615 -0.26788899
0.16206759 -0.17472765 -0.26076999
-0.039513119 -0.15898128 -0.26788899
0.043811567 -0.159014 -0.26418138
0.10491014 -0.15845041 -0.26788899
0.1358965 -0.15558556 -0.26788896
-0.018978903 -0.14925617 -0.26788899
0.030585438 -0.14776333 -0.26788899
-0.082903437 -0.13727604 -0.26788899
0.00053746998 -0.13440576 -0.26788899
0.12988771 -0.13209362 -0.26788899
-0.053871293 -0.12324774 -0.26788899
-0.014838893 -0.12740523 -0.26788899
-0.083874784 -0.11364459 -0.26788899
0.066603474 -0.10908201 -0.26788899
0.12432185 -0.10206313 -0.26788896
-0.092540666 -0.090633333 -0.26788899
-0.040868219 -0.098876379 -0.26788899
0.0053304192 -0.098040625 -0.26788899
0.020661743 -0.091193989 -0.26788899
0.14355233 -0.099449046 -0.26788899
-0.062796459 -0.081735015 -0.26788899
0.020501964 -0.088833548 -0.26788899
0.13736317 -0.087150559 -0.26788899
-0.11145537 -0.07859832 -0.26788899
0.078275621 -0.073239766 -0.26788899
0.086712882 -0.052702036 -0.26788899
0.01749805 -0.043732733 -0.26788899
0.12513261 -0.04814937 -0.26788899
0.089661337 -0.028865848 -0.26788899
0.12671255 -0.028824717 -0.26788899
-0.014044542 -0.018038131 -0.26788899
-0.11360741 -3.8430095e-05 -0.26788899
-0.075010754 -0.0022675861 -0.26788899
-0.077793129 0.010384239 -0.26788899
0.050665926 0.011020195 -0.26788899
-0.11244921 0.029374205 -0.26788899
-0.079364218 0.038113594 -0.26788899
-0.12298166 0.043785654 -0.26788899
0.14779454 0.046331085 -0.26668182
-0.12226544 0.066298433 -0.26788899
-0.11518021 0.062663831 -0.26788899
-0.10957088 0.075198039 -0.26788899
-0.059350178 0.070431694 -0.26788899
0.066498391 0.074086994 -0.26788899
0.15428692 0.077247083 -0.26399273
0.0058319792 0.085878894 -0.26788899
0.058881845 0.081029214 -0.26788899
0.062365048 0.082890525 -0.26788899
0.085365497 0.081157357 -0.26788899
-0.08309181 0.091582343 -0.26788896
0.062762059 0.10161426 -0.26788899
0.11734931 0.10868886 -0.26788899
0.13835594 0.10410242 -0.26788899
0.16358656 0.10145748 -0.26014087
-0.063108541 0.11316679 -0.26788899
0.075663388 0.11377528 -0.26788899
-0.079339586 0.12622854 -0.26788899
0.021813996 0.12384278 -0.26788899
0.087414965 0.1286827 -0.26788899
0.092360198 0.12675834 -0.26788899
-0.095120125 0.13093385 -0.26788899
-0.058879327 0.13578914 -0.26788899
-0.12507415 0.15112463 -0.26788899
-0.05045509 0.15738098 -0.26788899
-0.013891816 0.1595391 -0.26788899
0.1009506 0.15011398 -0.26788899
-0.070853591 0.16515097 -0.26788899
-0.137813 0.17039633 -0.26525921
-0.12710677 0.19595671 -0.26788899
-0.012547836 0.19208083 -0.26788899
0.040682875 0.19376311 -0.26788899
0.086715162 0.19870503 -0.26788899
-0.054890685 0.20848601 -0.26085681
0.053294785 0.20848602 -0.26225525
0.13807261 0.20848599 -0.26167938
0.18027344 -0.31800881 -0.25322923
-0.137813 -0.16103913 -0.25957596
-0.043407358 -0.159014 -0.25658873
0.14369053 -0.15901399 -0.25525635
0.16624299 -0.159014 -0.25194824
0.17367718 -0.10328452 -0.25596142
0.16576451 -0.085984148 -0.25923878
0.18412736 -0.033041641 -0.25163302
0.17968443 0.014479242 -0.25347325
-0.137813 0.026878536 -0.25975603
-0.137813 0.078860454 -0.25896806
0.17565966 0.149349 -0.25514027
-0.11209061 0.180217 -0.25045848
0.064874053 0.180217 -0.2501289
0.1033153 0.180217 -0.25126848
0.12535228 0.180217 -0.25477207
0.16801891 0.19661511 -0.25830501
-0.137813 -0.34026444 -0.24149407
0.18938172 -0.34473556 -0.24041098
-0.137813 -0.32927775 -0.24125455
0.18899214 -0.29755169 -0.24135153
-0.137813 -0.24773318 -0.24564961
-0.137813 -0.23892069 -0.24801779
0.10477763 -0.159014 -0.24068639
0.18924534 -0.11537155 -0.24073958
0.18704382 -0.092147186 -0.24605501
0.18574519 0.054868661 -0.24919033
0.18883 0.13324429 -0.24174237
0.1885536 0.17499673 -0.24240974
-0.13653433 0.180217 -0.24377337
-0.061893377 0.180217 -0.24100702
0.051743072 0.180217 -0.24666601
0.070285752 0.180217 -0.24921353
0.17395163 0.180217 -0.24110658
0.18723643 0.19739385 -0.24558991
-0.11956021 0.20848601 -0.24484959
0.19194192 -0.20387383 -0.23422898
-0.137813 -0.18645801 -0.23310655
-0.021036647 -0.159014 -0.23115435
0.055456858 -0.159014 -0.23946419
0.08570379 -0.159014 -0.23037291
0.19058326 -0.15176356 -0.23750931
0.19247857 -0.11090387 -0.23293331
-0.137813 -0.093652785 -0.23926121
0.1920806 -0.075922288 -0.23389414
0.19011992 -0.020170063 -0.23862801
-0.137813 0.019597933 -0.23316067
-0.137813 0.036695614 -0.23106664
0.19027871 0.03263396 -0.23824462
0.19114277 0.051277876 -0.23615846
0.019628152 0.180217 -0.2377281
0.17643297 0.180217 -0.23633699
0.010116264 0.20848599 -0.23355995
0.19387381 -0.32970369 -0.22956555
-0.137813 -0.23237488 -0.22951898
-0.137813 -0.22805437 -0.22540867
-0.137813 -0.15865612 -0.22468513
0.19706938 0.037023321 -0.22184928
-0.19428669 0.180217 -0.2223748
-0.17855389 0.18551187 -0.225485
-0.16545711 0.180217 -0.22451153
-0.043494668 0.180217 -0.22743699
-0.015497483 0.180217 -0.22196685
-0.17143184 0.19401947 -0.225485
-0.033887073 0.20848601 -0.22015883
0.10032019 0.20848602 -0.22192171
0.17142494 0.20848602 -0.22874177
-0.18596953 0.23310304 -0.22212827
-0.18338449 0.24827459 -0.22005951
-0.066852763 -0.159014 -0.21418759
0.026507339 -0.159014 -0.21403089
0.12120712 -0.159014 -0.21868928
0.19795632 -0.08998704 -0.21970783
-0.137813 0.056756005 -0.21021064
0.19909789 0.13697189 -0.21695168
-0.12417006 0.180217 -0.21337111
0.15736057 0.180217 -0.21599157
0.19342998 0.180217 -0.21481028
-0.087527543 0.21201999 -0.21792297
-0.19753884 0.24972422 -0.21986184
-0.137813 0.24388084 -0.218959
-0.17099009 0.2518931 -0.21956605
-0.14003508 0.25808814 -0.21872123
-0.13949943 0.27491346 -0.21642697
-0.18015726 0.29535162 -0.21364018
0.20141801 -0.25063825 -0.20918262
0.20141801 -0.17621301 -0.20252517
-0.137813 -0.15449561 -0.20704994
-0.0228213 -0.159014 -0.2052719
-0.00137835 -0.159014 -0.20140564
-0.137813 -0.099549681 -0.20410843
0.201418 -0.056019057 -0.2064651
0.20141801 -0.037437484 -0.20968586
0.20141798 0.036876723 -0.20795326
-0.137813 0.065874711 -0.20099756
0.201418 0.1206642 -0.2067555
0.201418 0.13025008 -0.2090299
-0.137813 0.15633762 -0.20293981
0.201418 0.16985387 -0.20442095
0.058524232 0.180217 -0.2054213
0.19193214 0.20848601 -0.20944211
0.094740376 0.21201999 -0.20638245
-0.137813 0.26825109 -0.20785314
-0.13972895 0.33774835 -0.20149866
0.040359758 -0.159014 -0.19206733
0.071714967 -0.159014 -0.1936242
0.1316942 -0.159014 -0.1973144
0.18444346 -0.159014 -0.19820866
-0.137813 -0.13121386 -0.19220857
0.201418 -0.08358077 -0.19305596
-0.137813 -0.060403462 -0.19371328
0.201418 -0.068123557 -0.19899726
0.0066798925 0.180217 -0.19098361
0.10638995 0.180217 -0.19376893
0.1936785 0.180217 -0.19535884
-0.099464685 0.20848602 -0.19873939
0.025309641 0.21201999 -0.19306737
0.075215846 0.21201998 -0.19962449
-0.137813 0.25301939 -0.19993745
-0.17846896 0.34769899 -0.19613519
-0.076394096 -0.15901399 -0.18838188
-0.137813 -0.13651855 -0.18831344
0.20141798 -0.059355576 -0.18026097
0.201418 0.058153875 -0.18903063
-0.137813 0.13476953 -0.18544304
-0.14053097 0.180217 -0.18475541
-0.037963804 0.180217 -0.18360393
0.091183886 0.180217 -0.1806936
0.20141798 0.1898309 -0.18472095
0.201418 0.19014534 -0.18124059
0.077433467 0.21201998 -0.1894179
0.10387582 0.21201998 -0.18711106
-0.137813 0.3180899 -0.18381979
-0.137813 0.33848244 -0.18481846
-0.1491589 0.35708565 -0.1802263
-0.0046510128 -0.159014 -0.17936742
0.055374615 -0.159014 -0.17646089
0.14939308 -0.159014 -0.17701656
-0.137813 -0.12223108 -0.17534582
0.201418 -0.057547882 -0.17036565
-0.137813 0.16989478 -0.17646745
-0.14604932 0.180217 -0.17502801
-0.13189507 0.180217 -0.17492571
0.1661595 0.180217 -0.17557105
0.18947653 0.180217 -0.17145595
-0.201418 0.19302735 -0.17952098
0.15663582 0.20848601 -0.17507897
-0.137813 0.23109508 -0.17444724
-0.201418 0.27074292 -0.17335865
-0.10213189 -0.159014 -0.16978879
0.081969291 -0.159014 -0.16679534
0.201418 -0.13243935 -0.16853252
0.201418 0.097274989 -0.16011624
-0.14991961 0.180217 -0.16968276
-0.11053275 0.180217 -0.16861159
-0.055612758 0.180217 -0.16296576
-0.027691111 0.180217 -0.16560271
-0.016313136 0.180217 -0.1631155
0.0065704733 0.180217 -0.16743384
0.201418 0.18129882 -0.16232754
-0.20141798 0.19401833 -0.16214478
-0.030422784 0.21202001 -0.16545545
-0.0092645623 0.21201999 -0.16106048
0.12304736 0.21201999 -0.16372246
-0.201418 0.22922274 -0.16333273
-0.137813 0.24281901 -0.16522513
-0.137813 0.27894303 -0.16084598
-0.137813 0.31598651 -0.16131566
-0.201418 0.35315645 -0.16358584
-0.085045867 -0.159014 -0.1518198
-0.019498084 -0.159014 -0.158654
0.201418 -0.067658655 -0.15107185
0.201418 1.3511628e-05 -0.15921962
-0.032470234 0.180217 -0.15953618
0.13409829 0.180217 -0.15303195
-0.137813 0.20010284 -0.1557056
-0.201418 0.22186108 -0.15786037
-0.137813 0.2270896 -0.15957633
-0.137813 0.2355985 -0.15575343
-0.201418 0.3126829 -0.1526828
-0.20141798 0.32183963 -0.15869175
-0.137813 0.32477316 -0.15818873
-0.137813 0.33374718 -0.15236387
-0.137813 0.34046778 -0.15015003
-0.12700893 -0.159014 -0.14071716
-0.094978228 -0.15901402 -0.14471938
0.0070603769 -0.159014 -0.14616098
0.075208254 -0.15901402 -0.14472692
0.20141798 -0.10984141 -0.14476261
0.20141798 -0.018039947 -0.14828838
-0.13192761 0.180217 -0.14636222
-0.077996604 0.180217 -0.14475627
-0.11144289 0.20848602 -0.14172158
0.16117738 0.20848601 -0.14021175
-0.201418 0.21056713 -0.14439553
-0.137813 0.21135189 -0.14895959
-0.018262543 0.21201999 -0.14459568
-0.201418 0.27864751 -0.14556593
-0.201418 0.29497066 -0.1425866
-0.15808448 0.363967 -0.1494125
-0.11062481 -0.159014 -0.1320982
0.050510533 -0.159014 -0.13986307
0.16558544 -0.15901402 -0.13271561
-0.137813 -0.10059329 -0.13076487
0.201418 -0.088163048 -0.13223086
0.201418 0.0036148019 -0.13359392
-0.137813 0.033500396 -0.13493112
-0.137813 0.093631163 -0.13702205
0.201418 0.10669907 -0.13852763
-0.1438009 0.180217 -0.13147102
-0.065761469 0.180217 -0.13282518
0.0051199719 0.180217 -0.13740496
0.16201934 0.180217 -0.13510464
-0.137813 0.19461323 -0.13215509
0.18948765 0.20848601 -0.13328117
0.081497833 0.21202001 -0.13408582
-0.137813 0.22580659 -0.13090086
-0.201418 0.23710851 -0.13138875
-0.201418 0.25602502 -0.13032767
-0.137813 0.2973024 -0.13644233
-0.201418 0.32729673 -0.13491614
-0.12635064 -0.159014 -0.12656511
0.0020805225 -0.159014 -0.12716244
0.14130025 -0.159014 -0.12021255
0.201418 -0.12165516 -0.12853755
0.201418 -0.11907046 -0.12563947
-0.137813 -0.031950563 -0.12530588
0.201418 0.07862325 -0.12055975
0.20141801 0.10609023 -0.12730379
-0.11884947 0.180217 -0.12896475
0.1744072 0.180217 -0.12866563
-0.137813 0.20233434 -0.12743071
0.04412834 0.21201998 -0.12747508
0.11724831 0.21201999 -0.12052465
-0.137813 0.2522645 -0.12833111
-0.137813 0.32384577 -0.12062553
-0.201418 0.35908371 -0.12909752
-0.137813 0.3542867 -0.12740232
-0.04963205 -0.159014 -0.11289209
0.17097829 -0.15901399 -0.11362103
-0.137813 -0.1350472 -0.1101124
0.201418 -0.13317364 -0.11861864
0.201418 -0.057240356 -0.113868
-0.137813 -0.0097974911 -0.11458468
0.20141798 0.042490341 -0.11402719
-0.137813 0.12614593 -0.11954258
-0.137813 0.15270157 -0.1196184
-0.10472724 0.180217 -0.11336342
-0.076494642 0.180217 -0.11916117
0.1216096 0.180217 -0.1102769
-0.137813 0.20984326 -0.11575848
0.15769233 0.20848602 -0.11242948
-0.087995701 0.21079744 -0.11176389
-0.022547591 0.21202001 -0.11904958
0.026868466 0.21201998 -0.11585199
0.037242897 0.21201999 -0.11807595
0.089246579 0.21201999 -0.11509733
0.092741609 0.21201999 -0.11968585
-0.20141801 0.23656791 -0.11734052
-0.201418 0.28169757 -0.11661108
-0.201418 0.3188841 -0.11213679
0.039262939 -0.159014 -0.10727926
0.053426299 -0.159014 -0.10650629
0.12916604 -0.159014 -0.10537148
0.15747409 -0.159014 -0.10828023
0.17630579 -0.159014 -0.10029743
0.201418 -0.12814523 -0.10166764
-0.137813 -0.11670518 -0.10683175
0.201418 -0.11366443 -0.10932267
0.201418 -0.0078833345 -0.10995603
-0.137813 0.12177902 -0.10586011
-0.137813 0.19544375 -0.103342
0.13799179 0.21201999 -0.10478133
-0.17075533 0.363967 -0.10552223
-0.15463552 0.363967 -0.10076112
-0.037221562 -0.159014 -0.091217384
0.061413843 -0.159014 -0.092435293
0.098295361 -0.159014 -0.099913701
0.16128781 -0.15901399 -0.092976697
0.20141798 -0.12169631 -0.096109651
-0.137813 -0.11898749 -0.094363913
-0.137813 -0.1094294 -0.098277941
0.201418 -0.10111718 -0.095243081
-0.137813 -0.08060585 -0.092778094
-0.137813 -0.02817844 -0.094056144
0.20141798 0.0082581006 -0.091250777
-0.137813 0.059081033 -0.096298769
-0.137813 0.11558689 -0.09989056
0.201418 0.14813694 -0.090773672
-0.137813 0.16636105 -0.095652103
-0.1992283 0.180217 -0.097539864
0.0034973547 0.180217 -0.0946398
0.17835544 0.180217 -0.090546928
0.201418 0.1882695 -0.095650099
-0.137813 0.20454663 -0.09721905
0.151602 0.21055086 -0.092258006
-0.137813 0.24521413 -0.099435881
-0.137813 0.29091999 -0.094207861
-0.043539517 -0.159014 -0.082926631
0.17197563 -0.159014 -0.088103399
-0.137813 -0.076687247 -0.088202149
-0.137813 -0.056472614 -0.086603142
0.201418 0.1751143 -0.089998618
-0.1465084 0.180217 -0.087383151
-0.044992179 0.180217 -0.084640726
-0.01588057 0.180217 -0.087851554
0.028044313 0.180217 -0.084736325
0.20087141 0.180217 -0.085148349
0.087715663 0.21201998 -0.081705377
-0.20141801 0.33755735 -0.080101363
-0.155481 0.36703721 -0.086476788
-0.18329318 0.371034 -0.08321812
-0.17019191 0.371034 -0.081007406
0.20141801 -0.096863329 -0.078144327
0.201418 -0.034572806 -0.071158558
-0.10301104 0.180217 -0.070906609
-0.085346892 0.21202001 -0.071087487
-0.037828695 -0.159014 -0.069161862
0.12643878 -0.159014 -0.067902088
-0.137813 -0.060278445 -0.065521047
-0.137813 0.063930191 -0.066897213
0.20141798 0.096947499 -0.066930175
-0.12694067 0.180217 -0.069328591
-0.0066921008 0.180217 -0.06611076
0.0067921006 0.180217 -0.061733868
-0.137813 0.2097262 -0.067943186
-0.137813 0.22125548 -0.066515788
-0.032869864 -0.15901399 -0.050373904
0.10683987 -0.159014 -0.058612447
-0.137813 -0.13851374 -0.057548162
-0.137813 -0.090732589 -0.050320793
0.201418 -0.087762415 -0.054106504
-0.137813 0.13279448 -0.05419983
0.20141798 0.1741772 -0.050789759
-0.19377798 0.180217 -0.052474275
-0.18501957 0.180217 -0.050235212
-0.053627007 0.180217 -0.053499591
-0.019330237 0.180217 -0.058754776
-0.137813 0.21336444 -0.057483818
0.15060002 0.21202001 -0.053139001
-0.201418 0.23611531 -0.059364222
-0.137813 0.30448797 -0.057861485
-0.137813 0.31002498 -0.054840706
-0.201418 0.34842134 -0.055860784
-0.11783443 -0.159014 -0.047954656
0.05550237 -0.15901402 -0.044336222
0.201418 -0.13052313 -0.041972246
0.20141801 -0.10093092 -0.047647528
-0.137813 0.091914147 -0.04165154
0.201418 0.092206322 -0.047332335
-0.137813 0.10675471 -0.048892476
-0.032951415 0.180217 -0.042996347
-0.0076698214 0.180217 -0.043175131
0.061909415 0.180217 -0.047568925
0.10299842 0.180217 -0.04077081
0.13128774 0.180217 -0.048821069
-0.137813 0.2017967 -0.048066255
0.063855633 0.21202001 -0.047263797
0.13874596 0.21201998 -0.044056397
-0.201418 0.28213263 -0.047338661
-0.137813 0.33331215 -0.040129293
-0.201418 0.34274408 -0.042243667
-0.18375 0.3661283 -0.047657784
-0.15440997 0.363967 -0.048472553
-0.137813 -0.15087989 -0.037994027
-0.067147136 -0.159014 -0.036945883
-0.137813 -0.13356635 -0.034574457
-0.137813 0.11070207 -0.035730422
-0.137813 0.14029568 -0.03216704
-0.13199314 0.180217 -0.035077021
0.090135887 0.180217 -0.032504555
0.201418 0.19824453 -0.033877917
0.19651257 0.20848602 -0.035444476
0.02405626 0.21201999 -0.035109717
0.072253734 0.21202001 -0.032551348
-0.201418 0.35560128 -0.036250733
-0.155481 0.36425665 -0.032884218
-0.137813 0.36104015 -0.039693203
0.06073964 -0.159014 -0.021946315
0.1721689 -0.159014 -0.02217314
0.201418 -0.046244845 -0.027157135
0.20141801 0.07348834 -0.026326412
-0.15283099 0.180217 -0.020399235
0.19718182 0.20848601 -0.024320316
0.039180424 0.21201999 -0.028922148
-0.12004885 -0.159014 -0.014425885
0.019295517 -0.159014 -0.013710238
0.11911048 -0.159014 -0.013187312
0.18915336 -0.15901399 -0.018242098
0.201418 -0.072210908 -0.018043235
-0.137813 -0.0005793348 -0.01689887
0.201418 -0.0073738061 -0.012299545
-0.137813 0.016448792 -0.017534632
0.20141798 0.018936815 -0.010563397
0.20141801 0.082215004 -0.019486874
-0.137813 0.10841945 -0.010517769
0.201418 0.13365322 -0.012028185
-0.038718328 0.180217 -0.0132991
0.201418 0.19344456 -0.016245373
0.079360247 0.21201999 -0.015794095
0.090123296 -0.15901399 -0.009531565
0.19773251 -0.15901402 -0.00084736198
-0.137813 -0.12417648 -0.0038360376
-0.137813 -0.092724159 -0.0064749382
0.201418 -0.031641699 -0.001037024
-0.137813 -0.014800912 -0.0014263503
-0.137813 0.0030714013 -6.8895519e-05
0.20141801 0.010578051 -0.0078746639
-0.137813 0.028659642 -0.0062479973
-0.137813 0.048622712 -0.0078019723
0.201418 0.082888968 -0.0057995939
-0.15887676 0.180217 -0.0049364194
-0.050340198 0.180217 -0.0045135394
-0.042278122 0.180217 -0.00080345944
0.046516035 0.180217 -0.0065751709
-0.079940319 0.21201999 -0.0034014359
-0.023769762 0.21201999 -0.0053240471
-0.201418 0.31146356 -0.0055126399
-0.201418 0.33480546 -0.0066896789
-0.155481 0.3700009 -0.0052955621
-0.056453429 -0.159014 0.0012923386
0.053942081 -0.159014 0.0068738312
0.14161406 -0.159014 0.0029154383
-0.137813 0.00034425408 0.0037446441
0.20141798 0.080480635 0.0020026146
-0.137813 0.14763191 0.00074826181
0.076031588 0.180217 0.002283629
0.093594283 0.180217 0.005172044
-0.201418 0.26448047 0.0067098588
-0.201418 0.27802223 0.00062291278
-0.201418 0.33646551 0.00071109086
-0.1439606 0.363967 0.0044746734
-0.077414528 -0.159014 0.016306773
-0.058182567 -0.159014 0.013135314
-0.049397711 -0.159014 0.014775416
0.12690809 -0.159014 0.019485254
-0.137813 0.018665463 0.014203231
-0.10941438 0.180217 0.019676723
-0.066484585 0.180217 0.016866606
0.066490091 0.180217 0.011125959
0.20141801 0.20219922 0.010700414
-0.077456109 0.21201998 0.01577349
0.11480246 0.21201998 0.010159958
0.151602 0.21122371 0.011618037
-0.137813 0.25194207 0.015861474
-0.201418 0.26603514 0.015289366
-0.201418 0.2783758 0.016427785
0.028176472 -0.159014 0.026854355
-0.137813 -0.023146186 0.022525415
-0.137813 0.021057278 0.023171894
0.201418 0.055401377 0.029650051
-0.137813 0.11021253 0.028141893
0.20141798 0.19533688 0.025693946
0.16612256 0.20848599 0.023774283
0.0015681833 0.21201998 0.023602359
0.038999077 0.21202001 0.0213982
-0.137813 0.23663133 0.024861172
-0.137813 0.30805507 0.024022296
-0.137813 0.33518714 0.023101356
-0.18375 0.36919332 0.025260691
-0.10904342 -0.159014 0.035453152
0.201418 -0.11619399 0.035760749
-0.137813 -0.1011071 0.033537526
0.201418 0.03353142 0.038478881
0.201418 0.084480137 0.031824041
-0.137813 0.13396646 0.031991452
-0.137813 0.17246474 0.039749674
0.201418 0.17952845 0.038215056
-0.137813 0.18045916 0.036912605
-0.098775238 0.180217 0.030523278
-0.040147871 0.180217 0.036874063
-0.027086545 0.180217 0.032372646
-0.0064987615 0.180217 0.03512913
-0.13509732 0.20848601 0.039982252
0.16589557 0.20848601 0.035972726
0.1100411 0.21201999 0.039012957
-0.137813 0.23887962 0.034094945
-0.20141801 0.34681976 0.039365213
-0.17721447 0.36479115 0.0360053
0.03024764 -0.159014 0.042965218
0.092876226 -0.159014 0.045515954
-0.137813 -0.13343686 0.046786457
0.201418 -0.12724993 0.044577233
-0.137813 -0.027261101 0.046301205
-0.137813 0.010120213 0.043302625
0.20141798 0.042376477 0.045151256
0.20141801 0.056638408 0.04599753
0.20141798 0.12654731 0.046520926
0.201418 0.15577061 0.041041806
0.17500022 0.20848599 0.042106517
-0.062632449 0.21201999 0.04320696
-0.016312746 0.21201999 0.046649098
-0.201418 0.27337849 0.047644332
-0.11353182 -0.159014 0.050011124
-0.042099193 -0.159014 0.053949576
0.2008571 -0.15901402 0.057656303
0.201418 -0.11682582 0.05156523
0.201418 -0.056502145 0.051341765
0.201418 0.20379579 0.05462072
-0.0072796457 0.21201998 0.05759934
-0.137813 0.27746606 0.05673429
-0.1138216 -0.159014 0.068689547
-0.037033454 -0.159014 0.067965925
0.053276796 -0.15901399 0.067866586
0.13707584 -0.159014 0.066014737
0.18443397 -0.159014 0.068299554
0.201418 -0.14736776 0.063685454
0.201418 -0.13282575 0.0665951
0.201418 0.038896173 0.061844014
-0.10257322 0.180217 0.069185808
-0.067809671 0.180217 0.069199234
0.13385297 0.180217 0.069981307
-0.10360279 0.20848601 0.060713902
0.1535698 0.20848601 0.062747926
-0.032347955 0.21201999 0.0663727
-0.201418 0.24349532 0.069021709
-0.20141801 0.33208025 0.067006454
-0.17817217 0.363967 0.069836512
0.036609434 -0.159014 0.07742773
0.20141801 -0.14226794 0.072474405
0.201418 -0.094956174 0.077687755
-0.137813 -0.018351415 0.074016601
-0.137813 0.022168096 0.072720729
0.201418 0.10084613 0.071106486
0.201418 0.17781405 0.071988538
-0.1929999 0.180217 0.077493742
-0.17525885 0.180217 0.075583875
0.14331394 0.180217 0.074426025
-0.048391432 0.21201999 0.078166768
-0.036392815 0.21201999 0.079827338
0.097369641 0.21201999 0.070001647
-0.02468805 -0.159014 0.089102633
0.037910722 -0.159014 0.080827966
0.201418 -0.15190868 0.080577895
0.201418 -0.10344398 0.086925663
-0.137813 -0.090877578 0.089853257
0.201418 -0.098622441 0.085019276
0.20141798 -0.036680199 0.08400324
-0.137813 0.014975198 0.083502918
0.201418 0.066878922 0.084425099
0.20141801 0.13837342 0.085374221
-0.077105105 0.180217 0.082062006
0.10662647 0.180217 0.080919087
-0.137813 0.19380663 0.088072516
-0.137813 0.20740545 0.088082783
0.16248186 0.20848601 0.085127011
0.040667213 0.21201999 0.087289721
-0.137813 0.25746462 0.087151289
-0.11123303 -0.159014 0.092485443
-0.097175293 -0.159014 0.092791982
0.17810635 -0.159014 0.093051881
-0.137813 -0.12112369 0.093346909
-0.137813 -0.065407172 0.094713703
-0.137813 0.0088799167 0.092058524
0.201418 0.030251876 0.095174871
-0.089180142 0.180217 0.093649425
0.15463373 0.180217 0.092099205
-0.20141801 0.19423878 0.094675332
-0.201418 0.21607327 0.090318069
-0.137813 0.21315628 0.093551323
0.09225826 -0.159014 0.10331962
0.20141801 -0.12444417 0.10135198
0.20141798 -0.075735405 0.10993364
0.201418 -0.044850845 0.10618822
0.20141798 0.067153633 0.10960102
-0.137813 0.084642567 0.10724156
-0.075395755 0.180217 0.10701159
0.12782019 0.180217 0.1094244
-0.137813 0.20723487 0.10380713
-0.137813 0.28532797 0.10716565
-0.14883614 0.36323527 0.1086289
-0.052300308 -0.159014 0.1149213
0.06819433 -0.159014 0.11443011
-0.137813 -0.12468541 0.11570837
0.201418 -0.046461888 0.1132507
-0.137813 -0.025633663 0.1181294
0.20141798 -0.0012970455 0.11259918
-0.137813 0.13845223 0.11791638
0.20141801 0.16386028 0.11435919
-0.07557819 0.180217 0.11287821
0.082233302 0.180217 0.11820809
0.15657672 0.180217 0.11322256
-0.137813 0.19002739 0.11899064
-0.089378603 0.20848601 0.11312987
0.057545654 0.21201999 0.11897391
0.10908213 0.21201999 0.1123088
-0.137813 0.25076503 0.11855943
-0.20141801 0.27762049 0.11090764
-0.19137597 -0.15789607 0.12826294
-0.17249551 -0.15519655 0.120813
0.016777901 -0.159014 0.12821065
0.06788785 -0.159014 0.12330213
-0.17247337 -0.13109578 0.120813
-0.15252699 -0.10954301 0.12567247
-0.137813 -0.096248977 0.12431635
-0.137813 -0.039753068 0.12015278
-0.137813 0.023716919 0.12839913
-0.137813 0.032437075 0.12205154
-0.137813 0.047846489 0.12449561
0.20141798 0.055025268 0.12825489
0.201418 0.064761758 0.12090883
0.201418 0.087586187 0.12443368
-0.13977194 0.180217 0.12292524
-0.072631419 0.180217 0.12396262
0.02414174 0.180217 0.12568311
0.1188792 0.180217 0.12608601
0.18556134 0.180217 0.12549886
0.16367936 0.20848601 0.12414506
0.00093450025 0.21201999 0.12538908
-0.137813 0.2826356 0.12911114
-0.201418 0.33847708 0.12021116
-0.18480827 0.35830194 0.12178206
-0.1489163 0.35796061 0.12269206
0.20141798 -0.17254926 0.13922906
-0.16871449 -0.159014 0.13794298
-0.0495097 -0.159014 0.13189545
0.11402059 -0.159014 0.13458219
0.19996962 -0.159014 0.13209367
-0.19788399 -0.12866329 0.13177611
0.20141801 -0.034393482 0.13290124
-0.137813 0.0017145337 0.13890174
-0.137813 0.026525702 0.13995779
-0.1411151 0.180217 0.13257752
0.201418 0.19021404 0.13656518
-0.137813 0.24470676 0.13992214
-0.137813 0.30904496 0.13545099
0.17525923 -0.15901399 0.14531663
0.20141798 -0.12954521 0.14553514
-0.137813 -0.076805815 0.14439067
0.201418 0.086772293 0.1401156
0.201418 0.13253222 0.14738254
-0.16740265 0.180217 0.14978029
-0.137813 0.18182738 0.14802818
-0.0076710852 0.180217 0.14966579
0.1681639 0.180217 0.1446812
-0.137813 0.2060267 0.14372461
-0.201418 0.25477234 0.14754373
-0.137813 0.29235595 0.140672
-0.137813 -0.17787969 0.15375571
0.037077568 -0.159014 0.15768704
0.073528193 -0.159014 0.1511939
-0.155481 -0.13652384 0.154643
-0.137813 -0.083804473 0.15171835
0.201418 -0.070195235 0.15397108
0.20141798 -0.021955065 0.1553179
0.20003687 0.080110423 0.15948442
-0.17456459 0.180217 0.159427
-0.054489013 0.180217 0.15689307
-0.0065525239 0.180217 0.15569997
0.013536366 0.180217 0.15253176
0.16320179 0.180217 0.15091369
0.20141798 0.20574665 0.15449287
-0.137813 0.21222064 0.15789765
-0.16932139 0.29546207 0.15842411
-0.19825435 0.30465803 0.15717018
-0.18740036 0.31883743 0.15523669
-0.16296007 0.31336421 0.15598302
-0.18597929 0.32385102 0.15378839
0.19582643 -0.29193881 0.1696496
0.19719952 -0.15901402 0.16317214
0.19929214 0.08285892 0.16128242
-0.137813 0.14002247 0.16736586
-0.19697686 0.180217 0.16726981
-0.047352325 0.180217 0.16315171
0.14644107 0.20848601 0.16369767
0.19524533 0.20848601 0.16652952
-0.1494351 0.22819115 0.16759704
-0.14698246 0.25512439 0.16392449
-0.137813 0.25843617 0.16253269
0.19235516 -0.26647475 0.17803019
0.19371064 -0.23607981 0.17475769
-0.083854757 -0.159014 0.17365523
0.16630858 -0.15901399 0.17138782
-0.19788399 -0.13783072 0.17949188
-0.16421938 -0.087806128 0.170284
-0.16183475 -0.070218325 0.170284
-0.19788399 -0.045621842 0.17820011
-0.137813 -0.011223517 0.1745277
0.19566908 0.006726779 0.17002945
0.19429547 0.058300473 0.17334574
-0.17899908 0.060841862 0.170284
-0.18358697 0.13955128 0.170284
-0.19788401 0.14144148 0.17379054
-0.16715428 0.18756419 0.170284
-0.14019907 0.19607139 0.170284
-0.17580914 0.20256293 0.170284
-0.13362341 0.20848601 0.17606874
0.14596714 0.20848601 0.17190133
-0.15548101 0.23728222 0.17464164
-0.19788399 0.25512809 0.17786269
-0.19788399 0.30327225 0.17404467
-0.15830456 0.32195199 0.17937976
0.19005516 -0.24078867 0.18358305
-0.18942527 -0.159014 0.18099497
-0.10415585 -0.159014 0.18297715
-0.065273359 -0.159014 0.18681259
-0.058168948 -0.159014 0.1866072
0.00011319667 -0.15901402 0.18189771
-0.19788399 -0.12765224 0.18682086
-0.155481 -0.10081279 0.1804821
-0.155481 -0.04824724 0.18005815
-0.155481 0.089813277 0.1897482
0.18880996 0.090766437 0.18658924
-0.19788399 0.16705383 0.1880997
0.19092055 0.1626009 0.18149376
-0.078561157 0.180217 0.18305139
-0.039280616 0.180217 0.18110548
0.016154703 0.20848601 0.18015537
0.14589848 0.20848601 0.18228032
-0.19788399 0.26420766 0.18350427
-0.19788399 0.319282 0.18753201
0.18724255 -0.19042879 0.19037342
-0.137813 -0.15060498 0.19288877
-0.155481 -0.14454246 0.19311486
0.17585526 -0.12668537 0.1998575
-0.155481 -0.054199144 0.19377698
-0.19788399 -0.022876002 0.19469051
-0.19788399 0.01794803 0.19517674
-0.155481 0.046833448 0.19187905
-0.137813 0.047677334 0.19500887
-0.19788399 0.084601618 0.19765998
-0.19788399 0.10963348 0.1958831
-0.137813 0.15801422 0.19330955
-0.11272403 0.180217 0.19900706
-0.0016333675 0.180217 0.19742984
0.014770932 0.180217 0.19261979
0.057597287 0.180217 0.19650596
-0.094455242 0.20848601 0.19636932
0.14196686 0.20848601 0.19217546
0.15089357 0.20848601 0.19359256
0.16718704 0.20848601 0.19697668
-0.17077659 0.32195199 0.19216123
0.15805683 -0.30392763 0.20723006
-0.137813 -0.29635829 0.20493239
0.17193931 -0.27038324 0.20147955
0.15767676 -0.26082721 0.20738742
0.16821764 -0.25739461 0.20302112
0.15385117 -0.19836986 0.20897198
0.054154903 -0.159014 0.2026794
0.070349485 -0.159014 0.20728296
-0.155481 -0.11733796 0.20055927
-0.19788399 -0.05349325 0.20913322
0.16234046 -0.05808856 0.20545557
0.15220825 -0.042083912 0.20965251
-0.137813 -0.0010495409 0.20678425
-0.137813 0.0047393683 0.20371968
0.16537313 0.030059434 0.20419937
0.17169273 0.041624624 0.2015817
0.15422826 0.078874774 0.20881578
0.1604248 0.075740248 0.20624907
0.014636262 0.20848601 0.20185748
0.13962042 0.20848601 0.20345284
-0.19788399 0.23013258 0.20771395
-0.12671354 -0.34378028 0.212688
-0.13085742 -0.33220261 0.212688
-0.1250885 -0.28201813 0.212688
-0.1142277 -0.26132786 0.212688
-0.137813 -0.24496377 0.21154281
-0.085778102 -0.19802171 0.212688
-0.081831321 -0.1793815 0.212688
-0.15875092 -0.15141985 0.21749353
-0.081650622 -0.15238017 0.212688
0.099827498 -0.159014 0.21246944
0.13811211 -0.15805863 0.212688
0.12582451 -0.14312977 0.212688
0.0068527609 -0.13187942 0.212688
0.058380701 -0.1398631 0.212688
0.092483684 -0.13577899 0.212688
-0.10143211 -0.12978721 0.212688
-0.082188904 -0.12101041 0.212688
0.046566315 -0.12656745 0.212688
-0.037338708 -0.11446407 0.212688
0.036178939 -0.11193307 0.212688
0.05738607 -0.11692466 0.212688
0.14786606 -0.11735742 0.21145111
-0.13376452 -0.10830269 0.212688
0.11074824 -0.10992736 0.212688
-0.19788399 -0.099360354 0.21519655
-0.13702956 -0.091587059 0.212688
0.082565553 -0.071364366 0.212688
-0.13031578 -0.066798657 0.212688
-0.081763111 -0.069621518 0.212688
0.020741263 -0.069119513 0.212688
0.1121864 -0.068246931 0.212688
-0.062246278 -0.051784448 0.212688
-0.066959701 -0.045330644 0.212688
0.075875513 -0.030377636 0.212688
0.10111194 -0.030697368 0.212688
0.0010176515 -0.02031016 0.212688
0.14270142 -0.02816695 0.212688
0.14429396 -0.012719832 0.212688
-0.12602738 -0.0030770488 0.212688
-0.086501598 -0.0053346828 0.212688
0.015660599 -0.0012588501 0.212688
0.12610297 -0.0032035932 0.212688
0.018205862 0.0050617456 0.212688
0.049001209 0.0013094135 0.212688
0.042538241 0.029868789 0.212688
0.13601685 0.031496271 0.212688
-0.13699016 0.049204726 0.212688
-0.030873189 0.055265646 0.212688
-0.19788399 0.063996352 0.21383077
-0.11911633 0.062033851 0.212688
0.019939836 0.066495776 0.212688
0.024811074 0.062781267 0.212688
-0.155481 0.078439876 0.21108834
0.066444181 0.074804559 0.212688
0.12766328 0.07713595 0.212688
-0.10218482 0.088762902 0.212688
-0.047979478 0.087855972 0.212688
-0.19788399 0.10012466 0.21291918
-0.055048436 0.10804288 0.212688
-0.13520783 0.11785569 0.212688
-0.068182707 0.11563484 0.212688
-0.099857174 0.13607056 0.212688
0.10750391 0.13516346 0.212688
0.13147032 0.13539678 0.212688
-0.155481 0.14953393 0.21039926
-0.12349436 0.14218198 0.212688
-0.090677381 0.14373817 0.212688
-0.057702154 0.14548327 0.212688
-0.0062106177 0.15650387 0.212688
0.033558805 0.17106687 0.212688
0.11072861 0.17560236 0.212688
-0.1044 0.18327472 0.212688
-0.042111918 0.18736109 0.212688
-0.034331761 0.1851047 0.212688
-0.015429936 0.180217 0.21232909
0.095937148 0.180217 0.21042785
0.1235216 0.19279088 0.212688
-0.19304878 0.20848601 0.21496129
-0.10586208 0.20063397 0.212688
0.0045316499 0.20034243 0.212688
0.02878003 0.20342195 0.212688
-0.155481 0.22474539 0.21024862
-0.155481 0.24149936 0.21197116
-0.19788399 0.25628191 0.21066006
-0.18055341 -0.159014 0.22090822
-0.19788399 0.12629725 0.22144464
-0.19788399 0.17357552 0.22395556
-0.155481 0.2360011 0.22018385
-0.155481 0.2692506 0.2235401
-0.155481 -0.12803443 0.23031041
-0.155481 -0.11551031 0.23748735
-0.155481 -0.014104016 0.23092346
-0.19788399 0.025872447 0.23800112
-0.19788399 0.12681359 0.23304465
-0.15548101 0.22173338 0.23050879
-0.16342589 0.32195199 0.23689342
-0.18520138 -0.15515225 0.24857152
-0.19514352 -0.12271081 0.24589346
-0.19426416 -0.071940683 0.24677283
-0.19788399 -0.065381438 0.2415638
-0.19235834 0.015164178 0.24867865
-0.15569067 0.034835108 0.24336267
-0.19675753 0.059505515 0.24427947
-0.155481 0.072927162 0.24118036
-0.15965313 0.13286166 0.24732482
-0.19788399 0.28336456 0.24706766
-0.155481 0.28145283 0.24377197
-0.155481 0.31264138 0.2485127
-0.17892477 -0.14488898 0.25728253
-0.18583539 -0.134882 0.25520161
-0.18887779 -0.11459841 0.25215924
-0.17015877 -0.067868374 0.257287
-0.17288676 -0.051927704 0.257287
-0.18665478 -0.04605256 0.25438222
-0.16759911 -0.035889894 0.25527024
-0.190797 0.03175636 0.25024
-0.18522009 0.066513143 0.25581691
-0.18063799 0.077649929 0.257287
-0.18955716 0.14930643 0.25147983
-0.17579004 0.167813 0.257287
-0.15757659 0.1938075 0.25034511
-0.15871948 0.20286921 0.25488615
-0.155481 0.21245034 0.25069988
-0.15670234 0.22192807 0.25497532
-0.19788399 0.27356157 0.25158548
-0.18893437 0.21806712 0.26270425
-0.18554364 0.22934893 0.26609522
-0.17114352 0.24040997 0.26788899
-0.19009124 0.26695102 0.26154733
-0.1897468 0.30134475 0.26189175
-0.18254423 0.32195199 0.2622447
