# .PCD v0.7 - Point Cloud Data file format
VERSION 0.7
FIELDS x y z
SIZE 4 4 4
TYPE F F F
COUNT 1 1 1
WIDTH 977
HEIGHT 1
VIEWPOINT 0 0 0 1 0 0 0
POINTS 977
DATA ascii
-0.21788248 -0.28770599 -0.28512141
-0.16276982 -0.28675458 -0.28626701
-0.055293985 -0.28145456 -0.28626701
0.21207154 -0.28628358 -0.28626701
0.016371988 -0.27506277 -0.28626701
-0.2543315 -0.26973522 -0.28626701
-0.24292064 -0.26679426 -0.28626701
-0.023925394 -0.26690239 -0.28626698
-0.19163835 -0.25355411 -0.28626701
0.12664467 -0.25096273 -0.28626701
-0.18584971 -0.24776617 -0.28626701
0.073515527 -0.2492398 -0.28626704
0.1261673 -0.24511001 -0.28626701
-0.065200701 -0.23776513 -0.28626701
0.15028968 -0.2360734 -0.28626701
-0.14255399 -0.2222409 -0.28626701
0.015571639 -0.22354421 -0.28626701
0.074631251 -0.22996576 -0.28626704
0.15008609 -0.22368991 -0.28626701
0.18503243 -0.22692591 -0.28626701
-0.16311453 -0.21116714 -0.28626701
-0.005387336 -0.21055321 -0.28626701
-0.0013296306 -0.20055099 -0.28626701
-0.22119252 -0.19105467 -0.28626701
-0.18905947 -0.19946006 -0.28626701
-0.14504151 -0.19357422 -0.28626701
-0.13585261 -0.19110453 -0.28626701
-0.052187286 -0.19738245 -0.28626701
0.10178339 -0.1943514 -0.28626698
-0.1424287 -0.17417239 -0.28626701
0.13678032 -0.17633739 -0.28626701
0.28013721 -0.17856722 -0.28626701
0.0070633292 -0.16383097 -0.28626701
0.042809997 -0.16329549 -0.28626701
0.051083017 -0.16943878 -0.28626701
0.062696084 -0.16052438 -0.28626701
0.13189307 -0.16515043 -0.28626701
-0.10886162 -0.1404984 -0.28626701
-0.25373667 -0.13447024 -0.28626701
-0.16545774 -0.13851175 -0.28626701
0.077011585 -0.13376574 -0.28626701
0.20371394 -0.13888794 -0.28626701
0.24015665 -0.13090199 -0.28626701
0.26404431 -0.13052645 -0.28626701
0.10402671 -0.12728024 -0.28626701
-0.10673187 -0.11362435 -0.28626698
-0.049390685 -0.10885628 -0.28626701
0.22716558 -0.10330651 -0.28626701
-0.047560371 -0.098925173 -0.28626701
0.05183167 -0.081204444 -0.28626701
0.24136437 -0.085094146 -0.28626701
-0.29158401 -0.072424076 -0.28626701
0.0012874939 -0.073625907 -0.28626701
0.11906215 -0.077222623 -0.28626701
0.17643721 -0.067700505 -0.28626701
-0.07035733 -0.053962626 -0.28626701
0.12190524 -0.050227493 -0.28626701
-0.0074290801 -0.047009133 -0.28626701
-0.29061273 -0.03761949 -0.28626701
-0.2390978 -0.037093304 -0.28626701
-0.21470027 -0.035007827 -0.28626701
0.11009175 -0.036678821 -0.28626701
0.1893639 -0.031733032 -0.28626701
0.2571201 -0.0399836 -0.28626704
0.26648763 -0.032790184 -0.28626698
-0.058466561 -0.0290916 -0.28626701
0.042582266 -0.029467903 -0.28626701
0.22876447 -0.020572469 -0.28626701
0.23442952 -0.014515035 -0.28626701
-0.29202104 -0.0072082281 -0.28117424
-0.093334541 0.018875871 -0.28626701
-0.0078083873 0.014436528 -0.28626701
0.27236259 0.010862634 -0.28626701
-0.15654208 0.029755346 -0.28626701
-0.088861361 0.026259553 -0.28626701
-0.11536866 0.030119803 -0.28626701
0.18933913 0.035385922 -0.28626701
0.27425766 0.037739567 -0.28626701
0.038236119 0.041579999 -0.28626701
0.052872904 0.048100069 -0.28626701
0.18491285 0.042187124 -0.28626701
0.19762605 0.041968197 -0.28626701
0.22725785 0.055387281 -0.28626701
0.02300531 0.069428653 -0.28626701
0.078416586 0.061833337 -0.28626701
0.25419861 0.061650962 -0.28626701
0.015174076 0.10121902 -0.28626701
-0.027875438 0.11012124 -0.28626701
-0.011411577 0.11953029 -0.28626701
-0.16215938 0.12518695 -0.28626701
0.21230549 0.12422665 -0.28626701
-0.21976249 0.1355125 -0.28626701
-0.077798687 0.13173249 -0.28626701
0.11077547 0.13267316 -0.28626701
0.13202286 0.13813128 -0.28626701
-0.19130671 0.14784534 -0.28626701
0.13608766 0.14545058 -0.28626701
-0.10514525 0.15336952 -0.28626701
-0.11286262 0.16879122 -0.28626701
-0.1558768 0.17555641 -0.28626701
-0.11606644 0.17908612 -0.28626701
-0.048401594 0.17674494 -0.28626701
0.054707967 0.17512242 -0.28626701
0.16279548 0.17995061 -0.28626701
-0.15260726 0.18081853 -0.28626701
-0.12223631 0.18625313 -0.28626701
-0.047462322 0.18043335 -0.28626701
-0.10413228 0.19561511 -0.28626701
0.14178833 0.19528973 -0.28626701
0.17587814 0.19413754 -0.28626701
-0.29145399 0.20673653 -0.28626701
0.035417683 0.20682046 -0.28626701
0.20974086 0.2002255 -0.28626701
-0.079152241 0.21807766 -0.28626701
-0.033627018 0.21888031 -0.28626701
-0.28752166 0.22319168 -0.28626701
-0.0094806105 0.22297551 -0.28626701
0.021064252 0.22087851 -0.28626701
0.26805347 0.22718282 -0.28626701
0.13619627 0.24415527 -0.28626704
-0.22453226 0.25456235 -0.28626701
-0.10410628 0.25633872 -0.28626701
0.11708294 0.25592637 -0.28626701
-0.15032345 0.26731631 -0.28626701
-0.10693087 0.26789656 -0.28626701
0.25850996 0.26345485 -0.28626701
-0.083233453 0.27655828 -0.28626701
0.13896073 0.27191144 -0.28626701
-0.11533348 0.28770599 -0.28123912
0.2491567 0.28770599 -0.28548023
-0.23310007 -0.28770599 -0.27505353
-0.076720737 -0.28770599 -0.27618971
-0.29202098 -0.21383892 -0.27627906
0.28051299 -0.16076748 -0.27996403
0.28051299 -0.040236369 -0.27423167
-0.29202104 -0.010517642 -0.27644461
-0.29202101 0.25157413 -0.277015
-0.28814751 0.28770596 -0.27340436
0.22734463 0.28770599 -0.27355453
-0.12131035 -0.28770599 -0.26528686
0.082054257 -0.28770599 -0.26113167
0.15091896 -0.28770599 -0.26026294
0.19071375 -0.28770599 -0.26067698
0.24129832 -0.28770599 -0.26538786
-0.29202101 -0.060010232 -0.26791734
-0.29202101 0.045326062 -0.26775467
0.28051299 0.057379678 -0.26344681
0.28051299 0.085255049 -0.26488775
0.28051299 0.25582847 -0.26064742
-0.29202101 0.27457806 -0.26085174
-0.14620596 0.28770596 -0.2694189
-0.18304451 -0.28770599 -0.25801608
-0.069507286 -0.28770599 -0.25030497
-0.042196482 -0.28770599 -0.25171632
0.28051299 -0.27972949 -0.25466472
-0.29202101 -0.222569 -0.25407091
0.28051299 -0.1617953 -0.25448078
-0.29202098 -0.14622562 -0.25426149
-0.29202101 0.12651709 -0.25270846
-0.065744698 0.28770599 -0.25669134
-0.22782776 -0.28770599 -0.2419982
-0.12944099 -0.28770599 -0.24353786
-0.043953553 -0.28770599 -0.24775107
-0.29202101 -0.20336469 -0.24022502
0.28051299 -0.059302695 -0.248347
0.28051299 0.00077705458 -0.24434283
-0.29202098 0.069090948 -0.24062641
-0.29202101 0.11953166 -0.2417503
-0.29202101 0.27626219 -0.24784522
-0.021522211 0.28770599 -0.24567232
-0.29202101 -0.12268723 -0.23042682
0.28051299 0.063715972 -0.23663205
0.08105047 0.28770599 -0.23826773
0.15196161 0.28770599 -0.236949
-0.14733373 -0.28770599 -0.22893517
0.20473842 -0.28770596 -0.22780778
-0.29202101 -0.15505187 -0.22278729
-0.29202101 -0.11833933 -0.22750153
0.28051299 -0.11489092 -0.22531745
-0.29202098 -0.060854949 -0.2275303
0.28051299 0.15186578 -0.22855248
-0.29202101 0.22789964 -0.22823761
-0.29202101 0.26745057 -0.22334029
-0.24116451 0.28770599 -0.22523271
-0.22788082 0.28770599 -0.22848842
-0.096182264 0.28770599 -0.22632657
-0.072832935 0.28770599 -0.22988898
0.0014221743 0.28770599 -0.22203484
0.21480358 0.28770599 -0.2242343
0.22024632 0.28770599 -0.22849813
-0.29202101 -0.013441041 -0.21206415
0.0066307485 0.28770599 -0.21236852
0.045916487 0.28770599 -0.21522912
-0.28423271 -0.28770599 -0.20931238
-0.19527225 -0.28770596 -0.20730731
0.28051299 -0.19418924 -0.2050112
-0.29202101 -0.10091451 -0.20012398
-0.29202101 0.17923233 -0.20418736
0.1752633 0.28770599 -0.202122
-0.033969164 -0.28770599 -0.19387305
0.29202101 -0.13034301 -0.19025412
-0.29202098 -0.10902101 -0.19036265
-0.29202101 -0.081614926 -0.19698775
0.29202101 0.011498327 -0.19923595
-0.29202101 0.17351665 -0.19104238
-0.19369197 0.28770599 -0.19083539
-0.14300369 0.28770599 -0.19068158
-0.093250379 0.28770599 -0.19223112
0.093025729 0.28770599 -0.19461691
0.23332995 0.28770599 -0.19986969
-0.21637611 -0.28770599 -0.18346371
-0.17300977 -0.28770599 -0.18257973
-0.13767017 -0.28770599 -0.18356121
-0.05557961 -0.28770599 -0.18736938
0.020497099 -0.28770599 -0.18672007
0.28051299 -0.2465483 -0.18147179
0.28051299 -0.23744045 -0.18410254
0.28051299 -0.15334189 -0.18326095
0.28560665 -0.14608951 -0.18034956
-0.29202098 -0.12940639 -0.18277751
-0.022074424 -0.039181344 -0.18023849
-0.03367465 -0.021650026 -0.18410511
0.10173727 -0.029471464 -0.18238005
-0.067546099 -0.01832748 -0.18483791
0.015327834 0.0056777913 -0.18842146
-0.0031774491 0.01574512 -0.187971
0.11478156 0.016205093 -0.18795042
0.15809412 0.021953983 -0.18769318
0.18824346 0.02042564 -0.18776159
0.20715916 0.029571678 -0.18735236
0.24271819 0.026828635 -0.18747509
0.2668533 0.02209406 -0.18768692
0.025810868 0.035736132 -0.18707654
0.061546214 0.037106551 -0.18701524
0.13070619 0.045270644 -0.18664995
0.18730645 0.042712145 -0.18676442
0.19741195 0.044873036 -0.18666773
0.069740757 0.054069657 -0.1841989
0.29202101 0.0756924 -0.1815449
0.29202101 0.12623827 -0.18098296
-0.29202101 0.16106975 -0.18657151
-0.29202101 0.20801321 -0.18123077
-0.19329616 0.28770599 -0.184582
-0.066213235 0.28770599 -0.18197133
-0.16216342 -0.28770599 -0.17223477
-0.15412375 -0.28770599 -0.175519
-0.088727623 -0.28770599 -0.1783036
-0.29202101 -0.24033681 -0.17434141
-0.29202101 -0.098444566 -0.17609295
-0.064552493 -0.061979145 -0.17072988
-0.05433942 -0.057763427 -0.17291877
0.1056495 -0.055320241 -0.1741873
0.21269396 -0.055515409 -0.17408597
-0.045609716 0.06793391 -0.17981106
0.068035156 0.070225604 -0.17908578
0.087729804 0.073578939 -0.1780245
0.18865713 0.071304597 -0.1787443
0.25012672 0.075832032 -0.17731142
0.28604639 0.071436323 -0.17870259
-0.28082481 0.28770599 -0.17990503
-0.080735892 0.28770599 -0.177053
0.21020748 0.28770599 -0.17319846
0.022754129 -0.28770599 -0.1679053
0.28051299 -0.28590801 -0.16735436
-0.29202101 -0.2761136 -0.16800438
0.022529015 -0.07186491 -0.16559704
0.1701967 -0.073709153 -0.16463949
0.26069984 -0.074358582 -0.16430227
-0.081248388 -0.063729629 -0.16982101
-0.033567976 -0.067066953 -0.16808821
0.030752853 -0.067749761 -0.1677337
-0.110767 0.026604587 -0.16138719
-0.110767 0.048423719 -0.16515926
0.088231981 0.095401555 -0.16989666
0.090109393 0.098571382 -0.16787249
-0.092742987 0.10982127 -0.16068855
0.015685167 0.1032763 -0.16486803
0.21675235 0.10754854 -0.16213986
0.27655289 0.10105671 -0.16628541
0.29202098 0.15044403 -0.16611859
0.28051299 0.21333385 -0.16974407
-0.29202101 0.22087702 -0.16492562
0.22614554 -0.28770602 -0.15359896
-0.29202101 -0.25083354 -0.15855971
0.28051299 -0.24100035 -0.15416773
0.28113458 -0.17347337 -0.15109286
-0.29202101 -0.1106646 -0.15569833
0.0088891461 -0.087640055 -0.15740632
0.1498227 -0.084803686 -0.15887901
-0.29202101 -0.024207227 -0.1515588
-0.110767 0.0037116818 -0.15586378
0.29202101 0.045935497 -0.15671198
-0.07110174 0.11936597 -0.15459351
-0.019123236 0.1159768 -0.15675777
0.15187091 0.11701079 -0.15609747
-0.039214831 0.12001495 -0.15417908
0.18485463 0.121075 -0.15350215
-0.29202101 0.17384547 -0.15832423
0.28051299 0.24237487 -0.15930194
-0.20706436 0.28770596 -0.15931381
-0.11236198 0.28770599 -0.15527406
-0.047979787 0.28770599 -0.15873817
0.21858485 0.28770599 -0.15666801
-0.29202101 -0.28158888 -0.14904429
0.027032681 -0.28770599 -0.1464521
0.13535956 -0.28770599 -0.14276966
0.28051299 -0.1995075 -0.14445117
0.29202101 -0.15819652 -0.14563663
0.029929809 -0.10301611 -0.14387354
0.1044294 -0.10399207 -0.14298119
-0.110767 -0.097570561 -0.14809471
0.17872858 -0.099586964 -0.14700893
-0.13092722 0.28770599 -0.14220065
-0.070810705 0.28770599 -0.14125404
-0.024998158 0.28770599 -0.14269367
0.096912667 0.28770599 -0.14525855
-0.22345799 -0.28770599 -0.13156812
-0.2159823 -0.28770599 -0.13453105
-0.15139171 -0.28770599 -0.13128817
-0.056928352 -0.28770599 -0.13116282
0.012376647 -0.11630374 -0.13172421
-0.11076701 -0.050284695 -0.13553564
0.29202101 0.001325786 -0.13439488
0.29202101 0.018289495 -0.1316814
0.098840035 0.14554518 -0.13147955
-0.28499541 0.28770599 -0.13848397
-0.15369907 0.28770599 -0.13804805
-0.13934684 -0.28770599 -0.12872741
0.14315911 -0.28770599 -0.12078062
0.25085157 -0.28770599 -0.12627366
-0.29202101 -0.27678207 -0.12636465
-0.29202101 -0.16502522 -0.12370856
0.094700016 -0.12214465 -0.12638368
0.18113603 -0.12159473 -0.12688647
-0.29202101 -0.077308491 -0.12960951
-0.11076701 -0.079850338 -0.12230129
-0.110767 0.033669665 -0.12339088
-0.29202101 0.045651942 -0.12246643
0.29202101 0.098679438 -0.12587008
-0.29202101 0.15233302 -0.1236229
0.28051299 0.27221608 -0.12280646
-0.27888098 0.28770599 -0.12779599
-0.11177032 0.28770599 -0.12317906
-0.08200489 0.28770599 -0.12944899
0.2094771 0.28770599 -0.1290541
-0.1820114 -0.28770599 -0.11317592
0.1329042 -0.28770599 -0.11486457
-0.29202101 -0.13320355 -0.11411331
-0.070130706 -0.13298151 -0.11055204
-0.026016429 -0.13103972 -0.11359285
0.29202101 -0.10141863 -0.11817422
-0.29202101 -0.072324894 -0.11077172
-0.110767 -0.04848709 -0.11804457
0.29202101 -0.011639553 -0.11238863
-0.11076701 0.0054890183 -0.11322051
-0.11076701 0.016966846 -0.11473911
-0.29202101 0.026795775 -0.11902088
0.29202101 0.19648728 -0.11050051
0.23275995 0.28770599 -0.11731307
0.24819122 0.28770599 -0.11726298
-0.020226009 -0.28770599 -0.10124588
0.25037387 -0.28770599 -0.10931902
-0.29202101 -0.24779284 -0.10223022
-0.29202101 -0.1862663 -0.10683995
0.012232335 -0.13572016 -0.10626341
0.066621915 -0.1345644 -0.10807331
0.11887437 -0.13550651 -0.10659799
-0.29202101 -0.079102971 -0.10170869
-0.11076701 -0.022572862 -0.10070919
-0.110767 0.046194345 -0.10990345
-0.11076699 0.1573492 -0.10770953
-0.057037327 0.16716176 -0.10472309
0.095528111 0.28770599 -0.10804897
-0.18667686 -0.28770599 -0.093152791
0.021847595 -0.1422065 -0.09610597
0.16047588 -0.14184856 -0.0966665
-0.29202101 -0.1333629 -0.091715544
-0.29202101 -0.10111415 -0.099156223
-0.29202101 -0.088866964 -0.093327038
-0.110767 -0.039995629 -0.0988869
-0.077766433 0.17286274 -0.093742505
0.20642567 0.1734682 -0.092576355
0.22237924 0.17347117 -0.092570625
-0.21607406 0.28770599 -0.097269192
-0.23254539 -0.28770599 -0.082663059
-0.29202101 -0.17171702 -0.080487788
-0.056107827 -0.14785469 -0.087261066
0.27337682 -0.14665323 -0.089142501
0.29202101 -0.13257705 -0.089918248
0.29202101 0.12647906 -0.086867347
-0.29202101 0.28677887 -0.089619979
0.22575161 0.28770599 -0.08908207
0.13792422 -0.28770599 -0.073448814
0.28051299 -0.25018167 -0.074188091
-0.091384403 -0.15230671 -0.075589724
-0.29202101 -0.074621283 -0.079514004
0.29202101 0.0058214832 -0.078594856
-0.23085991 0.28770599 -0.07258898
-0.028839871 0.28770599 -0.072390519
0.059398226 0.28770599 -0.071818262
0.1065389 0.28770596 -0.077424169
0.25589642 0.28770599 -0.072498299
-0.028714005 -0.28770599 -0.064260371
0.20163283 -0.28770599 -0.069240481
0.29139361 -0.15487748 -0.067466706
-0.29202101 -0.14387643 -0.066610657
-0.29202101 -0.068397135 -0.066541232
-0.29202101 -0.014760435 -0.066619068
-0.11076699 -0.00027120346 -0.061740704
0.29202101 0.026486997 -0.06196503
-0.110767 0.15403199 -0.060708176
-0.014304072 0.18544391 -0.068931475
0.062699109 0.18587494 -0.066977359
0.18345764 0.18531354 -0.06952247
0.29202101 0.19706924 -0.066917427
-0.29202101 0.26561257 -0.066621177
-0.29202101 0.27445349 -0.064733326
-0.24086832 0.28770599 -0.064205088
0.15281101 0.28770599 -0.061708942
0.20105261 0.28770599 -0.066216536
-0.18679811 -0.28770596 -0.059114769
0.29202101 -0.21743554 -0.053495914
0.026829172 -0.15747814 -0.059249278
0.1317803 -0.15839508 -0.05635196
-0.11076699 -0.073992886 -0.055509742
-0.0072559617 0.1885086 -0.055037431
0.29202101 0.22992554 -0.053934414
-0.24269377 0.28770599 -0.057784714
-0.27657795 -0.28770599 -0.045366779
-0.2476505 -0.28770599 -0.04240045
-0.023164168 -0.28770599 -0.04600117
0.014848176 -0.28770599 -0.047948435
0.26480687 -0.28770599 -0.042378642
-0.110767 0.099763505 -0.042989817
-0.29202101 0.1461764 -0.046762079
-0.11076701 0.17602049 -0.044354666
0.21459904 0.19160423 -0.041003339
0.24277753 0.19152313 -0.041370891
-0.29202101 0.20481288 -0.042510446
0.28051299 0.24464816 -0.042066615
-0.044468295 0.28770599 -0.040640779
0.012053646 0.28770599 -0.044003099
0.070932612 0.28770599 -0.04695522
0.12879439 0.28770599 -0.045907244
0.21174218 -0.28770599 -0.032787472
0.28051299 -0.27113342 -0.034881584
0.28051299 -0.24752659 -0.03486336
0.12490159 -0.1639019 -0.033830244
0.17202669 -0.16385049 -0.034978971
-0.110767 -0.10966131 -0.037729334
0.29202101 0.12260821 -0.033857875
0.27340591 0.19318806 -0.033822857
0.28051299 0.25520143 -0.034160372
-0.29202101 0.27106413 -0.030828483
-0.042194419 0.28770599 -0.036836561
-0.2440915 -0.28770599 -0.022175133
-0.22613539 -0.28770599 -0.020551354
-0.17387353 -0.28770599 -0.02610594
-0.29202101 -0.23473527 -0.024849296
0.030733529 -0.16441564 -0.022347923
0.29052237 -0.16435644 -0.023670916
0.29202101 -0.032474916 -0.028996956
-0.110767 -0.025477039 -0.023235247
-0.29202098 0.051068086 -0.02205373
-0.11076701 0.058693409 -0.027384102
-0.034068882 0.19541389 -0.023728514
0.25132015 0.19524755 -0.020011086
0.14115351 -0.16472551 -0.015422187
0.17876869 -0.16495289 -0.010340273
-0.110767 -0.025682071 -0.014834547
0.29202101 0.036313526 -0.013510358
0.29202101 0.1136267 -0.01966369
-0.29202101 0.12120592 -0.014829686
-0.29202101 0.13854054 -0.011035152
-0.11076701 0.13775012 -0.017947994
0.29202101 0.15068302 -0.019472295
0.028596308 0.1951174 -0.01710215
0.099010669 0.19509205 -0.016535744
-0.29202101 0.21427152 -0.01041761
0.046416856 0.28770599 -0.016135819
0.1868113 0.28770599 -0.013775483
-0.16488388 -0.28770599 -0.0093284175
0.28051299 -0.23636426 -0.0086830081
-0.012289636 -0.16500333 -0.0092129931
0.073338024 -0.16501819 -0.0088808797
-0.110767 -0.11405038 -0.00362133
-0.29202101 0.098946527 -0.0004170239
-0.11076701 0.17364898 -0.0097552836
-0.090045676 0.28770599 -0.0058920793
0.072005019 -0.28770599 0.0063428283
0.093784705 -0.16547622 0.0013563442
0.29202101 -0.15377852 0.0082485033
-0.29202101 -0.13691664 0.0037911981
-0.11076699 -0.037102845 0.007788226
-0.29202101 -0.023602646 0.0064967023
-0.29202101 -0.016431754 0.0067246207
-0.11076699 0.046185989 0.0041941032
-0.11076701 0.15417133 0.0035650879
-0.081580989 0.19401827 0.0074623153
-0.040815018 0.1939251 0.0095451428
0.10307194 0.19428864 0.0014198124
0.11349873 0.19431649 0.00079722278
0.23419125 0.19412887 0.0049904874
0.1435163 -0.28770602 0.012924269
0.29202101 -0.21787103 0.013207237
-0.064142972 -0.16390212 0.015852524
0.1373312 -0.16418463 0.014571758
-0.11076699 0.0029412378 0.014169568
-0.11076699 0.14472184 0.014278404
-0.110767 0.15773021 0.015900053
0.060893461 0.19347885 0.019518375
-0.18276477 0.28770599 0.015133865
-0.042583682 0.28770602 0.019218221
0.083165295 0.28770599 0.016027749
0.13443683 0.28770599 0.01194641
-0.05085846 -0.28770599 0.020181686
0.099537298 -0.28770599 0.020439163
0.28051299 -0.26636693 0.023222208
0.14518383 -0.1609678 0.029155416
0.19034471 -0.16229965 0.023117431
-0.11076699 -0.10853584 0.028512705
-0.039965957 0.19343999 0.020386931
0.27824417 -0.28770599 0.0384534
0.17991549 -0.1596503 0.0351284
0.25729191 -0.1595574 0.035549585
-0.11076701 -0.1431351 0.032901097
0.29202101 -0.14675117 0.030351413
0.29202101 -0.11905013 0.039508827
-0.11076699 -0.016385484 0.036708251
0.29202101 0.076690599 0.039434481
-0.110767 0.15646662 0.035888594
0.27055562 0.18901092 0.037087258
0.14903831 0.19073093 0.031652473
-0.1975674 0.28770599 0.039707966
-0.13384695 0.28770599 0.033101991
0.018963359 0.28770599 0.030348241
0.23471686 0.28770599 0.038106717
-0.018683381 -0.28770599 0.041830271
0.085840359 -0.28770599 0.047771737
0.19944681 -0.28770599 0.042585105
0.28051299 -0.24601337 0.044408131
0.011661206 -0.15637925 0.049957912
-0.110767 -0.093734302 0.042959638
-0.29202101 -0.082694732 0.043226343
-0.110767 -0.010271738 0.04626466
-0.29202101 0.052834027 0.040161185
0.13260511 0.18784764 0.040762965
0.25275996 0.18533702 0.048695944
-0.045114368 0.28770599 0.040547222
0.13864891 0.28770599 0.047472533
0.21612844 0.28770599 0.046082035
-0.17163713 -0.28770599 0.051756889
-0.29202101 -0.27512708 0.058605868
-0.29202101 -0.22558828 0.050935984
0.29023093 -0.22002935 0.0584893
-0.29202101 -0.1581898 0.058815259
-0.014262542 -0.15243188 0.059702232
0.29202101 -0.05015387 0.059276074
-0.11076701 -0.020699482 0.051135387
-0.29202101 0.068680786 0.058543667
-0.29202101 0.075022474 0.054695625
-0.17839146 0.28770599 0.057119787
0.10260411 0.28770599 0.050496809
0.13582315 0.28770599 0.052244864
0.17795035 0.28770599 0.051431201
0.24049139 0.28770599 0.059756227
-0.29202101 -0.28735226 0.069003165
-0.12718759 -0.28770599 0.065675497
-0.29202101 0.033113182 0.066666186
0.16583292 0.17972578 0.066426091
0.23964506 0.18048216 0.064036131
0.28108913 0.23810184 0.067537598
-0.13638543 0.28770599 0.069895901
-0.02905342 0.28770599 0.061328262
-0.13224643 -0.28770599 0.071569569
-0.29202101 -0.26017061 0.077720702
-0.0053580431 -0.14513341 0.073759586
0.061121434 -0.14315054 0.077578694
0.12601951 -0.14589304 0.072296463
0.17055899 -0.1464316 0.071259163
0.29202101 -0.12036821 0.074616447
-0.11076701 -0.085910738 0.077261686
-0.29202101 -0.078128085 0.071484774
-0.110767 -0.0064985948 0.075501531
0.24504811 0.17313428 0.077869564
-0.29202101 0.1878525 0.073371388
-0.037361465 0.28770599 0.07486432
0.0606803 -0.28770599 0.086911164
-0.29202101 -0.17922582 0.087474987
0.13606137 -0.13866769 0.086212948
-0.110767 -0.1187562 0.08962179
-0.29202101 -0.054759063 0.082828686
-0.29202098 0.031842723 0.080793031
-0.047531992 0.16589651 0.089203283
-0.29202101 0.22532208 0.085114121
-0.29202101 0.25601193 0.086483814
0.18912701 0.28770599 0.088465542
0.2651954 0.28770599 0.083165802
-0.10514345 -0.28770599 0.093444288
-0.29202101 -0.22570309 0.098877877
0.14502195 -0.13375898 0.095667414
0.16724607 -0.13593909 0.091468424
0.26434177 -0.13027863 0.099477105
-0.11076701 -0.084030569 0.092366502
0.29202101 -0.08794409 0.094935536
-0.110767 -0.067419186 0.093114108
-0.29202101 -0.01804772 0.090175554
-0.110767 0.11895409 0.097966053
0.14828882 0.15953907 0.099158481
0.16494265 0.15916233 0.099748433
-0.032330655 0.16061193 0.097478464
0.033477455 0.16051322 0.097633041
0.29202101 0.20519967 0.098821081
-0.19807619 0.28770599 0.095876038
-0.1897568 0.28770602 0.0990711
-0.15571065 0.28770599 0.093555979
0.14219186 0.28770599 0.09285228
0.28051299 0.28283569 0.092679955
-0.23710507 -0.28770599 0.10022038
-0.1443896 -0.28770599 0.10896066
0.052301437 -0.28770599 0.10428851
0.19799037 -0.28770599 0.10661489
-0.29202101 -0.13061774 0.10436814
0.22063982 -0.12138417 0.10920475
0.23507836 0.15543476 0.10523567
0.28051299 0.25931078 0.10021172
-0.28916243 0.28770599 0.10295904
-0.097721793 0.28770599 0.10381428
-0.074895829 0.28770599 0.10528874
-0.13334537 -0.28770599 0.11505158
0.17510176 -0.28770596 0.11468512
0.28528535 -0.19719046 0.11433007
0.29202101 -0.10452905 0.1130577
-0.29202101 -0.038760774 0.11886375
-0.110767 -0.01360864 0.11201097
-0.11076699 0.054295525 0.11093013
-0.110767 0.078896187 0.11194476
-0.29202101 0.084814213 0.11116483
0.1944789 0.14433721 0.11695777
-0.077782691 0.15084 0.1110116
0.29202101 0.1815604 0.11912536
-0.038695134 0.28770599 0.11082783
-0.070396617 -0.28770599 0.12296259
0.12964164 -0.28770599 0.12293328
0.17350821 -0.28770599 0.12471464
0.20285694 -0.28770599 0.12289816
0.099485204 -0.11001572 0.12163812
-0.065615892 -0.10939681 0.122315
0.029714942 -0.10527929 0.12681822
0.055336431 -0.10839854 0.12340678
0.22101243 -0.10877246 0.12299784
-0.29202101 -0.028829366 0.12200516
-0.11076699 -0.0030045765 0.12560911
-0.29202101 0.0021564141 0.12646028
-0.11076699 0.082756601 0.1222367
0.046702102 0.13636449 0.12424804
0.26354361 0.13301386 0.12731187
-0.29202101 0.17258495 0.12628347
0.29202101 0.20344809 0.1265222
-0.12168502 -0.28770599 0.13411804
0.040671334 -0.09666007 0.133894
0.055759884 -0.097108401 0.13360769
-0.0078822672 -0.088562332 0.13906524
-0.29202101 -0.044817358 0.13591179
0.29202101 -0.039581709 0.13806969
-0.29202101 0.01085734 0.13006869
-0.11076701 0.1067621 0.13724133
0.29202101 0.10116583 0.13294528
-0.038527973 0.12005468 0.13916175
0.1992349 0.12920871 0.13079131
0.2886737 0.20505086 0.13342263
0.28051299 0.24507277 0.13035242
-0.24985406 0.28770599 0.13554415
-0.045986697 0.28770599 0.13171792
0.04660498 0.28770599 0.13619334
0.054705821 -0.28770599 0.14354101
0.18844931 -0.28770596 0.1475343
-0.29202098 -0.17543945 0.1479481
0.29202101 -0.14513186 0.14058447
-0.021506451 -0.083524838 0.14228222
0.025597356 -0.081619486 0.14349899
0.039968468 -0.077222928 0.14630665
0.29202101 -0.029769126 0.14120606
-0.110767 -0.012433659 0.14100879
0.034522749 0.10261207 0.14877833
0.047699712 0.10581116 0.14711742
0.28051299 0.22447722 0.14628395
0.28051299 0.24976622 0.14089537
-0.26768786 0.28770599 0.1406443
-0.093819924 -0.28770599 0.15510793
0.28051299 -0.25415528 0.15726158
-0.29202101 -0.23833089 0.1511618
0.047471359 -0.064902499 0.15417454
0.28389308 -0.069167137 0.15145111
0.29202101 -0.024173111 0.15275699
-0.29202101 0.00056248903 0.15360595
-0.110767 0.011656886 0.15043455
0.058725819 0.081178844 0.15990607
0.29202101 0.10727716 0.15819116
-0.29202101 0.26527297 0.15026294
-0.2482339 0.28770599 0.15896544
-0.075455785 0.28770599 0.1583446
0.088581041 0.28770599 0.15870443
0.10603623 0.28770599 0.15786058
0.20109305 -0.28770599 0.16803592
0.28051299 -0.28192076 0.16984624
0.28051299 -0.26260287 0.16548888
0.10152374 -0.042760674 0.16213408
0.022625476 -0.039463215 0.16317765
0.040770672 -0.032946244 0.16524014
0.18212497 -0.038938485 0.16334371
-0.011816733 -0.02797302 0.16681406
0.069907114 -0.027400166 0.16699538
0.098922715 -0.029063694 0.16646889
0.15966599 -0.023523303 0.16822232
-0.042264346 0.05411436 0.1672304
0.043975346 0.060752019 0.16576642
0.11679723 0.066482991 0.16450241
0.044704385 0.077114999 0.16201596
0.10256752 0.075055383 0.16261172
-0.29202101 0.12247306 0.16554603
-0.29202101 0.1891485 0.16271979
0.28492111 0.18253982 0.16275951
0.28051299 0.26485729 0.16558143
-0.20643346 0.28770599 0.16788235
-0.17822179 0.28770599 0.16612098
0.11558044 0.28770599 0.16291103
0.20532425 0.28770599 0.16449478
0.25370452 0.28770599 0.16842264
0.27890056 0.28770599 0.16532093
-0.18688732 -0.28770599 0.17795894
-0.14993687 -0.28770599 0.1744765
-0.038272195 -0.28770599 0.17475307
-0.29202101 -0.25863841 0.17612787
-0.29202101 -0.2380067 0.17310365
0.28051299 -0.22439717 0.17258133
0.29202101 -0.12275834 0.17863843
-0.29202101 -0.10409947 0.17656842
0.29202101 -0.046515271 0.17801179
-0.29202101 -0.026914112 0.17902948
-0.083880886 -0.014087035 0.17046189
0.29123402 -0.016850218 0.17033422
0.22142747 -0.0035229539 0.17093435
0.087044984 0.0089159347 0.17149064
0.29202101 0.00018742029 0.17660727
0.17479251 0.021103386 0.17203568
0.1913486 0.028036233 0.17234573
-0.097016856 0.037901085 0.1708063
0.23166642 0.03614844 0.17119287
-0.29202101 0.2149805 0.17301902
0.28051299 0.27658734 0.17213076
-0.031774297 0.28770599 0.17921938
-0.28208798 -0.28770599 0.18138334
-0.23512848 -0.28770599 0.18470189
0.28051299 -0.23695418 0.18724629
-0.29202101 -0.17585519 0.18784755
-0.29202101 -0.0077842996 0.18412253
-0.29202101 0.013572022 0.18733291
0.29202101 0.052837897 0.18093929
-0.29202101 0.16705611 0.18556604
0.28051299 0.21851724 0.18971561
-0.28984776 0.28770599 0.1827597
-0.26232275 0.28770599 0.18003517
0.16504598 0.28770599 0.18662682
0.22016247 0.28770599 0.1805805
-0.11504184 -0.28770599 0.19293097
0.12732169 -0.28770599 0.19928959
0.14120889 -0.28770599 0.1954295
0.28051299 -0.22122985 0.19192043
0.28440955 -0.11949569 0.19618052
-0.29202101 -0.09901654 0.1945909
0.29202101 -0.091889769 0.19010992
-0.29202101 -0.012713641 0.19073908
-0.29202101 0.095629469 0.19766656
-0.26375175 0.28770599 0.19725698
-0.13299306 0.28770599 0.1919488
-0.11183643 0.28770599 0.19606921
0.09166839 0.28770602 0.19674635
0.17367449 0.28770599 0.19594842
0.26011747 0.28770599 0.19384861
0.0099286288 -0.28770599 0.20986454
-0.29202101 -0.27604195 0.20308982
-0.29202101 -0.21435258 0.20604794
-0.29202101 0.060521148 0.20586553
-0.29202101 0.19110768 0.20838632
0.28051299 0.19428039 0.2009629
-0.28458717 0.28770599 0.20525894
-0.074916169 0.28770599 0.20891595
-0.23745866 -0.28770596 0.21188813
0.0074397177 -0.28770599 0.21677268
-0.29202101 -0.087478675 0.21267173
0.28051299 0.11891772 0.21989077
0.28051299 0.21805574 0.21478456
-0.29202101 0.22257707 0.21058656
0.28051299 0.27398342 0.21660361
0.088644952 0.28770599 0.21191165
0.23664276 -0.28770599 0.2276973
-0.29202101 0.17532995 0.22033964
-0.29202101 0.27708507 0.22560228
-0.28943932 0.28770599 0.22820511
-0.11569132 -0.28770599 0.23998174
-0.092052802 -0.28770599 0.23789574
0.15629897 -0.28770599 0.23408398
0.27615252 -0.28770599 0.23259196
0.28051299 -0.26814085 0.23986493
0.28051299 -0.14212522 0.23231906
-0.29202101 0.15530121 0.23416984
-0.29202098 0.26491326 0.23484358
-0.01148393 0.28770599 0.23411044
0.050743002 0.28770599 0.23265943
-0.11785384 -0.28770599 0.24596372
-0.10232291 -0.28770599 0.24734339
-0.038593955 -0.28770599 0.24621449
0.18840618 -0.28770599 0.24636242
-0.29202101 -0.14475346 0.24772575
0.28051299 -0.0952188 0.24491595
-0.29202098 0.087182485 0.24585564
-0.20971265 0.28770599 0.24728714
-0.12098159 0.28770599 0.2491027
-0.045756832 0.28770599 0.24576633
0.02114214 0.28770599 0.24683797
0.15870178 0.28770599 0.24045636
-0.23045418 -0.28770599 0.25237074
-0.18302307 -0.28770599 0.25424373
-0.29202101 -0.10588201 0.25562608
-0.29202101 -0.072029054 0.25196412
-0.29202101 -0.056121111 0.25065815
0.28051299 0.07518585 0.25070247
-0.29202101 0.16398019 0.2580938
0.28051299 0.16841258 0.25716484
0.28051299 0.25942773 0.25906816
0.28051299 0.26340911 0.25930077
-0.12622535 0.28770599 0.25137368
-0.19106643 -0.28770599 0.26683113
-0.1704167 -0.28770599 0.26948342
-0.13613954 -0.28770599 0.26020998
-0.0707229 -0.28770599 0.26910529
0.0035956353 -0.28770599 0.26590097
0.019078627 -0.28770599 0.26957342
0.13258314 -0.28770599 0.26454169
0.25424549 -0.28770599 0.26084751
0.26252621 -0.28770599 0.26324126
0.28051299 0.12115747 0.26088509
0.28051299 0.25575775 0.26564226
0.10942886 0.28770599 0.26873592
0.17423734 0.28770602 0.26406777
0.19766748 -0.28770599 0.27254805
0.28051299 -0.25453141 0.2787326
0.28051299 -0.066431113 0.27461982
0.28051299 -0.0045761466 0.27639303
-0.29202101 0.10079893 0.27006707
-0.29202101 0.12962762 0.27985883
0.041161604 0.28770602 0.27543655
-0.24217813 -0.28592649 0.28626701
-0.092459254 -0.28770599 0.28004804
-0.047965076 -0.28770599 0.2847186
0.014263183 -0.28770599 0.28172335
0.047319695 -0.28500959 0.28626701
0.092623658 -0.28069848 0.28626701
0.19395421 -0.28524923 0.28626701
0.021218285 -0.27566645 0.28626701
0.20687939 -0.25330806 0.28626701
-0.094694532 -0.24333486 0.28626701
-0.1704099 -0.23574576 0.28626701
-0.1337699 -0.23577467 0.28626701
-0.056903675 -0.2396871 0.28626701
0.036026314 -0.23319629 0.28626701
0.28051302 -0.23083809 0.2861172
-0.024729118 -0.22269572 0.28626701
-0.24641922 -0.21583566 0.28626701
0.11619778 -0.21383394 0.28626701
0.26215592 -0.21953814 0.28626701
-0.20968539 -0.20621702 0.28626701
-0.1471484 -0.20184346 0.28626701
0.15447497 -0.20487928 0.28626698
0.25642854 -0.20717649 0.28626701
-0.28812879 -0.19764334 0.28626704
-0.21475938 -0.181841 0.28626701
0.21625328 -0.18798356 0.28626701
0.24789768 -0.1819053 0.28626701
-0.24974607 -0.17567304 0.28626701
-0.25893804 -0.16990693 0.28626701
0.2037172 -0.1699426 0.28626701
-0.083721302 -0.14657739 0.28626701
-0.20599824 -0.13686174 0.28626701
0.25514919 -0.13611288 0.28626701
0.18130495 -0.12581225 0.28626701
0.24930388 -0.12318318 0.28626701
-0.26417431 -0.11957585 0.28626701
0.16298215 -0.10219306 0.28626698
-0.17619622 -0.090113088 0.28626701
0.25961506 -0.09072502 0.28626701
0.11056679 -0.084381528 0.28626701
-0.2867727 -0.071033627 0.28626701
-0.0155458 -0.077031314 0.28626701
0.11355615 -0.074050263 0.28626701
-0.019011198 -0.067808077 0.28626701
-0.2617344 -0.054710288 0.28626701
-0.23368141 -0.057511196 0.28626701
0.050807364 -0.056162223 0.28626701
-0.2304987 -0.049286142 0.28626701
0.2683847 -0.048636474 0.28626701
-0.23511583 -0.030829489 0.28626701
-0.081872568 -0.030373868 0.28626701
-0.004247427 -0.033445239 0.28626701
-0.17043486 -0.028481923 0.28626701
-0.16410212 -0.021707967 0.28626701
-0.13926303 -0.027220141 0.28626701
0.091725975 -0.026597343 0.28626701
-0.23283884 -0.013676189 0.28626701
-0.17397858 -0.01473872 0.28626701
0.060858242 -0.010374464 0.28626701
0.045795679 0.0056438744 0.28626701
0.19220248 0.00047585368 0.28626701
0.24237451 0.0087834448 0.28626701
-0.13780025 0.011867836 0.28626701
-0.10866977 0.011389837 0.28626701
-0.080618329 0.019881532 0.28626701
-0.0037499107 0.012254758 0.28626701
0.11084005 0.010384694 0.28626701
0.27504426 0.018366529 0.28626701
-0.28450221 0.020829685 0.28626701
-0.27033043 0.02367042 0.28626701
-0.0047704168 0.02496746 0.28626704
-0.19013178 0.034369417 0.28626701
-0.10523602 0.030094571 0.28626701
0.21624434 0.046527475 0.28626701
-0.26339042 0.057679363 0.28626701
0.13792445 0.058651607 0.28626701
0.1523205 0.063764274 0.28626701
0.076608539 0.071530864 0.28626701
-0.26803577 0.09340325 0.28626701
-0.018383391 0.094796754 0.28626701
0.26704055 0.099535175 0.28626701
-0.02244572 0.1008909 0.28626701
0.20731616 0.1115357 0.28626701
-0.01749143 0.14379819 0.28626701
-0.016935743 0.15860558 0.28626701
0.0033305958 0.15498275 0.28626701
0.089136489 0.15280959 0.28626701
0.19838136 0.16218783 0.28626701
-0.26816499 0.17812136 0.28626701
-0.10132338 0.17114708 0.28626701
0.052088849 0.17291865 0.28626701
-0.26259255 0.18618552 0.28626701
-0.081493683 0.18619815 0.28626701
0.054876201 0.18320188 0.28626701
0.13891897 0.18506372 0.28626704
0.26181397 0.18629417 0.28626701
0.18625754 0.19066873 0.28626701
0.24990444 0.19120222 0.28626701
-0.056671336 0.20664328 0.28626701
-0.039632037 0.20388848 0.28626701
-0.0037407279 0.20558852 0.28626701
0.22051416 0.20000434 0.28626701
-0.17141789 0.22519632 0.28626701
0.17222649 0.2299529 0.28626701
-0.1552856 0.23379038 0.28626701
0.083362631 0.23410463 0.28626701
0.12612832 0.23410848 0.28626704
0.16251814 0.23117496 0.28626701
0.17974724 0.23910518 0.28626701
-0.14196895 0.24846718 0.28626701
0.16252558 0.24837732 0.28626701
-0.045703769 0.25282481 0.28626701
0.11371538 0.25169796 0.28626701
0.14512557 0.2536906 0.28626701
0.23353304 0.25722447 0.28626701
0.27009282 0.25266603 0.28626701
-0.27201748 0.26994437 0.28626701
-0.02104158 0.26603264 0.28626701
0.041938864 0.26888981 0.28626701
0.10703824 0.26932615 0.28626701
-0.10138631 0.27212894 0.28626701
-0.0087924153 0.27593452 0.28626701
0.069627486 0.28770599 0.28056887
0.085343279 0.28734016 0.28626704
