# .PCD v0.7 - Point Cloud Data file format
VERSION 0.7
FIELDS x y z
SIZE 4 4 4
TYPE F F F
COUNT 1 1 1
WIDTH 937
HEIGHT 1
VIEWPOINT 0 0 0 1 0 0 0
POINTS 937
DATA ascii
0.10180929 0.27509183 -0.25729549
0.098590627 0.29181081 -0.22931093
-0.11056922 -0.135625 0.0082352515
-0.098486543 -0.135625 0.0049243374
-0.03636571 -0.13441622 0.00355653
-0.00086108968 -0.13469847 0.00355653
0.010486398 -0.13218048 0.00355653
0.026820742 -0.135625 0.0053556813
0.039225303 -0.135625 0.0079783313
0.074337617 -0.13473067 0.00355653
0.08133509 -0.135625 0.0051813913
-0.033342354 -0.12161163 0.00355653
-0.0071843965 -0.12259278 0.00355653
0.080961183 -0.12687095 0.00355653
-0.086186156 -0.11532436 0.00355653
-0.053791858 -0.11420856 0.00355653
0.035393067 -0.11740756 0.00355653
0.059174106 -0.11357032 0.00355653
-0.11199196 -0.10224114 0.00355653
-0.063447379 -0.10682121 0.00355653
-0.006043667 -0.10389629 0.00355653
0.070781641 -0.1017997 0.00355653
-0.028751433 -0.092636839 0.00355653
-0.015499007 -0.094907857 0.00355653
0.043630697 -0.090867668 0.00355653
-0.11563828 -0.082796283 0.0035565298
-0.10961151 -0.089987531 0.00355653
0.037388816 -0.085107945 0.00355653
0.064496338 -0.073983416 0.00355653
-0.00048140064 -0.064205095 0.00355653
0.012345254 -0.066424087 0.00355653
0.080719762 -0.06306906 0.00355653
-0.056695838 -0.05369582 0.00355653
0.018121935 -0.051341046 0.00355653
0.054806419 -0.054679293 0.00355653
0.085745297 -0.059025723 0.00355653
-0.030401394 -0.043223388 0.00355653
0.05008544 -0.046603274 0.00355653
0.060654961 -0.042367801 0.00355653
0.077750981 -0.042258807 0.00355653
0.10228358 -0.04490371 0.00355653
0.032160729 -0.031112526 0.00355653
0.058724441 -0.038309339 0.00355653
0.060781509 -0.034427863 0.00355653
0.097691193 -0.038036644 0.00355653
-0.032263666 -0.026475474 0.00355653
0.012110382 -0.026523205 0.00355653
0.069643199 -0.024912316 0.00355653
-0.12968262 -0.010722764 0.00355653
-0.079012185 -0.016855776 0.00355653
-0.065156735 -0.011611484 0.00355653
0.0038014092 -0.014458731 0.00355653
0.055182364 -0.01764892 0.00355653
-0.078345105 -0.0018159971 0.00355653
-0.11869039 0.0096163005 0.00355653
0.0072760992 0.0064404309 0.00355653
0.022036711 0.0068106502 0.00355653
-0.079615586 0.015686318 0.00355653
-0.040782668 0.011572424 0.00355653
-0.00058145076 0.02500871 0.00355653
0.042349242 0.024506498 0.00355653
0.068275407 0.025656281 0.00355653
0.04476374 0.03305696 0.00355653
0.053677745 0.038002335 0.00355653
-0.10009272 0.046534743 0.00355653
-0.097951785 0.047938641 0.00355653
0.012075231 0.04123449 0.00355653
0.089786202 0.04378143 0.0035565298
-0.13575676 0.054771706 0.00355653
0.044998877 0.053010836 0.00355653
0.075008921 0.053783257 0.00355653
0.081992194 0.052796815 0.00355653
0.095092043 0.059671633 0.00355653
-0.11265995 0.062259249 0.00355653
-0.059053078 0.061915718 0.00355653
0.046406563 0.063248768 0.00355653
-0.142593 0.073588982 0.0069984673
-0.066650599 0.074883714 0.00355653
0.010143207 0.071396604 0.00355653
0.052735731 0.077611685 0.00355653
-0.07080479 0.086277343 0.00355653
-0.01236539 0.087687775 0.00355653
-0.0023053121 0.083142713 0.00355653
0.019746155 0.0866457 0.00355653
0.070621997 0.085336939 0.00355653
-0.082964092 0.097945116 0.00355653
-0.051838245 0.092807174 0.00355653
-0.042583767 0.090111181 0.00355653
0.12367769 0.099924609 0.00355653
-0.12517327 0.10326175 0.00355653
0.049676411 0.10672005 0.00355653
0.094909921 0.10031593 0.00355653
-0.1416055 0.11787498 0.00355653
-0.038413391 0.11602616 0.00355653
0.023296192 0.11946959 0.00355653
0.039254591 0.11923007 0.00355653
0.060638044 0.11722008 0.00355653
-0.142593 0.12368095 0.0057158507
-0.12328038 0.12095633 0.00355653
-0.1073083 0.12110047 0.00355653
-0.057860177 0.12514953 0.0035565298
-0.0098182186 0.12901483 0.00355653
0.055014975 0.12180512 0.00355653
0.10179469 0.12510705 0.00355653
0.071291007 0.13034694 0.00355653
0.11108079 0.13059305 0.00355653
-0.092335053 0.14340794 0.00355653
-0.050803397 0.14225534 0.00355653
0.074451745 0.14859542 0.00355653
0.1140641 0.14223897 0.00355653
-0.096090682 0.15742108 0.00355653
0.0047867745 0.15143478 0.00355653
0.027977567 0.15500571 0.00355653
0.042114466 0.15992013 0.00355653
0.078985661 0.15460917 0.00355653
-0.068127275 0.16408947 0.00355653
0.08874166 0.16727132 0.00355653
-0.024857298 0.17305689 0.00355653
0.031185422 0.17232612 0.00355653
0.056172743 0.17447869 0.00355653
-0.11632495 0.18171561 0.00355653
-0.10879259 0.18379861 0.00355653
-0.096018307 0.18521667 0.0035565302
-0.089573696 0.18047841 0.00355653
-0.032755386 0.1858618 0.00355653
-0.00063415989 0.18583775 0.00355653
0.012212683 0.18533164 0.00355653
0.047915503 0.18174586 0.00355653
-0.13092439 0.19840963 0.00355653
-0.07027667 0.1994791 0.00355653
0.1085563 0.19079718 0.00355653
-0.10252154 0.20303133 0.00355653
0.11018544 0.20358333 0.00355653
-0.14189117 0.21565807 0.00355653
0.0095850565 0.21582364 0.00355653
0.041718118 0.21117255 0.00355653
0.079427883 0.21958362 0.00355653
-0.13371567 0.22326538 0.00355653
-0.025230478 0.22690055 0.00355653
0.027212707 0.22203371 0.00355653
0.036866739 0.22747391 0.00355653
0.085994951 0.22783005 0.00355653
-0.076875813 0.23098244 0.00355653
0.04293393 0.23881194 0.00355653
0.06376572 0.23092473 0.00355653
0.099133432 0.24635494 0.00355653
-0.11016291 0.25132471 0.00355653
-0.14069507 0.26943344 0.00355653
-0.084477976 0.2617017 0.00355653
-0.016638912 0.26458842 0.00355653
-0.0019876808 0.26410216 0.00355653
0.0066072438 0.26386881 0.00355653
-0.075144611 0.27331731 0.00355653
-0.022790356 0.27691498 0.00355653
-0.019179326 0.27857733 0.00355653
-0.052296732 0.28050363 0.00355653
-0.043419078 0.28709924 0.00355653
-0.13476412 0.29336044 0.0035565302
-0.10483746 0.29018492 0.00355653
-0.07683526 0.29189426 0.00355653
0.075687125 0.29716337 0.00355653
0.066480793 0.30365285 0.00355653
0.0053732656 0.31133601 0.0062121716
0.059391819 0.31133601 0.0045612981
-0.142593 -0.13260107 0.011652064
0.055438854 -0.135625 0.01060324
0.12385946 -0.10709342 0.016652193
0.12551711 -0.078041248 0.016602399
0.12687254 -0.052864417 0.017613893
0.11644956 -0.032591917 0.012918585
0.12082942 -0.032045092 0.011491111
-0.142593 -0.011914581 0.012177351
0.12748952 -0.019611193 0.016966473
-0.142593 0.010539868 0.012035865
-0.142593 0.19358349 0.019520096
0.10567773 0.25265115 0.018484958
0.097532332 0.29480138 0.018975835
-0.092185572 0.31133601 0.015136695
-0.03156108 0.31133601 0.011632706
-0.1161551 -0.135625 0.021348741
-0.08310096 -0.135625 0.023899321
0.060368754 -0.135625 0.022248132
0.11442778 -0.135625 0.029826252
0.12214534 -0.12617171 0.022759961
0.12418079 -0.1028633 0.027277686
0.12537649 -0.080653206 0.023002103
-0.142593 -0.060664073 0.02282105
0.10753163 -0.041970387 0.029985676
0.1149721 -0.039723787 0.02412094
0.12770276 -0.0077132764 0.020043826
0.12754259 0.016650073 0.028234702
0.1274419 0.02226742 0.029085899
-0.142593 0.057731591 0.022586497
0.12624595 0.064507902 0.027863247
0.12527472 0.082548156 0.027894076
0.12453365 0.096312962 0.02514464
-0.142593 0.20277759 0.022240648
0.10158365 0.27452022 0.025504459
-0.043791674 0.31133601 0.025344316
-0.10624266 -0.135625 0.03111542
-0.085220672 -0.135625 0.035816975
-0.021339871 -0.135625 0.032379854
-0.014311813 -0.135625 0.034602284
0.057905622 -0.135625 0.03556478
0.12227751 -0.12470082 0.038680367
-0.142593 -0.11194797 0.033124935
0.12474577 -0.092367694 0.030953186
-0.142593 -0.076172158 0.036756799
0.12769142 -0.0083457325 0.031833749
-0.142593 0.035488896 0.039039936
0.12723956 0.033558328 0.032111656
-0.142593 0.053355552 0.03454281
-0.142593 0.063449338 0.037002664
0.12424721 0.10163474 0.038124159
0.12217793 0.12580943 0.033601951
0.1214496 0.13391593 0.034508813
-0.142593 0.21097961 0.03459648
-0.142593 0.25838551 0.034692023
-0.142593 0.28411812 0.03205809
-0.050558578 0.31133601 0.036604352
0.06257458 0.31133598 0.036529377
-0.10508376 -0.135625 0.04826536
-0.02595932 -0.135625 0.04407911
0.053540863 -0.135625 0.043925319
0.097901136 -0.135625 0.048843168
0.12228113 -0.12466048 0.043691307
-0.142593 -0.067501269 0.041318804
0.12691577 -0.051622447 0.04085974
0.10864182 -0.047276519 0.04383732
-0.142593 0.0012182649 0.049625412
-0.142593 0.017260738 0.041282058
0.11880425 0.16140687 0.041130897
-0.142593 0.28062123 0.042789973
-0.068987057 0.31133604 0.046853103
-0.052251335 0.31133601 0.043263011
-0.020693526 0.31133601 0.042821843
0.014896505 0.31133601 0.041238602
0.080254994 0.31133601 0.048827559
-0.12831779 -0.135625 0.057423916
-0.081400044 -0.135625 0.053567592
-0.0087123215 -0.135625 0.051356286
0.020878155 -0.135625 0.050879095
0.12271604 -0.11981986 0.051872343
0.12591752 -0.070598468 0.058241736
0.11006119 -0.051000282 0.053558189
-0.142593 -0.038126633 0.055248819
0.12714869 0.038628291 0.052969545
0.12705109 0.044073045 0.054203577
-0.142593 0.087485865 0.059137717
0.12013825 0.14851215 0.054076571
0.11669448 0.17813219 0.0561767
-0.142593 0.20482293 0.05260111
0.1130519 0.20701018 0.058251683
-0.142593 0.2198613 0.051890541
0.11220873 0.21251483 0.050802894
-0.142593 0.24524446 0.050471619
-0.142593 0.27539232 0.056374051
-0.142593 0.29064715 0.058508515
-0.041867066 0.31133601 0.055292588
-0.017426066 0.31133601 0.05030863
-0.1056258 -0.135625 0.067919947
-0.07638789 -0.135625 0.063004069
-0.019264147 -0.135625 0.061073367
0.10009203 -0.135625 0.068285435
0.12294866 -0.11723083 0.06012034
-0.142593 -0.060249679 0.062879361
-0.142593 -0.058707818 0.065587513
0.11205426 -0.051639494 0.063510954
0.12758705 0.014157239 0.060057528
-0.142593 0.040656697 0.069198519
0.1262591 0.064264759 0.063447714
0.12508729 0.086035937 0.066886857
-0.142593 0.16497003 0.061239585
0.11329854 0.20505521 0.06748084
-0.10562327 0.31133604 0.061556801
-0.0084817037 0.31133601 0.065357767
-0.1398305 -0.135625 0.075179882
-0.092313007 -0.135625 0.075073101
0.053293444 -0.135625 0.074665576
-0.142593 -0.1050758 0.077815868
-0.142593 -0.090764314 0.071710274
0.12450428 -0.054247878 0.075202815
0.12723005 -0.034087889 0.074688949
0.12734295 -0.027787976 0.078136109
0.12757193 -0.015012242 0.071082994
-0.142593 0.080063611 0.071641482
0.12486842 0.090103567 0.079212449
-0.142593 0.12920471 0.078933075
0.11221431 0.21248093 0.072139621
-0.142593 0.23256265 0.078833081
-0.142593 0.28895834 0.07177864
-0.062286049 0.31133604 0.075529642
-0.0021349434 0.31133601 0.075424477
-0.10043561 -0.135625 0.08393006
0.04970767 -0.135625 0.086609133
0.069926828 -0.135625 0.081223801
0.071036063 -0.135625 0.083226383
-0.142593 -0.10920299 0.088767134
0.12536226 -0.080916911 0.08694955
-0.142593 -0.069301754 0.083458781
0.12532744 -0.059074111 0.08410266
-0.142593 0.038325526 0.084238775
0.11496106 0.19187292 0.082996748
0.11247537 0.21087718 0.087648489
0.096990861 0.29751268 0.086835422
0.094879366 0.30808175 0.08663702
-0.020334397 0.31133601 0.08415696
-0.00034747645 0.31133601 0.084480889
-0.13525972 -0.135625 0.095330119
-0.10401122 -0.135625 0.099045716
-0.037783679 -0.135625 0.090613574
-0.018112211 -0.135625 0.090614088
0.00014170073 -0.135625 0.097345576
0.066512607 -0.135625 0.094669044
0.076754436 -0.135625 0.097211182
-0.142593 -0.016159851 0.093470961
-0.142593 0.0050246902 0.099722393
0.12721358 0.034998164 0.095472664
-0.142593 0.072832152 0.093919225
0.10272732 0.090536408 0.097580701
0.11709332 0.10727365 0.09849149
0.12207709 0.10253082 0.09786725
0.12359484 0.11004217 0.095938481
0.12098445 0.13909563 0.092568532
0.1203943 0.14566159 0.092749991
-0.142593 0.16800447 0.092304945
-0.142593 0.27358451 0.097412392
-0.082487315 0.31133601 0.091008395
-0.034674898 0.31133601 0.092716232
0.029206224 0.31133601 0.093351558
0.036771286 0.31133601 0.097047135
0.056842819 0.31133601 0.093490183
0.084895357 0.31133601 0.097133204
-0.11615737 -0.135625 0.101511
-0.026216395 -0.135625 0.10494632
-0.003585089 -0.135625 0.10310867
-0.142593 -0.12536696 0.10329558
-0.142593 -0.10736305 0.10662244
-0.142593 -0.080050029 0.103713
0.12764086 0.011159704 0.10045104
-0.142593 0.028328612 0.1022552
0.10836698 0.061705973 0.10416338
-0.142593 0.11170453 0.10839982
0.11816961 0.16643536 0.10446551
0.10984119 0.22706336 0.10675016
-0.142593 0.2305447 0.10268936
-0.142593 0.26774317 0.10689715
0.099020839 0.29102725 0.10575418
0.0054151155 0.31133601 0.10345474
-0.071607664 -0.135625 0.11700334
-0.028606752 -0.135625 0.11663096
0.027513903 -0.135625 0.11476076
-0.142593 -0.031473923 0.11357138
0.12493131 0.042824041 0.11427873
-0.142593 0.079789028 0.11034589
-0.142593 0.15340027 0.11051787
-0.142593 0.16692357 0.11572403
0.11491786 0.19221723 0.11733715
0.10559751 0.25314286 0.11711963
-0.142593 0.26742458 0.11322228
-0.142593 0.2958585 0.11511148
-0.010309041 0.31133601 0.11562898
0.0080444338 0.31133601 0.11828706
-0.10166313 -0.135625 0.12865949
-0.014553715 -0.135625 0.12241222
-0.0092688724 -0.135625 0.12431512
0.12546554 -0.078997284 0.12814072
-0.142593 -0.030841943 0.12400575
-0.142593 -0.026392361 0.12760063
0.12770087 0.0078059887 0.12365245
0.12758915 0.014042651 0.12371816
0.10830068 0.029932 0.12432312
-0.142593 0.10851544 0.12237597
-0.142593 0.13917857 0.12570488
-0.142593 0.19850905 0.12554568
0.11332203 0.20480706 0.12448652
-0.142593 0.21316391 0.12556732
0.11123241 0.21851498 0.12465025
-0.142593 0.22532627 0.12207876
0.10788517 0.23908496 0.12321559
0.10165554 0.27626669 0.12007565
-0.142593 0.31105185 0.12662223
-0.13310972 0.31133601 0.12523583
-0.12512521 0.31133601 0.12340564
-0.05198741 0.31133601 0.12316621
-0.032892801 -0.135625 0.13653591
0.051193543 -0.135625 0.13070674
0.12186088 -0.12933809 0.13147214
-0.142593 -0.087878272 0.13804197
0.12519485 -0.084027179 0.13897017
0.11173332 -0.068810374 0.13965194
0.12393473 -0.069348663 0.13818246
-0.142593 -0.038987041 0.13638337
-0.142593 0.032292686 0.13189064
-0.142593 0.14821585 0.13513127
-0.142593 0.17433184 0.13843584
-0.142593 0.18903796 0.13531493
0.1156176 0.1866693 0.13865301
0.11349115 0.20352978 0.13775161
0.105124 0.25605294 0.13324909
-0.142593 0.26970324 0.13428839
0.10148607 0.27623287 0.13847826
-0.142593 0.2836583 0.13276394
0.096714504 0.29889661 0.13251467
0.095938258 0.30278143 0.13603488
-0.014008164 0.31133601 0.13984841
0.026815925 0.31133601 0.13255149
-0.052794605 -0.135625 0.14278264
-0.0047546318 -0.135625 0.14597112
0.029206999 -0.135625 0.1460371
0.11312705 -0.135625 0.14628631
0.12243284 -0.12297209 0.1461737
-0.142593 -0.095691554 0.14331865
-0.142593 -0.08146736 0.14716211
-0.142593 -0.045110468 0.14638016
-0.142593 0.095914051 0.14180361
-0.142593 0.13148047 0.14812946
0.11603722 0.1833422 0.14034784
0.11103763 0.21971212 0.14215547
-0.142593 0.23254007 0.14547859
0.10816931 0.23733877 0.140448
0.10671875 0.24625306 0.1416833
0.10472041 0.2585333 0.14039187
-0.142593 0.26548195 0.14561872
-0.142593 0.29701093 0.14614773
-0.142593 0.3106398 0.14286505
-0.10782535 0.31133601 0.14194562
-0.031426489 0.31133601 0.14542848
0.023178421 0.31133598 0.14947349
-0.12690845 -0.135625 0.15089278
-0.055121843 -0.135625 0.15715204
-0.142593 -0.12100923 0.15371116
0.12313141 -0.11519688 0.15874332
0.12511691 -0.085474983 0.1520558
0.106607 -0.069452293 0.15783179
0.12612876 -0.066679463 0.15275554
0.12727031 -0.031841099 0.15735871
0.12748563 -0.019828919 0.15754181
-0.142593 0.057632357 0.15814964
-0.142593 0.083471522 0.15128374
-0.142593 0.12364569 0.15534161
-0.142593 0.17655349 0.15439096
0.11521526 0.1898613 0.15411946
-0.142593 0.23160689 0.15695174
0.099258646 0.28615934 0.15398271
-0.13492747 -0.135625 0.16054828
-0.10103615 -0.135625 0.16919841
-0.023448043 -0.135625 0.16680029
0.055919245 -0.135625 0.1636841
0.098342225 -0.135625 0.16766049
0.1066585 -0.070302188 0.16000707
0.12744969 -0.021834962 0.16719764
0.12773582 0.0057419557 0.16985323
-0.142593 0.035267983 0.16062115
-0.142593 0.05940751 0.16054395
-0.142593 0.0742281 0.16392788
-0.142593 0.20288998 0.16305196
0.10734671 0.24239391 0.16574219
-0.142593 0.26970026 0.16120681
0.094526179 0.30985096 0.16606322
-0.11745085 0.31133601 0.16826114
-0.088873714 0.31133601 0.16892391
-0.068742007 0.31133601 0.16488197
-0.02136567 0.31133601 0.16775882
0.002978202 0.31133601 0.16750385
-0.028798928 -0.135625 0.17380403
-0.0069558937 -0.135625 0.17558974
0.023505107 -0.135625 0.17492035
0.11101252 -0.135625 0.17216465
0.12297948 -0.068429865 0.17321891
0.12670839 -0.055913534 0.17914888
-0.142593 0.12598225 0.17038353
-0.142593 0.1398631 0.17448476
-0.142593 0.14839545 0.17263362
0.11509085 0.19084886 0.17120175
0.1059631 0.25089714 0.17699228
0.10263407 0.26926151 0.17706135
-0.142593 0.27433237 0.17441049
0.10009372 0.28197894 0.17770422
-0.142593 0.30366796 0.17714176
-0.13962021 0.31133601 0.17068398
-0.070099652 0.31133601 0.17659555
-0.05900868 0.31133601 0.17127775
-0.11463545 -0.135625 0.18824485
0.035984375 -0.135625 0.18417302
0.055295132 -0.135625 0.18480521
0.12578449 -0.073072463 0.18818782
0.12538575 0.0035147357 0.18676947
-0.142593 0.022051394 0.1800199
-0.142593 0.045876417 0.18727215
0.098684534 0.28903461 0.18765312
-0.066790849 0.31133601 0.18464595
0.083763272 0.31133601 0.18248467
-0.13119122 -0.135625 0.19493611
-0.11042809 -0.135625 0.19152302
0.044843636 -0.135625 0.1945371
0.062026955 -0.135625 0.19772243
0.071265176 -0.135625 0.198089
-0.142593 -0.12730068 0.19115002
0.12416418 -0.10317191 0.19744685
-0.142593 -0.09077429 0.19816244
0.12457903 -0.095466234 0.19776526
0.12515873 -0.084698409 0.1935887
0.10884977 -0.07115601 0.19579917
-0.142593 -0.063110247 0.19294858
-0.142593 -0.05033176 0.19325326
-0.142593 -0.023842189 0.1911156
-0.142593 0.11908178 0.19607621
-0.142593 0.12261912 0.19425873
-0.142593 0.30219233 0.1930123
-0.13044681 0.31133601 0.19985858
-0.095921427 0.31133601 0.19295818
0.066323251 0.31133601 0.19288267
0.08116363 0.31133598 0.19027792
-0.07591188 -0.135625 0.20010501
0.039838634 -0.135625 0.2064402
0.045567602 -0.135625 0.20674911
-0.142593 0.094678178 0.2022315
-0.142593 0.18077171 0.20050874
-0.142593 0.28897083 0.20540304
0.098508894 0.28991434 0.20094022
-0.142593 0.29450086 0.20692264
-0.082195602 0.31133601 0.20077449
-0.028813176 0.31133601 0.20467286
-0.011520844 0.31133598 0.20746712
0.077379987 0.31133601 0.20086262
-0.071402796 -0.135625 0.21624884
0.10076637 -0.135625 0.21267238
0.12281092 -0.11876402 0.21032859
-0.142593 -0.075607792 0.21750696
0.11439194 -0.069808282 0.21418801
0.12413186 -0.069802634 0.21426497
-0.142593 -0.041827433 0.21897766
-0.142593 0.056502812 0.2168148
-0.142593 0.18519881 0.21576588
0.10824192 0.18277282 0.21734825
0.11358705 0.20277117 0.21218675
-0.142593 0.23016067 0.21101281
-0.14164633 0.31133604 0.21012466
-0.13080825 0.31133601 0.21834528
0.020482268 0.31133601 0.21700591
-0.142593 -0.13370563 0.22837333
-0.13969156 -0.135625 0.22473404
-0.12685975 -0.135625 0.227245
-0.011423651 -0.135625 0.22896619
-0.0055666957 -0.135625 0.22762083
0.014369067 -0.135625 0.22151901
0.048291419 -0.135625 0.22319454
0.088529721 -0.135625 0.22112876
0.12732804 -0.028623469 0.2279985
-0.142593 0.042152137 0.22673862
-0.142593 0.050076306 0.22181949
-0.142593 0.15927051 0.22982022
-0.142593 0.16536458 0.22749838
0.10235381 0.27066648 0.22447437
0.098537982 0.28976709 0.22352582
0.096719608 0.29887092 0.22760633
-0.14051794 0.31133601 0.22821206
-0.057879128 0.31133601 0.22586736
-0.032942303 0.31133601 0.22893044
0.012627713 0.31133601 0.2227131
-0.076667421 -0.135625 0.2383616
-0.044501394 -0.135625 0.23283239
0.10128081 -0.135625 0.239333
0.12428091 -0.1010035 0.23361921
0.12461951 -0.094714142 0.23436722
0.12766007 -0.010092254 0.23307663
-0.142593 -0.0053431289 0.23996699
-0.142593 0.0075111198 0.23903076
-0.142593 0.13346806 0.23419437
-0.142593 0.24754988 0.23388603
0.10747404 0.24160857 0.23465501
-0.142593 0.28571779 0.23400065
0.094387859 0.30213344 0.238888
-0.082234159 0.31133601 0.23520762
-0.03328032 0.31133601 0.23196802
-0.044726528 -0.135625 0.24256855
0.065768793 -0.135625 0.24857759
-0.142593 -0.12134815 0.24320774
0.12463576 -0.094412178 0.24340519
-0.142593 -0.062284954 0.24407105
-0.142593 -0.050859727 0.24264725
-0.142593 -0.02647366 0.2428734
-0.142593 -0.01382485 0.24030414
0.1275503 0.016204368 0.24918285
-0.142593 0.04704085 0.24144405
0.11667064 0.1783199 0.24711102
0.10670408 0.2463423 0.24108176
0.1001116 0.28188941 0.24001932
-0.142593 0.30681875 0.24938795
-0.096798226 0.31133601 0.2401603
0.018418238 0.31133601 0.24408679
0.024397079 0.31133601 0.24713163
0.059203971 0.31133601 0.24390785
-0.10342553 -0.135625 0.25049481
-0.085616708 -0.135625 0.25955096
-0.03899692 -0.135625 0.2507402
-0.014335549 -0.135625 0.2568779
0.045308169 -0.135625 0.25116485
0.12224597 -0.064313971 0.25986588
-0.142593 -0.0073797214 0.25256285
-0.142593 0.017383285 0.25369632
-0.142593 0.035582751 0.25360554
-0.142593 0.099978738 0.25990832
0.11144353 0.21721986 0.25209913
-0.142593 0.24622932 0.25754008
-0.142593 0.25846165 0.2575489
-0.142593 0.27658311 0.25858325
-0.142593 0.29923627 0.25367257
-0.13158298 0.31133601 0.2586109
0.022607101 0.31133601 0.25680861
0.036235731 0.31133601 0.25455043
-0.0090368167 -0.135625 0.26369065
0.074547134 -0.135625 0.26844767
-0.142593 -0.12182745 0.26243374
0.12220054 -0.12555784 0.26677668
-0.142593 -0.10270646 0.26903751
0.12602335 -0.068637952 0.26877254
0.1105098 -0.059630644 0.26812595
-0.142593 0.083372042 0.26558447
-0.142593 0.097685158 0.26823086
0.1085567 0.14155577 0.26907653
-0.142593 0.17546459 0.26254597
0.11523928 0.18967053 0.26397249
0.11435169 0.19671056 0.26114476
-0.142593 0.20824099 0.26112658
-0.142593 0.21665081 0.26808339
-0.142593 0.23790845 0.26311469
0.10166321 0.27412239 0.26977614
-0.10858135 0.31133601 0.26943597
-0.08368054 0.31133601 0.26992562
-0.034548242 0.31133601 0.26927179
-0.024746638 0.31133601 0.26622057
0.051967539 0.31133601 0.26087642
-0.080795221 -0.135625 0.27553141
0.038988985 -0.135625 0.27985236
-0.142593 -0.11729908 0.27500987
-0.142593 -0.094642222 0.27838078
0.12737522 -0.025985509 0.27256909
0.12775685 0.0046836496 0.27586976
0.11768852 0.10927673 0.27960867
-0.142593 0.12436132 0.27526912
0.10369132 0.12591681 0.27555475
0.11412002 0.19854744 0.27425808
-0.142593 0.2110551 0.27161312
-0.142593 0.25343677 0.27509862
-0.142593 0.30114987 0.27252072
-0.11013615 0.31133601 0.27756488
-0.086982593 0.31133601 0.27493265
-0.06023553 0.31133601 0.27552027
-0.041053504 0.31133601 0.27950853
0.024413707 -0.135625 0.28647456
0.062429745 -0.135625 0.2878117
0.10644725 -0.135625 0.28304833
0.11680517 -0.135625 0.285597
-0.142593 -0.12377427 0.28321174
-0.142593 -0.087069564 0.28799438
-0.142593 -0.0078291446 0.28051248
-0.142593 0.00022966973 0.28340864
-0.142593 0.048694689 0.28947625
-0.142593 0.13827257 0.28270683
0.1173005 0.17332505 0.2836915
-0.142593 0.23281658 0.2863704
0.10649171 0.24765047 0.28312886
0.10446812 0.26008195 0.28005591
0.039401662 0.31133601 0.28052711
-0.13340701 -0.135625 0.29765758
0.050471835 -0.135625 0.29332319
0.072549634 -0.135625 0.29145744
0.10638571 -0.135625 0.2914052
0.12215534 -0.1260609 0.29280123
0.12692684 -0.051010542 0.29887491
-0.142593 -0.010730408 0.29180709
0.12127513 0.13585547 0.29832384
0.1201864 0.14797096 0.29177648
-0.142593 0.23248807 0.29496542
-0.142593 0.24725875 0.29596993
-0.142593 0.28085661 0.29403245
0.017892465 0.31133601 0.29276443
-0.098845348 -0.135625 0.30533406
-0.087081447 -0.135625 0.30655152
-0.0083678253 -0.135625 0.30687398
0.0017731413 -0.135625 0.30478725
0.014692511 -0.135625 0.30130011
0.12331653 -0.11313641 0.30131933
0.12391815 -0.10644019 0.30055976
0.12729108 -0.030679945 0.30638584
-0.142593 0.18546343 0.3007454
0.069969423 0.31133601 0.30411297
-0.069747604 -0.135625 0.31670713
-0.031510178 -0.135625 0.31474853
0.057486456 -0.135625 0.316356
-0.142593 -0.083050452 0.31807214
-0.142593 -0.066100545 0.31384248
-0.142593 -0.053442512 0.31817138
0.11093681 -0.047276035 0.3162044
0.12714815 -0.038660116 0.31443837
0.12703872 0.04474907 0.31860027
0.1255367 0.077684075 0.31792715
-0.142593 0.08274629 0.31726
-0.142593 0.1210422 0.3119894
0.12001063 0.14992601 0.31928435
-0.142593 0.16385737 0.31185383
0.11856882 0.16326961 0.31425893
-0.142593 0.22506706 0.31543249
0.097633757 0.2942943 0.31154382
-0.12456298 0.31133598 0.31889224
-0.11003917 0.31133601 0.31286871
-0.085313313 0.31133601 0.31012982
0.0093913078 0.31133604 0.31047603
0.033942424 0.31133601 0.31203097
-0.14124924 -0.135625 0.32425636
-0.037294842 -0.135625 0.32060197
-0.0088053308 -0.135625 0.32890612
0.033158261 -0.135625 0.32965779
0.043121159 -0.135625 0.32035202
0.084432989 -0.135625 0.32648158
0.11756814 -0.135625 0.32813662
0.12409995 -0.10436492 0.32082409
-0.142593 -0.073072366 0.32862791
0.12653847 -0.059069574 0.32704628
0.11678421 -0.047827929 0.32217914
0.12725174 -0.032876056 0.32258382
-0.142593 -0.0098712966 0.32495627
-0.142593 0.0084753148 0.32169718
-0.142593 0.020836329 0.32487997
0.12692922 0.050849628 0.32453158
0.12600869 0.068917133 0.32198617
0.11800058 0.16777349 0.32641318
-0.142593 0.17287724 0.32780319
0.11710383 0.17488471 0.32474402
0.10585782 0.23078807 0.32524654
-0.142593 0.26093763 0.3259078
0.10336851 0.2655859 0.32613
0.099153697 0.28668436 0.3290664
0.10001381 0.2823782 0.32608348
-0.142593 0.29408836 0.32574335
0.095603682 0.30445659 0.32875112
-0.036911223 0.31133601 0.32318825
0.016530192 0.31133601 0.32218909
0.030100221 0.31133601 0.32350677
-0.12498427 -0.135625 0.33043674
-0.10588716 -0.135625 0.33432567
0.070093632 -0.135625 0.33192348
0.12681517 -0.053925961 0.33324558
0.12764893 0.010712477 0.33490589
-0.142593 0.0303357 0.33518106
-0.142593 0.14372568 0.33611256
0.10363177 0.23041898 0.33738601
0.10629115 0.24888508 0.33067942
0.098669313 0.28911051 0.33080018
-0.094510436 0.31133601 0.3313607
-0.049632385 0.31133604 0.33382887
-0.021932293 0.31133601 0.33719349
-0.12928738 -0.135625 0.34416488
-0.082460083 -0.135625 0.34789634
-0.062857918 -0.135625 0.34089726
-0.031834807 -0.135625 0.34193522
-0.023286141 -0.135625 0.3435162
0.017296564 -0.135625 0.34268743
0.11065079 -0.135625 0.34019449
0.1214393 -0.13403058 0.34537822
0.12364136 -0.10952095 0.34724653
-0.142593 -0.074971467 0.34262806
0.12546548 -0.079000272 0.34937751
-0.142593 -0.058163926 0.34189427
-0.142593 0.011533186 0.34645358
0.12758391 0.014342259 0.34545857
0.12516242 0.084629782 0.34540844
-0.142593 0.10724939 0.34764543
0.12193571 0.12850042 0.34944201
0.12062953 0.1430354 0.34220177
0.11906722 0.15931511 0.34851825
-0.142593 0.18133035 0.34985548
0.11077037 0.2213577 0.34964666
-0.142593 0.23285493 0.3469764
0.1039445 0.26270449 0.34194446
-0.142593 0.30411324 0.34127298
-0.097502016 0.31133601 0.34561402
0.054662071 0.31133598 0.3423588
0.075140454 -0.135625 0.35174093
-0.142593 -0.12182837 0.3513101
-0.142593 -0.091810346 0.35219628
-0.142593 -0.085272431 0.35768268
-0.142593 -0.054701213 0.3566286
0.12626129 0.064218566 0.35865051
-0.142593 0.097374596 0.35496429
0.12456179 0.095786467 0.35506287
-0.142593 0.11556157 0.35396713
-0.142593 0.12712944 0.35267347
-0.142593 0.13912787 0.35283256
-0.142593 0.14535844 0.35730559
0.12081753 0.14094354 0.35330427
0.11686823 0.17675309 0.35358578
0.11645244 0.18005025 0.35773683
0.11234064 0.21170948 0.35436046
0.1018135 0.27337277 0.35556674
0.0094876774 0.31133601 0.35951167
-0.12225663 -0.1307741 0.36390001
0.095544793 -0.1332573 0.36390001
0.11950533 -0.13197327 0.36390001
-0.11465307 -0.12047698 0.36390001
-0.10250276 -0.12616271 0.36390001
0.053792194 -0.12357202 0.36390001
0.081349239 -0.1248386 0.36390001
-0.12552449 -0.1122171 0.36390001
0.035814852 -0.11120972 0.36390001
-0.142593 -0.10744901 0.36330131
-0.12857938 -0.10432741 0.36390001
-0.014827118 -0.10354865 0.36390001
0.051269546 -0.10847166 0.36390001
0.092000365 -0.10655367 0.36390001
-0.10350716 -0.09937039 0.36390001
-0.058614336 -0.096823424 0.36390001
-0.0083939377 -0.092946015 0.36390001
0.032466896 -0.090300545 0.36390001
-0.06226252 -0.084215038 0.36390001
-0.11496295 -0.070633993 0.36390001
-0.0017007091 -0.075851329 0.36390001
0.016616104 -0.070277229 0.36390001
0.11325169 -0.073148385 0.36390001
0.012895841 -0.063004956 0.36390001
0.081028849 -0.062392436 0.36390001
-0.11060042 -0.051406924 0.36390001
-0.0021311156 -0.050157197 0.36390001
0.082858294 -0.055218376 0.36390001
0.10732222 -0.058180965 0.36390001
0.11917314 -0.059973799 0.36390001
-0.10509856 -0.04216649 0.36390001
-0.0013663359 -0.046743169 0.36390001
0.0097561255 -0.044104997 0.36390001
0.032303818 -0.046410967 0.36390001
0.052832074 -0.03434705 0.36390001
0.11144042 -0.039789237 0.36390001
-0.11892913 -0.022200055 0.36390001
-0.012250323 -0.027091814 0.36390001
0.035842746 -0.027958386 0.36390001
0.057314906 -0.020455042 0.36390001
-0.083960176 -0.011693217 0.36390001
-0.029419003 -0.010780476 0.36390001
-0.0028317776 -0.017059632 0.36390001
0.095173843 -0.016763223 0.36390001
-0.07220909 -0.0049345046 0.36390001
-0.0057121292 -0.0064919181 0.36390001
0.078666374 -0.0089226197 0.36390001
0.0818711 -0.0065696146 0.36390001
-0.12947471 0.0079763308 0.36390001
-0.079413809 0.0027101412 0.36390001
0.0036939904 0.0025024638 0.36390001
0.064749144 0.0060159639 0.36390001
-0.13401391 0.012442358 0.36390001
-0.12900841 0.01673194 0.36390001
-0.098655693 0.01521869 0.36390001
-0.082808621 0.018462591 0.36390001
-0.030879475 0.016662408 0.36390001
0.01394248 0.018202543 0.36390001
0.10146557 0.01817511 0.36390001
0.039424568 0.020355321 0.36390001
0.046586119 0.029616041 0.36390001
-0.11029561 0.032937057 0.36390001
0.047410138 0.032250691 0.36390001
-0.10825978 0.048099428 0.36390001
0.004760677 0.046744697 0.36390001
0.041993793 0.040050112 0.36390001
0.11752027 0.055653773 0.36390004
-0.011693947 0.063328348 0.36390001
0.019649763 0.063286826 0.36390001
0.04730913 0.067016728 0.36390001
-0.14037633 0.079203732 0.36390001
-0.096135251 0.074642234 0.36390001
0.091397054 0.07958816 0.36390001
-0.022527348 0.088947847 0.36390001
0.01092306 0.083937868 0.36390001
-0.026960261 0.098578513 0.36390001
-0.007999476 0.093740448 0.36390001
0.024921365 0.090296149 0.36390001
0.08669164 0.092998028 0.36390001
-0.065684408 0.10261436 0.36390001
-0.010415092 0.10698891 0.36390001
-0.12272757 0.11416568 0.36390001
-0.069759294 0.11377025 0.36390001
0.027850654 0.11689798 0.36390001
0.075816773 0.11956163 0.36390001
-0.0071341842 0.12679526 0.36390001
0.10625973 0.12602778 0.36390001
-0.062825456 0.13722163 0.36390001
-0.024245188 0.1355374 0.36390001
0.026279207 0.14904456 0.36390001
0.062851518 0.14922968 0.36390001
-0.093835197 0.15536153 0.36390001
-0.0040347278 0.15540347 0.36390001
0.013414472 0.15971175 0.36390001
0.069596924 0.15440857 0.36390001
-0.10114571 0.16555896 0.36390001
-0.03339234 0.17367469 0.36390001
0.069287762 0.17770398 0.36390001
0.073554471 0.17992851 0.36390001
0.1005884 0.17726816 0.36390001
-0.10667437 0.18604495 0.36390001
0.061955415 0.18915869 0.36390001
0.11597719 0.18381897 0.36206746
-0.057000816 0.19274381 0.36390001
-0.037517522 0.19450775 0.36390001
-0.018871203 0.19506848 0.36390001
-0.0066038165 0.19597036 0.36390001
0.03443436 0.2068904 0.36390001
-0.076925032 0.21117328 0.36390001
-0.045923136 0.21039963 0.36390001
0.0051869452 0.21253157 0.36390001
0.036977496 0.21697217 0.36390001
0.11193132 0.2142247 0.36338937
-0.058748059 0.2221331 0.36390001
-0.024409559 0.22382855 0.36390001
0.012261032 0.22185917 0.36390001
0.051879983 0.22386706 0.36390001
-0.10802484 0.2334322 0.36390001
0.049877539 0.23207593 0.36390001
0.058767524 0.23809746 0.36390001
-0.142593 0.24412072 0.36386526
-0.099784784 0.25630546 0.36390001
-0.032312151 0.25999963 0.36390001
-0.012462251 0.25338787 0.36390001
0.087221779 0.25979462 0.36390001
-0.054741189 0.26847398 0.36390001
0.0046022907 0.2623336 0.36390001
-0.12468387 0.27649039 0.36390001
-0.026720522 0.2780931 0.36390001
-0.019038089 0.27489102 0.36390001
0.0074589811 0.27455795 0.36390001
-0.142593 0.28535178 0.36079574
-0.087857135 0.29061741 0.36390001
-0.032076873 0.2982704 0.36390001
0.008019546 0.3027285 0.36390001
-0.12288614 0.31133601 0.36278561
-0.0084245838 0.31133598 0.36221141
0.0065594018 0.31133601 0.36255926
0.083332993 0.31133601 0.36377925
