# .PCD v0.7 - Point Cloud Data file format
VERSION 0.7
FIELDS x y z
SIZE 4 4 4
TYPE F F F
COUNT 1 1 1
WIDTH 979
HEIGHT 1
VIEWPOINT 0 0 0 1 0 0 0
POINTS 979
DATA ascii
-0.17620245 -0.383169 -0.22318478
0.10742848 -0.383169 -0.22466496
-0.13117242 -0.3700422 -0.227137
-0.0105188 -0.37882882 -0.227137
0.076184161 -0.37288785 -0.227137
0.18154827 -0.37018573 -0.227137
-0.065987162 -0.35499948 -0.22713698
-0.13363342 -0.34238708 -0.227137
0.057523116 -0.34479296 -0.227137
0.13762479 -0.34942591 -0.227137
0.19925384 -0.33219755 -0.227137
-0.047413059 -0.32788444 -0.227137
0.15858482 -0.32002407 -0.227137
-0.14327998 -0.3055715 -0.227137
-0.036563382 -0.30114377 -0.227137
0.12430682 -0.30383989 -0.227137
0.227136 -0.30808347 -0.22508858
-0.2252606 -0.29003263 -0.227137
0.13742279 -0.29464492 -0.227137
0.052538924 -0.28459662 -0.227137
0.20031917 -0.28653529 -0.227137
-0.070192195 -0.27150708 -0.227137
0.21958004 -0.27406311 -0.227137
-0.035478011 -0.26463845 -0.227137
0.010930039 -0.26896539 -0.227137
-0.04056979 -0.25923967 -0.227137
0.070703477 -0.25454646 -0.227137
0.21796915 -0.25803605 -0.227137
0.22713602 -0.25820279 -0.22541265
-0.0013545677 -0.24539183 -0.227137
0.056461114 -0.24507582 -0.227137
-0.19078794 -0.23811251 -0.227137
0.048962418 -0.23164679 -0.227137
0.19608873 -0.23636629 -0.227137
-0.10642405 -0.2114794 -0.227137
-0.073672816 -0.21999127 -0.227137
-0.04145322 -0.213001 -0.227137
-0.037666656 -0.21610254 -0.227137
0.17409885 -0.21040811 -0.227137
0.227136 -0.20189464 -0.22156256
-0.0016039759 -0.1907827 -0.227137
-0.013183959 -0.180307 -0.227137
0.061431512 -0.18085872 -0.227137
0.077480949 -0.18403077 -0.227137
0.12566346 -0.18080524 -0.227137
-0.040066235 -0.17653993 -0.227137
0.227136 -0.17061391 -0.22486886
-0.1681394 -0.16121839 -0.227137
-0.15610664 -0.16453692 -0.227137
-0.12592262 -0.16114825 -0.227137
0.20514193 -0.16491291 -0.227137
-0.012717076 -0.15520395 -0.227137
0.1178297 -0.15263864 -0.227137
-0.22261485 -0.14034493 -0.227137
-0.2035459 -0.14177743 -0.227137
-0.15711598 -0.14214641 -0.227137
0.11697663 -0.14732282 -0.227137
-0.227136 -0.13718089 -0.22679028
0.088091798 -0.1311001 -0.227137
-0.10806137 -0.11507551 -0.227137
0.0022925753 -0.11961737 -0.227137
0.1336247 -0.11266517 -0.227137
0.19585805 -0.11499042 -0.227137
0.20311378 -0.11907258 -0.227137
-0.22713599 -0.10023668 -0.22601962
-0.01791212 -0.10739455 -0.227137
0.028631432 -0.10910087 -0.227137
0.013738081 -0.096313171 -0.227137
-0.18344468 -0.084736191 -0.227137
-0.12657309 -0.075870521 -0.227137
0.063990168 -0.064789854 -0.227137
0.10319316 -0.063910097 -0.227137
0.16203997 -0.060969599 -0.227137
-0.18575284 -0.051317349 -0.227137
0.1106162 -0.043786347 -0.227137
-0.04866036 -0.032033138 -0.227137
-0.19281423 -0.022914246 -0.227137
-0.14220001 -0.029046714 -0.227137
-0.087935351 -0.021450436 -0.227137
-0.15454786 -0.013447247 -0.227137
-0.063874781 -0.013699546 -0.227137
-0.032171831 -0.014404714 -0.227137
0.01228955 -0.010666655 -0.227137
0.17983235 -0.013703477 -0.227137
0.21523026 -0.013536245 -0.227137
0.20520884 -0.0040016593 -0.227137
0.21298313 -0.0023887753 -0.227137
0.22654641 -0.0072867977 -0.227137
0.060409807 0.006598942 -0.227137
0.076802216 0.00061067194 -0.227137
-0.1657625 0.018305615 -0.227137
-0.1256371 0.018897891 -0.227137
-0.08354041 0.018283298 -0.227137
-0.055416569 0.014210403 -0.227137
0.12477869 0.013278082 -0.227137
-0.06126447 0.02725796 -0.227137
-0.050130174 0.023240581 -0.227137
-0.021753438 0.020944968 -0.227137
-0.013986623 0.027510496 -0.227137
-0.082370512 0.04333698 -0.227137
0.096446387 0.042800412 -0.227137
-0.15556936 0.05882914 -0.227137
0.055179421 0.051368453 -0.227137
-0.120914 0.068866849 -0.227137
-0.036984496 0.067099661 -0.227137
0.03873124 0.0655687 -0.227137
0.18163003 0.061930999 -0.227137
-0.19945021 0.074622363 -0.227137
-0.1490078 0.074237958 -0.227137
-0.11583404 0.077017888 -0.227137
0.14751926 0.079626702 -0.227137
0.20943059 0.073815763 -0.227137
-0.15230006 0.082050592 -0.227137
0.044736352 0.08169724 -0.227137
-0.073348686 0.097968414 -0.227137
0.13628575 0.10412782 -0.227137
0.17309932 0.11857261 -0.227137
-0.010109499 0.12347503 -0.227137
0.088252246 0.12004466 -0.227137
-0.12603621 0.14625746 -0.227137
-0.051129214 0.14523344 -0.227137
0.12830479 0.14581476 -0.227137
-0.025450982 0.15336251 -0.227137
-0.22713599 0.16754945 -0.22668713
-0.19275741 0.16625771 -0.227137
-0.15877743 0.16209671 -0.227137
-0.056340963 0.17519477 -0.22713701
0.22713602 0.17584422 -0.22123867
-0.227136 0.18120405 -0.22356704
-0.12801783 0.18574071 -0.227137
-0.039323792 0.18225956 -0.22713698
0.11184764 0.19423047 -0.227137
-0.0097090602 0.2024163 -0.227137
0.049833842 0.20673016 -0.227137
-0.1020778 0.21525843 -0.227137
0.208893 0.21341516 -0.227137
-0.15786003 0.22751123 -0.227137
-0.042980857 0.22265637 -0.227137
0.027324617 0.2251544 -0.227137
0.16387458 0.22513679 -0.227137
0.2232226 0.22006612 -0.22713698
-0.16150348 0.23234943 -0.227137
0.10223339 0.23483819 -0.227137
-0.10158465 0.24227765 -0.227137
0.22713599 0.24248102 -0.22406359
-0.078183666 0.25024793 -0.227137
-0.051514789 0.25562015 -0.227137
-0.22344495 0.26370049 -0.22476962
0.051916741 0.26795599 -0.22306144
-0.18216197 0.27193862 -0.22688809
0.034330513 0.2796528 -0.227137
-0.17784819 0.28683588 -0.22595704
-0.10909924 0.28456309 -0.22704431
-0.020165931 0.28030795 -0.227137
0.066416137 0.28212044 -0.227137
0.08506307 0.29462793 -0.227137
0.11384445 0.29180276 -0.227137
-0.22367625 -0.37181199 -0.21649
-0.10558774 -0.37181199 -0.2140028
0.026056558 -0.37181199 -0.21919216
0.08722879 -0.37181199 -0.21795586
0.16680378 -0.37181199 -0.21212167
0.18384399 -0.37181199 -0.21238318
0.22713599 0.082661852 -0.21671112
0.22713599 0.13985655 -0.21825343
-0.13505876 0.26795599 -0.2138921
-0.12916219 0.26795599 -0.21499485
0.11421566 0.31472284 -0.21641804
-0.10203223 0.32241845 -0.21950704
-0.16412096 -0.383169 -0.20368464
-0.011482682 -0.383169 -0.20992452
0.16881604 -0.383169 -0.20912337
-0.16701335 -0.37181199 -0.20051034
0.227136 -0.2552124 -0.20357308
0.227136 -0.21197709 -0.20782998
-0.22713602 -0.11546357 -0.20827964
0.227136 0.10657714 -0.20149148
0.227136 0.1899302 -0.20470689
0.020334907 0.25659901 -0.20276211
0.083358586 0.26795599 -0.20404471
0.20385398 0.30789155 -0.20522904
-0.20232506 0.33422858 -0.20481125
-0.18399863 -0.383169 -0.19003659
-0.17273529 -0.37181199 -0.19645087
0.091984428 -0.37181199 -0.19695669
0.22713602 -0.23208627 -0.19239436
0.227136 -0.20637915 -0.19367987
0.227136 -0.04916662 -0.19080031
-0.062034823 0.25659901 -0.19943148
-0.11984631 0.26795599 -0.19407639
-0.095190756 0.26795599 -0.19452704
0.051970903 0.26795599 -0.19597696
-0.1837216 0.37500703 -0.19022839
-0.17226958 0.37214068 -0.1927513
-0.20322239 -0.383169 -0.18605915
-0.22713602 -0.15620463 -0.18514538
0.227136 0.0058177859 -0.18799856
0.22713602 0.012864739 -0.18655017
0.22713602 0.10027549 -0.18368687
0.22713599 0.12356941 -0.18924761
0.227136 0.18960801 -0.18678519
-0.14153767 0.26795599 -0.18742526
0.089033403 0.26795599 -0.18309504
-0.22578266 0.27324975 -0.18390128
-0.039129119 0.32825038 -0.18913747
-0.22713602 -0.3820402 -0.17643775
0.016346619 -0.383169 -0.17986406
-0.11843719 -0.37181199 -0.17291667
0.227136 -0.33466357 -0.17342719
0.227136 0.022066869 -0.17860904
0.227136 0.16201147 -0.17077395
0.227136 0.19318146 -0.1762453
0.11607136 0.25659901 -0.17782746
0.17621371 0.25659901 -0.17034483
-0.2247221 0.27739838 -0.17560744
0.19976941 0.30772996 -0.17583384
0.15650031 0.31192225 -0.17231017
0.064224809 0.32086271 -0.17100136
-0.11448383 0.33823007 -0.17398521
-0.11196531 -0.383169 -0.16988015
0.013813936 -0.383169 -0.16122818
-0.2146741 -0.37181199 -0.16194677
-0.17257041 -0.37181199 -0.16384926
-0.035787717 -0.37181199 -0.16634975
0.227136 -0.30614215 -0.16313213
0.22713602 -0.15562841 -0.16747889
0.22713599 -0.083507925 -0.16765887
0.22713602 -0.078511469 -0.16609575
-0.22713602 0.011076882 -0.16980389
-0.1898527 0.25659901 -0.16022487
0.0035613198 0.25659901 -0.16833547
0.027073391 0.25659901 -0.16330545
0.056984752 0.25659901 -0.16306108
-0.16593054 0.26795599 -0.16602209
-0.18512647 0.37798494 -0.16849646
0.028914973 -0.383169 -0.15627077
0.056307934 -0.383169 -0.15427709
-0.11400022 -0.37181199 -0.15663838
-0.10036429 -0.37181199 -0.15615644
0.227136 -0.24187344 -0.15922803
0.227136 0.089648709 -0.15219329
-0.227136 0.24549295 -0.15996407
-0.00072718784 0.25659901 -0.15117043
0.0030409731 0.25659901 -0.150754
0.17096472 0.25659901 -0.15906763
-0.05383759 0.26795599 -0.15525515
0.19101751 0.30959064 -0.15589562
0.22163011 0.30168176 -0.15087245
0.022387058 -0.383169 -0.14642894
0.03953369 -0.383169 -0.14085223
0.041478164 -0.383169 -0.14431496
-0.11001714 -0.37181199 -0.14756843
-0.026014308 -0.37181199 -0.14130273
0.10345323 -0.37181199 -0.14965838
0.14065255 -0.37181199 -0.141542
0.18199514 -0.37181199 -0.1450007
0.22713602 -0.23079847 -0.14281316
0.22713599 -0.074217349 -0.14044823
-0.227136 -0.0066872686 -0.14722578
-0.22713602 0.12228241 -0.14629333
0.227136 0.16337833 -0.145996
-0.15330403 0.25659901 -0.14738812
0.17455253 0.25659901 -0.14477378
-0.15295622 0.26795599 -0.14971521
-0.060639173 0.26795599 -0.14283267
0.17550363 0.26795599 -0.14939955
0.17189918 0.31043026 -0.14427948
-0.1204281 0.34232748 -0.14700903
-0.16165917 -0.383169 -0.13283564
-0.020828702 -0.383169 -0.13331516
0.11772267 -0.383169 -0.135537
0.17039636 -0.383169 -0.1367995
0.13270761 -0.37181199 -0.13413644
-0.227136 -0.32979125 -0.13653755
0.22713599 -0.28328291 -0.13245511
0.227136 -0.23994018 -0.13684362
0.227136 0.12980729 -0.13697825
-0.091804139 0.25659901 -0.13808836
0.20467973 0.25659901 -0.13498111
-0.039741233 0.26795599 -0.1342728
0.098592117 0.26795599 -0.13350043
-0.22435889 0.27881917 -0.13256939
0.13514324 0.31624925 -0.13097125
0.17659369 0.3114998 -0.13310726
0.03670441 0.32460102 -0.13011885
0.074475631 0.32120311 -0.13607955
-0.14379109 0.35614905 -0.13957995
-0.14349839 -0.37181196 -0.12669462
0.14066958 -0.37181199 -0.12958175
0.16831145 -0.37181199 -0.1280479
-0.22713599 0.16963279 -0.12513861
-0.052673887 0.25659901 -0.12244552
-0.018663306 0.25659901 -0.12646681
-0.14478219 0.26795599 -0.1254061
-0.077146411 0.26795599 -0.12514794
0.20714448 0.26795599 -0.12730059
0.22416547 0.26551214 -0.12596123
0.03651369 0.3235476 -0.12116386
-0.026510384 0.33016163 -0.12382162
-0.19232756 -0.383169 -0.1164848
-0.15588559 -0.383169 -0.11864504
-0.030905828 -0.37204963 -0.113569
0.068524241 -0.37408203 -0.11233538
0.18038571 -0.37181199 -0.11579332
0.21286455 -0.37181202 -0.11156992
0.227136 -0.32886088 -0.1136862
-0.22713602 -0.17791909 -0.11638498
0.22713602 -0.16029312 -0.11898229
0.22713602 -0.05730588 -0.11738621
-0.22713599 -0.014232494 -0.11781702
-0.227136 0.16958407 -0.11819758
-0.227136 0.17255409 -0.11956476
-0.227136 0.19881243 -0.11227424
0.22713599 0.23810659 -0.11144084
-0.076046556 0.25659901 -0.11110112
0.053123228 0.25659901 -0.11687961
-0.0029579736 0.26795599 -0.11218723
0.005971957 0.32650673 -0.11144372
-0.20343532 0.34729201 -0.11755508
-0.18087943 0.37677482 -0.11364882
-0.12410165 -0.37181199 -0.10729073
0.13065013 -0.37181199 -0.10691058
0.22713599 -0.13432392 -0.10364878
0.22713602 -0.10333699 -0.10890001
0.22713599 -0.093939088 -0.10163465
0.227136 0.15930684 -0.1067567
-0.069060102 0.25659901 -0.10438518
0.067549005 0.25659901 -0.10012108
0.10784164 0.25659901 -0.10898119
-0.20939998 0.26795602 -0.10938016
-0.068249658 0.26795599 -0.10893934
0.14539425 0.31562945 -0.10612096
-0.044013634 0.33214515 -0.10883586
-0.13416202 0.35053456 -0.10134792
0.068473004 -0.37181199 -0.094379038
0.072674729 -0.37181199 -0.096183583
0.227136 -0.036869444 -0.099318005
-0.22713599 -0.012416594 -0.096524656
-0.038655534 0.25659901 -0.095978998
-0.0098174587 0.25659901 -0.096884429
-0.098666735 0.26795599 -0.094969757
-0.055773798 0.26795599 -0.095580727
0.019387901 0.26795599 -0.090350732
0.10481939 0.26795599 -0.096519768
-0.21100406 0.32780701 -0.094598308
0.056854974 0.32355952 -0.092022896
-0.041778501 0.3319549 -0.096907593
-0.14234513 0.35511434 -0.091119647
0.061697215 -0.37181199 -0.085236602
0.22713599 -0.17236187 -0.086945236
-0.227136 -0.069912076 -0.08498475
-0.22713599 -0.055152453 -0.087526806
0.227136 0.077594355 -0.084118076
0.227136 0.11282169 -0.084587522
-0.22713602 0.24917175 -0.080361739
-0.081430025 0.26795599 -0.086475208
0.16275716 0.26795599 -0.080885224
0.20118029 0.26795599 -0.082303911
-0.22146705 0.29013103 -0.082466677
0.20994297 0.3070856 -0.082544953
-0.18418398 0.3785288 -0.083983585
0.086713448 -0.37181199 -0.076540507
0.21925476 -0.37181199 -0.071959317
0.22713599 -0.26583701 -0.074809015
-0.227136 -0.22997044 -0.073938742
0.22713599 -0.17941532 -0.07353542
-0.22713599 -0.095224768 -0.078861438
-0.22713602 -0.050199911 -0.078057706
-0.227136 0.016088158 -0.078037083
-0.22713599 0.15140851 -0.078376256
0.227136 0.19080862 -0.071749814
-0.045919105 0.25659901 -0.079211108
0.22544578 0.25659901 -0.073871009
0.22480512 0.2635929 -0.07119631
0.019482167 0.32519776 -0.072675109
0.024768222 0.32629067 -0.077858955
-0.20235616 0.35364562 -0.071171731
0.1144006 -0.37181199 -0.069219224
0.227136 -0.32819346 -0.063565552
-0.22713602 -0.25349247 -0.06771569
-0.22713602 0.01526016 -0.061475649
0.22713599 0.15338561 -0.069423512
-0.019498847 0.25659901 -0.069953986
0.18130562 0.25659901 -0.064994067
0.12262416 0.26795602 -0.06584271
-0.227136 -0.35983655 -0.051259153
0.227136 -0.27543801 -0.055304773
-0.22713599 -0.14887017 -0.057163455
0.22713602 -0.09781114 -0.050037868
-0.227136 -0.05308643 -0.058237433
0.227136 0.030153193 -0.051618882
0.227136 0.13672617 -0.05949397
0.227136 0.19471872 -0.053223409
-0.1839681 0.25659901 -0.050077051
0.064898171 0.25659901 -0.056229174
0.099407881 0.25659901 -0.055928975
-0.21835119 0.26795599 -0.055063963
-0.19182129 0.26795599 -0.058295466
-0.0052466765 0.26795602 -0.05997229
0.16673559 0.26795599 -0.059730589
0.073240846 0.31998914 -0.053832103
0.02954874 0.32422239 -0.053190418
0.068343364 0.32046366 -0.053756215
-0.081692129 0.3350004 -0.059055109
-0.16355525 0.36698464 -0.051784169
0.051290095 -0.37181199 -0.048782505
0.10999917 -0.37181199 -0.043227624
0.16281477 -0.37181199 -0.049055714
0.227136 -0.084168583 -0.045160696
0.22713602 0.21704708 -0.041394692
0.19346806 0.25659901 -0.048671968
-0.19944435 0.26795599 -0.047755457
0.17710036 0.26795599 -0.046983592
0.21801326 0.30596235 -0.042669252
0.1736259 0.31189263 -0.046718981
-0.093930721 0.33618617 -0.049480129
-0.079300426 0.33476865 -0.045129433
-0.059930637 0.33349991 -0.04566763
0.022619529 -0.37181199 -0.035647407
0.22713599 -0.33168441 -0.03077003
0.227136 -0.31542373 -0.031334445
0.227136 -0.2690101 -0.036680177
-0.22713599 -0.13197795 -0.033838492
-0.22713599 -0.12898074 -0.033093236
-0.227136 -0.10286607 -0.034664556
0.22713602 -0.012999348 -0.030717636
-0.22713599 -0.0034715086 -0.036411621
0.227136 0.036021806 -0.033503819
-0.17255172 0.25659901 -0.035185896
-0.084479526 0.25659901 -0.038288664
-0.13968222 0.26795599 -0.031161478
0.19795433 0.26795599 -0.034947053
0.15508035 0.31205982 -0.035991691
0.022835039 0.32487291 -0.039633974
-0.14230035 0.35508928 -0.032337662
-0.19066672 0.38215744 -0.034498177
-0.076621734 -0.37181199 -0.022869665
0.227136 -0.32529265 -0.027115213
0.227136 -0.1357258 -0.026016541
0.227136 -0.12724385 -0.024912074
-0.227136 -0.10217815 -0.022115685
0.22713602 -0.078700326 -0.029222317
0.227136 -0.043850437 -0.021340609
-0.16517249 0.25659901 -0.024640858
0.12074669 0.25659901 -0.023368392
-0.14577416 0.26795599 -0.022629691
-0.022876441 0.26795599 -0.022634819
0.16175848 0.31141281 -0.020210788
0.17999338 0.31104982 -0.02798865
-0.18356344 -0.37181199 -0.017973781
-0.033492006 -0.37181199 -0.016132293
0.01025869 -0.37181199 -0.016595501
0.227136 -0.31727126 -0.013727508
0.227136 -0.077664703 -0.013415158
0.227136 -0.030357033 -0.012511184
0.22713602 0.021849051 -0.018317342
0.088414997 0.25659901 -0.016140986
-0.14616074 0.26795599 -0.013553998
0.13309079 0.31419039 -0.018750805
0.16757779 0.31084898 -0.011708818
-0.099320613 0.33685267 -0.016709611
-0.227136 -0.35379091 -0.0016300231
0.22713599 -0.20056538 -0.0047138557
-0.22713599 -0.12420873 -0.0029568523
-0.22713602 -0.11984811 -0.0076084286
-0.2014389 0.25659901 -0.0096490383
0.10866589 0.25659901 -0.0095586628
-0.22584 0.26048765 -0.0043696351
-0.21423444 0.31815517 -0.0083160168
-0.21125509 0.32705697 -0.0065745078
0.017374415 0.32691997 -0.0087993927
0.042551905 0.32296255 -0.0042756647
0.078111701 0.32175022 -0.0038173944
-0.1573015 0.36348459 -0.0068564024
0.18910676 -0.37181199 0.0087968744
0.22713599 -0.25018567 0.0093951821
0.22713599 -0.20928685 0.0050152466
-0.227136 0.050173238 0.007919386
-0.22713602 0.11970791 0.00056069344
0.22713599 0.17548832 0.009826608
0.227136 0.18609807 0.0056939013
-0.09221711 0.25659901 0.0066672787
0.10399507 0.25659901 0.0093560964
0.11497808 0.25659901 0.00338009
0.13155268 0.25659901 0.0040489957
-0.21204025 0.26795599 0.00012994558
-0.19452867 0.26795599 0.0051077064
0.048794448 0.26795599 0.0050688498
0.14890298 0.31516504 0.0076328255
-0.084447332 0.33526734 0.0046839193
0.019703239 -0.37181199 0.016473887
0.13339293 -0.37181199 0.010356307
0.22713599 -0.34909227 0.019526452
0.227136 -0.23796833 0.017957948
-0.22713599 0.078856729 0.01526916
0.22713599 0.22784701 0.014129393
-0.18302047 0.25659901 0.016748466
-0.15524536 0.25659901 0.01754602
-0.057029806 0.25659901 0.011975465
-0.11793934 0.26795599 0.01473188
-0.084203541 0.26795599 0.015060386
-0.2118251 0.32535386 0.016938061
0.047438778 0.32248908 0.019739546
-0.087583385 0.33557117 0.010260906
-0.13161848 -0.37181199 0.020532612
-0.096350387 -0.37181199 0.026054434
0.14364783 -0.37181199 0.023451645
-0.227136 -0.32755464 0.022818923
-0.227136 -0.16002481 0.021278799
0.22713599 -0.15053836 0.021930203
-0.227136 -0.033593222 0.024805509
-0.22713599 0.17617053 0.02891344
-0.055333767 0.25659901 0.022652274
0.010259958 0.25659901 0.020119878
0.18807958 0.30886257 0.029165536
0.09934292 0.31746018 0.025825258
0.12589286 0.31768325 0.025483135
0.0025368184 0.32818291 0.02816372
-0.20501597 0.34569851 0.025239907
-0.19193062 -0.37181199 0.034423463
-0.17485964 -0.37181199 0.034290966
-0.078859672 -0.37181199 0.03707093
0.14355163 -0.37181199 0.036955282
0.17994562 -0.37181199 0.032793783
-0.227136 -0.066772833 0.030616783
-0.22713599 0.20256135 0.035064422
-0.15358537 0.25659901 0.035139509
0.03327696 0.25659901 0.031377338
0.071952403 0.25659901 0.031234223
0.066504829 0.26795599 0.035558008
0.13685974 0.26795599 0.034792461
0.227136 0.27698711 0.037973851
0.19193068 0.30848944 0.030643612
0.13834712 0.31368107 0.032646477
-0.10648684 0.33746266 0.034634151
-0.099297971 0.33685076 0.030267727
-0.10123623 -0.37181199 0.045643024
0.13984986 -0.37181199 0.044898912
0.22713602 -0.27662945 0.049849413
-0.22713602 -0.24692252 0.047973216
0.227136 -0.13801381 0.045045987
0.227136 -0.10127282 0.04238987
0.227136 -0.093416855 0.042932838
0.22713602 -0.063770212 0.042102885
-0.227136 -0.0094917715 0.047971047
0.22713599 0.0037286431 0.044473641
0.227136 0.077077731 0.040997684
-0.22713599 0.20375818 0.042665929
-0.22713602 0.21078667 0.047846518
0.1347768 0.25659901 0.045310453
0.12269033 0.31519806 0.049672786
-0.0071034338 0.32777357 0.045576435
0.029461212 0.32423091 0.047784537
0.069025189 0.32252365 0.046341967
0.070512429 0.32025349 0.040296789
0.047971312 -0.37181199 0.056945421
0.22713602 -0.2036929 0.05831378
0.22713599 0.021220937 0.051694676
-0.22713602 0.10763238 0.057716515
-0.14821857 0.25659901 0.059583381
-0.047641419 0.25659901 0.058993779
0.11829643 0.25659901 0.053162828
-0.22375998 0.26672882 0.054875895
-0.13521296 0.26795599 0.054312892
0.013416115 0.26795599 0.052014247
-0.010912614 0.32814264 0.050867043
0.017229956 0.32541597 0.050993625
0.069658384 0.32033625 0.052006591
-0.083186693 0.33547941 0.05712847
-0.07680849 0.33493653 0.055526502
-0.06740538 0.33361617 0.055041131
-0.19995141 0.36083066 0.050974168
0.22713602 -0.37077293 0.062854521
0.227136 -0.045743302 0.066449307
-0.22713602 0.030823663 0.060500845
-0.22713599 0.15761369 0.066880755
0.22713602 0.20391519 0.068874538
-0.20039406 0.25659901 0.064330377
-0.018713623 0.25659901 0.062167645
-0.22535571 0.26194084 0.062999718
-0.036478892 0.26795599 0.064624526
0.16839892 0.26795599 0.064662911
0.22169998 0.30154204 0.060965419
0.1009777 0.31730178 0.060359035
-0.016301537 0.32866478 0.06159123
-0.20947236 0.33238357 0.064055547
-0.14371862 -0.37181199 0.070599779
0.11660643 -0.37181199 0.077530742
0.22713599 -0.19661003 0.075215168
-0.12952854 0.25659901 0.07730443
0.011103813 0.25659901 0.075648114
0.15978634 0.25659901 0.077863812
0.21273302 0.25659901 0.077782877
0.17061469 0.26795599 0.076868206
0.012082394 0.32591471 0.070122048
0.062475465 0.32103217 0.076967575
0.12857948 -0.37181199 0.084991693
-0.227136 -0.15404974 0.081658937
-0.227136 -0.020632572 0.085015252
-0.22713602 0.10873593 0.089247018
0.227136 0.10182869 0.081460305
0.047515884 0.25659901 0.086042263
-0.22224675 0.26795599 0.085787036
-0.071995407 0.33452687 0.082533315
-0.088944614 -0.37181199 0.097578794
0.04606358 -0.37181199 0.095226318
-0.22713599 -0.35482109 0.092459694
0.227136 -0.33451453 0.09396556
-0.22713599 -0.30618241 0.095926508
0.227136 -0.3003172 0.093033493
-0.227136 -0.22713855 0.097464301
-0.22713599 -0.21628535 0.098610692
0.227136 -0.14629039 0.099425182
0.227136 -0.11246025 0.097515866
0.22713599 -0.097663656 0.0955033
-0.22713599 -0.074360944 0.094483368
-0.22713602 0.22364107 0.094723508
-0.227136 0.24274388 0.096793406
0.13745794 0.25659901 0.094923899
-0.10132989 0.26795599 0.098179772
0.10585254 0.31682944 0.094331026
0.1701521 0.31059954 0.094413459
0.0065881461 0.32644704 0.095161095
-0.14703448 -0.37181199 0.10585734
-0.11555494 -0.37181199 0.10787521
-0.051548991 -0.37181199 0.10675957
-0.227136 -0.047044545 0.1057172
0.22713602 0.0098225102 0.10305396
-0.227136 0.094565898 0.10080612
-0.227136 0.24156496 0.10140248
-0.12118018 0.25659901 0.10387412
-0.028632116 0.25659901 0.10542299
-0.17365424 0.26795599 0.10127194
-0.040590752 0.26795599 0.10148208
0.1270529 0.26795599 0.10052059
0.018434042 0.32682979 0.10626924
-0.20934501 0.33276403 0.1008008
-0.19507796 0.37456754 0.10210587
-0.20629427 -0.383169 0.11861026
-0.091687143 -0.383169 0.11772967
0.15294577 -0.38139144 0.113568
-0.10599804 -0.37181199 0.11163778
-0.084358275 -0.37791893 0.11356801
0.19359332 -0.3740232 0.113568
-0.227136 -0.36864933 0.11254348
-0.227136 -0.32047677 0.11706667
-0.227136 -0.26097256 0.11262968
-0.22713602 -0.23369414 0.11482313
-0.227136 -0.16120884 0.11341724
0.22713597 -0.014089249 0.11603794
0.227136 0.0028823167 0.11070676
-0.19813724 0.25659901 0.11078446
-0.17223664 0.25659901 0.1114068
-0.029021557 0.25659901 0.1158665
-0.0136263 0.25659901 0.11454675
-0.049326088 0.26795596 0.11543193
0.18966249 0.30870923 0.11988858
-0.053462725 0.33276924 0.11423427
-0.033134151 0.33029568 0.11878902
-0.19602147 -0.38316903 0.12548834
-0.15405466 -0.383169 0.12392294
-0.098138325 -0.383169 0.12204383
-0.050584473 -0.383169 0.1207015
-0.010468446 -0.383169 0.12735304
-0.15037158 -0.37181199 0.1292306
-0.039729483 -0.37181199 0.12963271
-0.227136 -0.23041011 0.12520976
0.227136 -0.21104565 0.12806737
0.227136 -0.1764891 0.12320948
-0.22713599 -0.037440434 0.12166785
-0.22713599 0.064741671 0.12128183
-0.049753703 0.25659901 0.12083183
0.066842318 0.25659901 0.12612218
0.12243457 0.25659901 0.12341354
-0.17354113 0.26795599 0.12691642
-0.16345601 0.26795599 0.1233128
-0.15323132 0.26795599 0.12454668
0.083542779 0.26795599 0.12542766
0.092510253 0.26795599 0.12280542
0.227136 0.27982149 0.12934062
-0.22048213 0.29398379 0.12351483
0.13275588 0.31422281 0.12765513
-0.006572742 0.32848173 0.12365392
0.00024100579 0.32706201 0.12920932
0.019533262 0.32605922 0.12992951
-0.036796037 0.33084559 0.12923083
-0.11233516 -0.37181199 0.13089602
-0.065834686 -0.37181199 0.13247785
0.1655205 -0.37181199 0.13057016
-0.227136 -0.36028606 0.13373466
0.227136 -0.25262088 0.13495962
-0.22713599 -0.11907873 0.13180476
-0.227136 -0.10717473 0.13816299
0.22713602 0.091043234 0.13234633
-0.16719899 0.25659901 0.13759372
-0.0013576746 0.25659901 0.1335991
0.02526897 0.25659901 0.13473681
0.13217027 0.25659901 0.13470101
-0.10031591 0.26795599 0.13776205
0.11055014 0.26795599 0.13898356
0.17331807 0.26795599 0.1393327
0.22538467 0.26185393 0.1351369
0.087207489 0.31863594 0.13722783
0.10374653 0.3170335 0.13822462
-0.0027784035 0.32788604 0.13166481
0.12626018 -0.383169 0.14328292
-0.227136 -0.3591519 0.14411506
-0.227136 -0.29773661 0.14742228
0.227136 -0.25176644 0.14115177
-0.22713599 -0.16035657 0.14098483
-0.227136 -0.15549201 0.14896134
0.227136 -0.10894545 0.14318256
0.22713602 0.16424179 0.1436272
-0.1312142 0.25659901 0.14660498
-0.01657027 0.25659901 0.14548579
0.15706213 0.31397954 0.14311033
-0.17799601 0.37533367 0.14161557
-0.052711718 -0.383169 0.15311262
0.22713599 -0.34278211 0.15731174
0.22713602 -0.2471928 0.15984602
-0.22713599 -0.1392206 0.15972859
-0.227136 -0.0042551607 0.15164466
0.227136 0.078062192 0.15739903
-0.22713599 0.1507401 0.15259698
-0.227136 0.21662611 0.1548395
-0.081753209 0.25659901 0.15269183
-0.032533877 0.26795599 0.15233603
0.012376714 0.26795599 0.1528423
0.22271252 0.26776212 0.15438303
0.085805327 0.31877178 0.15537052
-0.083542451 -0.383169 0.16629815
0.22533584 -0.37181199 0.16227475
0.227136 -0.27397585 0.16429266
-0.22713602 0.084556662 0.16913569
-0.227136 0.1552045 0.1676424
-0.21180749 0.25659901 0.16977572
-0.13581029 0.25659901 0.16505283
-0.1068027 0.25659901 0.16869412
-0.018104047 0.25659901 0.16271135
0.1266991 0.25659901 0.16229367
-0.064934 0.26795599 0.16258697
0.17720528 0.26795599 0.16640553
0.19338231 0.26795599 0.16121015
0.071479365 0.32015979 0.16712829
-0.16454923 -0.383169 0.17226465
-0.11815378 -0.383169 0.17364001
-0.069875114 -0.37181199 0.17890054
0.015882447 -0.37181199 0.17522444
-0.22713599 -0.11901049 0.17065273
0.227136 -0.092136845 0.1738151
0.227136 -0.014293792 0.17641999
-0.22713602 0.0061620399 0.17209326
0.10906895 0.25659901 0.1727179
0.227136 0.25321043 0.17715946
-0.1625077 0.26795599 0.17191321
-0.21706647 0.30232948 0.17271754
0.094872534 0.31789327 0.17811756
0.12280804 0.31518668 0.17023611
0.16810331 0.31187105 0.17735402
0.010603562 0.32518584 0.17025319
-0.14983922 0.35920286 0.17479894
0.030309103 -0.383169 0.18556994
-0.21488285 -0.37181199 0.18241486
0.069670685 -0.37181199 0.18278442
0.20360141 -0.37181199 0.18951669
-0.22713602 -0.2239712 0.18682519
0.227136 -0.09790349 0.18371454
-0.227136 0.16821755 0.18349761
0.227136 0.16106102 0.18179411
0.227136 0.2426458 0.18495087
-0.17996401 0.25659901 0.18671536
-0.04161223 0.26795599 0.18657753
0.10515288 0.26795599 0.18503475
0.20841002 0.30728853 0.18679276
0.042234857 0.32192135 0.18582059
0.12431076 -0.37181199 0.19627224
0.14223401 -0.37181199 0.19509114
0.15408888 -0.37181196 0.1996177
0.22713602 -0.11330137 0.19938192
0.22713599 -0.10885514 0.1913991
-0.22713602 0.015603513 0.19944662
0.227136 0.093247525 0.19748197
-0.04714945 0.25659901 0.19418341
-0.13025123 0.26795599 0.19658722
0.19439191 0.30888823 0.19951051
0.1046677 -0.383169 0.20676407
-0.025801264 -0.37181199 0.20501688
0.10976239 -0.37181199 0.20210281
0.22713602 -0.1401723 0.20258212
0.22713599 -0.12438276 0.20379461
0.22713599 -0.041526973 0.20871161
-0.227136 0.13204619 0.20807706
0.227136 0.22304606 0.20225754
-0.074177824 0.25659901 0.20169219
-0.20711687 0.26795599 0.20170496
0.1599939 0.26795599 0.20078537
-0.20421486 0.33044791 0.20081526
-0.17591435 0.35468167 0.20635101
-0.17632088 0.36068797 0.20270427
0.018217403 -0.383169 0.21894458
-0.22095644 -0.37181199 0.21341702
0.012443237 -0.37181199 0.21198165
0.16140297 -0.37181199 0.21342491
0.22713599 -0.36580968 0.21377824
0.227136 -0.31391329 0.21203052
0.22713602 -0.27683643 0.21744809
0.22713602 -0.032434434 0.21574083
-0.227136 0.099048592 0.2131137
0.227136 0.19050129 0.21024859
-0.070098877 0.25659901 0.21742773
-0.061903808 0.25659901 0.21355584
-0.036488805 0.25659901 0.21648994
0.1455346 0.25659901 0.21526068
0.17004476 0.25659901 0.21126685
-0.17591277 0.26795599 0.21071151
-0.03796687 0.26795599 0.21435165
-0.027060162 0.26795599 0.21860218
0.092389792 0.26795599 0.21358579
-0.07285542 0.32975587 0.21395005
-0.17828636 -0.37181199 0.22041327
-0.16711624 -0.37181199 0.22174981
-0.13066457 -0.37692833 0.227137
0.008661326 -0.37513763 0.22511707
0.18084696 -0.3786256 0.227137
0.04645095 -0.36106259 0.227137
-0.07858029 -0.35702467 0.227137
0.031865552 -0.35819238 0.227137
-0.020553727 -0.34087449 0.227137
0.07162492 -0.34887454 0.227137
-0.15094893 -0.33821616 0.227137
0.097249761 -0.33755702 0.227137
0.14360926 -0.33601359 0.227137
-0.20307168 -0.32024699 0.227137
-0.087890834 -0.32921588 0.227137
-0.0069342852 -0.32995135 0.227137
0.05846066 -0.32172841 0.227137
0.20697048 -0.3295792 0.227137
0.16356017 -0.31030023 0.227137
0.17463958 -0.31468737 0.227137
-0.15789795 -0.30595753 0.227137
0.14840788 -0.30128077 0.227137
0.2015903 -0.30067551 0.227137
0.080678612 -0.29821351 0.227137
0.21921116 -0.29114133 0.227137
-0.13971938 -0.28604499 0.227137
-0.12804285 -0.28166464 0.227137
0.13416503 -0.28752124 0.227137
0.17720735 -0.28062281 0.227137
-0.00037568063 -0.2748827 0.227137
0.19060439 -0.27970234 0.227137
-0.18876699 -0.2612119 0.227137
0.099325322 -0.26292163 0.227137
-0.19615804 -0.24996838 0.227137
0.227136 -0.24775961 0.22412583
-0.012321543 -0.2219151 0.227137
0.17676859 -0.2269396 0.227137
-0.14610274 -0.21639895 0.227137
-0.12521476 -0.21087086 0.227137
0.067533046 -0.21915726 0.227137
0.20174152 -0.21730039 0.227137
-0.19841176 -0.19207308 0.227137
0.14502317 -0.19893201 0.227137
0.1828301 -0.19159397 0.227137
-0.0081984289 -0.18557966 0.227137
0.066616885 -0.18527976 0.227137
-0.21483837 -0.17958388 0.227137
0.12353744 -0.17846397 0.227137
-0.120639 -0.16175792 0.227137
-0.037102945 -0.16084598 0.227137
0.020997874 -0.16460013 0.227137
0.15878659 -0.16781586 0.227137
-0.22684719 -0.15759452 0.22713701
-0.046303838 -0.15005729 0.227137
0.074049503 -0.15465866 0.227137
0.080699854 -0.14399534 0.227137
0.1028375 -0.14203557 0.22713698
0.21149699 -0.14702378 0.227137
-0.22713602 -0.13546398 0.22518623
0.0081903636 -0.13071981 0.227137
-0.14463286 -0.12415395 0.227137
-0.13651454 -0.12109458 0.227137
0.038397171 -0.12403463 0.227137
0.18053189 -0.12406656 0.227137
0.21257663 -0.12314404 0.227137
-0.21228114 -0.10995398 0.227137
-0.033729546 -0.10147525 0.227137
0.12025297 -0.084043346 0.227137
0.21244755 -0.086788282 0.227137
-0.21784276 -0.073797122 0.227137
-0.036732167 -0.07733456 0.227137
0.052858301 -0.073726445 0.227137
0.14704174 -0.074659698 0.227137
0.16826041 -0.072285533 0.227137
-0.12235464 -0.067577712 0.227137
0.2193425 -0.06909287 0.227137
0.22309519 -0.065478668 0.227137
-0.1623065 -0.059816249 0.227137
-0.018868508 -0.057260893 0.227137
-0.0096747987 -0.059806187 0.227137
0.098831668 -0.051788349 0.227137
-0.20980337 -0.041881748 0.227137
-0.11352474 -0.044723541 0.227137
-0.074839443 -0.043744534 0.227137
0.098087482 -0.045452803 0.227137
0.227136 -0.044663534 0.22502187
-0.21024761 -0.039772071 0.227137
-0.079650596 -0.039285734 0.227137
-0.16096437 -0.020422101 0.227137
0.094436049 -0.028342649 0.227137
-0.19959825 -0.013757795 0.227137
-0.18481919 -0.018330812 0.227137
0.017498333 -0.0018347166 0.227137
0.097169891 -0.0077497214 0.227137
0.19092287 0.017848171 0.227137
-0.19181463 0.024073452 0.227137
-0.18482225 0.028612837 0.227137
-0.14699835 0.025525071 0.227137
-0.19900557 0.031271338 0.227137
-0.21262562 0.046121083 0.227137
-0.13511595 0.047290064 0.227137
0.00033088773 0.050453641 0.227137
0.023491036 0.058598645 0.227137
-0.18250629 0.065350465 0.227137
-0.027637713 0.065492705 0.227137
0.011211418 0.074280925 0.227137
0.20050927 0.080563597 0.227137
0.008755751 0.093694471 0.227137
-0.1845711 0.10651878 0.227137
0.086937688 0.11205454 0.227137
0.09436588 0.11984954 0.227137
0.1480335 0.11829878 0.227137
-0.14707413 0.12532255 0.227137
0.15629816 0.12951824 0.227137
-0.1001985 0.1308746 0.227137
0.12562095 0.13225123 0.227137
0.15158087 0.13189211 0.227137
0.16201064 0.13813426 0.227137
0.18050906 0.13613339 0.227137
-0.12910856 0.14896375 0.227137
-0.058215868 0.14754842 0.227137
0.079909645 0.16902769 0.227137
0.14379594 0.16956601 0.227137
0.15104152 0.16672027 0.227137
-0.1372804 0.17717507 0.227137
0.008265771 0.17640077 0.227137
-0.167088 0.1854713 0.227137
0.13085876 0.18361469 0.227137
0.1810931 0.19128413 0.227137
-0.21979508 0.20698424 0.227137
-0.19947289 0.2068945 0.227137
-0.15083243 0.22878656 0.227137
-0.068619795 0.22198576 0.227137
-0.21311368 0.23464322 0.227137
-0.1900644 0.23469028 0.227137
-0.18260469 0.23618862 0.227137
-0.11922477 0.23209977 0.227137
-0.10935121 0.23257835 0.227137
-0.043397758 0.2347002 0.227137
0.024460591 0.23842432 0.227137
0.052859973 0.23247065 0.227137
0.227136 0.23011418 0.22150679
-0.18204442 0.24424328 0.227137
0.051362086 0.24212584 0.227137
0.19665056 0.2441012 0.227137
-0.13574438 0.25659901 0.2267336
-0.11573293 0.25659901 0.2258876
0.063089676 0.25081912 0.227137
0.071108177 0.2555865 0.227137
0.22698374 0.25659901 0.2262494
-0.11331557 0.26795599 0.22592002
-0.1060307 0.26795599 0.22585049
0.0016377568 0.26795599 0.22221798
0.21000871 0.26278391 0.22507519
-0.12028332 0.27616975 0.22671017
0.025065728 0.27836061 0.227137
0.14646207 0.27670199 0.227137
-0.1765137 0.28674173 0.22596291
0.1266406 0.30908665 0.22550376
0.19021586 0.3081072 0.22614831
