# .PCD v0.7 - Point Cloud Data file format
VERSION 0.7
FIELDS x y z
SIZE 4 4 4
TYPE F F F
COUNT 1 1 1
WIDTH 981
HEIGHT 1
VIEWPOINT 0 0 0 1 0 0 0
POINTS 981
DATA ascii
-0.20348749 -0.34443811 -0.25349
-0.17765103 -0.34430784 -0.25349
0.24158375 -0.348548 -0.25324383
-0.18575022 -0.33101413 -0.25349
-0.043288235 -0.33767018 -0.25349
0.14338332 -0.33761311 -0.25349
0.046958834 -0.32979095 -0.25349
0.19340833 -0.3220073 -0.25349
0.11732681 -0.31905347 -0.25349
0.14512534 -0.31229034 -0.25349
0.19151074 -0.30836537 -0.25349
-0.16205394 -0.29944608 -0.25349
-0.094163179 -0.29828072 -0.25349
-0.17997792 -0.28841332 -0.25349
-0.066785738 -0.28248322 -0.25349
0.066163041 -0.28182563 -0.25349
-0.20280457 -0.27833933 -0.25349
-0.17678621 -0.27694389 -0.25349
0.016624987 -0.2783041 -0.25349
0.025674082 -0.27818716 -0.25349
0.046227161 -0.27861464 -0.25349
-0.00085698068 -0.26988554 -0.25349
0.023902342 -0.26390308 -0.25349
-0.228986 -0.25460687 -0.25008875
-0.14339834 -0.25907463 -0.25349
-0.038215257 -0.25730494 -0.25349
-0.0041508414 -0.25462192 -0.25349
-0.082462303 -0.24537861 -0.25349
0.18443304 -0.24010882 -0.25349
-0.20216882 -0.23813364 -0.25349
-0.028914183 -0.23708647 -0.25349
0.080566466 -0.23848242 -0.25349
0.19523515 -0.23565423 -0.25349
-0.017356858 -0.22110477 -0.25349
0.074953377 -0.22095256 -0.25349
0.083025083 -0.22407529 -0.25349
0.17882556 -0.21448347 -0.25349
-0.17736514 -0.20537007 -0.25349
0.064776763 -0.20820804 -0.25349
-0.21620633 -0.1901089 -0.25349
-0.19374828 -0.18956465 -0.25349
0.090494677 -0.18457744 -0.25349
0.17544851 -0.18188012 -0.25349
0.22748639 -0.18929228 -0.25349
-0.228986 -0.17530909 -0.25264469
0.19775885 -0.17945385 -0.25349
-0.21248831 -0.16745339 -0.25349
-0.20327249 -0.16687942 -0.25349
0.12410945 -0.16412777 -0.25349
0.19205977 -0.16050343 -0.25349
0.21030737 -0.163416 -0.25349
-0.070984468 -0.15819679 -0.25349
-0.052422713 -0.15710585 -0.25349
-0.02298478 -0.15834761 -0.25349
-0.15893565 -0.14663509 -0.25349
-0.072089799 -0.14306517 -0.25349
-0.078905649 -0.13130771 -0.25349
-0.028727271 -0.13095188 -0.25349
-0.049178429 -0.12559785 -0.25349
0.1241101 -0.12216243 -0.25349
-0.2129578 -0.11903264 -0.25349
0.022575602 -0.11661964 -0.25349
0.16227713 -0.11303096 -0.25349
0.17403096 -0.11844882 -0.25349
-0.21996617 -0.10119373 -0.25349
-0.20360613 -0.10392438 -0.25349
-0.10584329 -0.10999193 -0.25349
-0.11582202 -0.090563014 -0.25349
0.22413494 -0.09991201 -0.25349
-0.14250126 -0.080844589 -0.25349
0.12122903 -0.080408208 -0.25349
0.19647875 -0.080010429 -0.25349
-0.13824359 -0.079112269 -0.25349
0.18423434 -0.070766978 -0.25349
-0.17491457 -0.061666638 -0.25349
-0.11944309 -0.064949572 -0.25349
-0.14689851 -0.05213929 -0.25349
0.09470883 -0.055272143 -0.25349
-0.16864523 -0.047198802 -0.25349
0.049745105 -0.043119848 -0.25349
-0.22484463 -0.033740193 -0.25349
-0.17264836 -0.036283374 -0.25349
-0.097488686 -0.034273021 -0.25349
0.033751905 -0.030077785 -0.25349003
0.19935021 -0.033115312 -0.25349
0.034241155 -0.011510802 -0.25349
0.041953646 -0.013329512 -0.25349
0.16039404 -0.018347569 -0.25349
0.10796596 -0.0073507875 -0.25349
-0.014131293 0.0075689051 -0.25349
0.11321547 0.0052348599 -0.25349
-0.14218962 0.01198782 -0.25349
0.11003022 0.027086705 -0.25349
0.13274544 0.022495393 -0.25349
-0.1766113 0.037371919 -0.25349
0.14269477 0.032589309 -0.25349
0.17197487 0.03187988 -0.25349
-0.19187167 0.048235171 -0.25349
-0.13920525 0.041073114 -0.25349
0.033815414 0.046141207 -0.25349
0.21657313 0.043623224 -0.25349
-0.10278481 0.054277025 -0.25349
0.00346338 0.059364706 -0.25349
0.097467676 0.051193736 -0.25349
0.14971136 0.050186291 -0.25349
-0.15447347 0.077416293 -0.25349
-0.12029176 0.074635804 -0.25349
-0.020273127 0.070473127 -0.25349
0.032128014 0.071551882 -0.25349
0.23426643 0.074251577 -0.25349
-0.14109954 0.089362264 -0.25349
-0.13276975 0.084786594 -0.25349
-0.0076879188 0.085168533 -0.25349
-0.16353995 0.10474955 -0.25349
-0.20169663 0.11391106 -0.25349
-0.020568017 0.11660945 -0.25349
0.15016907 0.11401982 -0.25349
0.144051 0.1209425 -0.25349
0.16699235 0.12561843 -0.25349
0.2009839 0.12184376 -0.25349
-0.085298717 0.13295713 -0.25349
0.11260498 0.13001055 -0.25349
0.22000562 0.1378168 -0.25349
-0.092911765 0.14185399 -0.25349
0.13612403 0.14552072 -0.25349
0.23482373 0.14842206 -0.25349
-0.13789245 0.15922523 -0.25349003
0.063467115 0.15240657 -0.25349
0.19822237 0.15945826 -0.25349
-0.15155059 0.1609814 -0.25348997
0.23054592 0.16874614 -0.25349
0.14449926 0.17359464 -0.25349
-0.0046689585 0.18992533 -0.25349
-0.078095771 0.19076777 -0.25349
0.2344916 0.19057506 -0.25349
-0.1303128 0.21177657 -0.25349
0.19859685 0.21889558 -0.25349
-0.18179727 0.22558159 -0.25349
0.074129969 0.22779439 -0.25349
0.15838854 0.22511923 -0.25349
-0.15421021 0.2368021 -0.25349
0.11587502 0.23390326 -0.25349
0.12599431 0.23224881 -0.25349
0.19037727 0.23735458 -0.25349
0.027341077 0.24194315 -0.25349
-0.007878378 0.2542876 -0.25349
0.11555279 0.25869063 -0.25349
-0.10354593 0.26633254 -0.25349
0.062402215 0.26427189 -0.25349
0.19758514 0.26505372 -0.25349
0.22892283 0.26620239 -0.25349
0.2340904 0.26963931 -0.25349
-0.14179903 0.2763494 -0.25349
-0.069075264 0.2788198 -0.25349
-0.1977419 0.28177255 -0.25349
-0.07866323 0.2856617 -0.25349
0.030842494 0.28180134 -0.25349
-0.031575549 0.29436809 -0.25349
0.19090481 0.29912317 -0.25349
-0.18389416 0.30096892 -0.25349
-0.13540328 0.30555317 -0.25349
0.13074863 0.30731791 -0.25349
-0.23379338 0.31790346 -0.25349003
-0.080132976 0.3168073 -0.25349
0.033451021 0.32129318 -0.25349
0.17851254 0.32945389 -0.25349
0.22078992 0.32858315 -0.25349
-0.056986459 0.33397365 -0.25349
0.081939258 0.33192989 -0.25349
0.18277924 0.3340067 -0.25349
-0.23799722 0.348548 -0.25142613
-0.14615077 0.34344101 -0.25349
0.033733651 0.348548 -0.25117168
0.046453178 0.348548 -0.25288785
0.074522257 0.34054506 -0.25349
0.17463098 0.34810489 -0.25349
0.22726664 0.348548 -0.25160667
-0.043970354 -0.348548 -0.24755061
0.24250498 -0.29262966 -0.24962883
0.23659101 -0.24261039 -0.24088825
-0.228986 -0.23548615 -0.24991682
-0.228986 -0.16099222 -0.24118599
-0.228986 -0.092105471 -0.24212572
-0.228986 0.068648957 -0.24447086
-0.19445197 0.348548 -0.24864754
-0.17651641 0.348548 -0.2400685
-0.18175514 -0.348548 -0.23215094
-0.078035608 -0.348548 -0.23431766
0.045145869 -0.348548 -0.2327175
0.082888454 -0.348548 -0.23610127
0.242505 -0.32226372 -0.23958218
-0.228986 -0.29657042 -0.23697069
-0.228986 -0.11625893 -0.23981854
-0.228986 -0.041488536 -0.23410784
-0.228986 0.071839988 -0.23180297
-0.228986 0.15539849 -0.23556083
-0.228986 0.245094 -0.2359461
-0.228986 0.25122789 -0.23223168
-0.037411168 0.348548 -0.23277557
0.053248771 0.348548 -0.23175308
0.17211409 0.348548 -0.23908216
-0.21429667 -0.348548 -0.22510034
0.021276293 -0.348548 -0.22837783
0.070346192 -0.348548 -0.22835015
0.087490357 -0.348548 -0.22028697
0.242505 -0.34801644 -0.22401653
0.242505 -0.33130524 -0.22722474
0.236591 0.036795817 -0.22933832
-0.228986 0.082680941 -0.22687486
-0.228986 0.097093508 -0.22412795
-0.228986 0.1832815 -0.22711816
0.236591 0.18998297 -0.22409032
-0.228986 0.20763437 -0.22589555
-0.228986 0.21616897 -0.22663511
-0.12508641 0.348548 -0.22100267
0.07106778 0.348548 -0.22483397
-0.047442354 -0.348548 -0.21061002
-0.228986 -0.30444375 -0.21373042
-0.228986 -0.084619641 -0.21440485
-0.228986 -0.046556301 -0.21690495
0.236591 0.19607103 -0.21702942
0.24482158 0.24476498 -0.21780136
0.24842 0.25515616 -0.21039937
0.24842 0.33736169 -0.21377935
-0.076759398 0.348548 -0.21882382
-0.043539278 0.348548 -0.2135548
-0.015195921 0.348548 -0.21268299
0.19562793 0.348548 -0.21119758
-0.1909942 -0.348548 -0.20554273
-0.069911212 -0.348548 -0.20660719
0.01152724 -0.348548 -0.20308547
-0.228986 -0.33627754 -0.20367107
0.236591 -0.26535994 -0.2066133
-0.228986 -0.19195864 -0.20065662
0.23659101 -0.10571593 -0.2041426
0.236591 0.2069709 -0.20850828
0.24842 0.2862969 -0.20162994
-0.19896519 0.348548 -0.20177129
-0.18672808 0.348548 -0.20677936
-0.17138243 0.348548 -0.20627636
-0.020479575 0.348548 -0.20766658
-0.0074579418 0.348548 -0.20286998
-0.15313527 -0.348548 -0.19707686
0.022332035 -0.348548 -0.19664882
0.076052129 -0.348548 -0.19612983
0.10244358 -0.348548 -0.19449075
0.13070792 -0.348548 -0.1998376
0.17160079 -0.348548 -0.19301695
0.23659101 -0.24880782 -0.19528176
-0.228986 -0.14414735 -0.19295171
-0.228986 -0.041928831 -0.19906096
-0.228986 -0.008238852 -0.19766892
0.23659101 0.018862478 -0.19555601
-0.228986 0.10963488 -0.19251089
0.24842 0.31574303 -0.19630608
-0.25349 0.32583553 -0.19284955
-0.22370061 0.348548 -0.19469127
-0.218652 0.348548 -0.19466501
-0.09748619 0.348548 -0.19622004
0.24717928 0.348548 -0.19163169
-0.13506828 -0.348548 -0.18143222
0.08757437 -0.348548 -0.18149683
0.22431077 -0.348548 -0.184301
-0.228986 -0.24621838 -0.18732607
0.23659098 -0.23244679 -0.18772472
-0.228986 -0.21995912 -0.18673146
-0.23291464 -0.14995527 -0.184605
0.236591 -0.090211123 -0.18660502
0.23659098 -0.083404645 -0.18998834
-0.228986 -0.028555572 -0.18490082
-0.23513606 0.0077131353 -0.184605
-0.25349 0.30535436 -0.18215001
-0.066756085 0.348548 -0.18238494
-0.17890844 -0.348548 -0.17651135
-0.13020498 -0.348548 -0.17713569
0.14764923 -0.348548 -0.17220424
0.24209729 0.041618023 -0.17281812
-0.25349 0.34753415 -0.17104936
-0.21067053 0.348548 -0.17686702
-0.20646146 0.348548 -0.17991412
-0.19638729 0.348548 -0.17881617
0.024245985 0.348548 -0.17455927
0.105281 -0.348548 -0.1677202
0.13671473 -0.348548 -0.16301113
0.19354497 -0.348548 -0.16665509
-0.23912501 -0.27915487 -0.16572936
0.23659098 -0.22531095 -0.16421241
0.23659098 -0.15248154 -0.16895176
0.23659098 -0.062078465 -0.16061041
-0.239125 -0.051928855 -0.16268653
-0.239125 -0.039312817 -0.16023302
-0.23912501 0.021661952 -0.16832329
0.10582317 0.348548 -0.16985062
0.12687923 -0.348548 -0.15356
0.18934067 -0.348548 -0.15473104
0.23659101 -0.18368319 -0.15449443
0.23913759 -0.0227606 -0.15433151
-0.239125 -0.018033303 -0.15741745
0.24799734 -0.019304158 -0.15666419
0.25349 -0.013703718 -0.1579506
0.236591 0.18549056 -0.15302639
0.236591 0.1946647 -0.15912551
0.24624786 0.244765 -0.157583
0.25349 0.28498051 -0.15933149
0.25349 0.29239261 -0.15727592
-0.24018236 0.348548 -0.15340889
0.043897636 0.348548 -0.1529516
0.12651552 0.348548 -0.15664145
-0.0040985569 -0.348548 -0.14511794
0.20066538 -0.348548 -0.1435506
-0.239125 -0.30770648 -0.14523667
0.236591 -0.26699114 -0.14797257
0.23659101 -0.21114777 -0.14665587
0.23659098 -0.19840616 -0.14861664
-0.239125 -0.097959645 -0.1437614
0.23659101 -0.041778948 -0.1425955
-0.23912498 -0.026098631 -0.14814638
0.25349 -0.012049425 -0.14288847
0.11619109 0.348548 -0.14238511
0.16014083 0.348548 -0.14718862
-0.017494556 -0.348548 -0.13753569
-0.0039450713 -0.348548 -0.13005769
0.016470186 -0.348548 -0.13022138
0.242505 -0.31630364 -0.13217916
0.242505 -0.29913443 -0.13850082
-0.23912498 -0.0987681 -0.13460708
-0.23912498 -0.058930501 -0.13391784
0.25349 0.016105304 -0.13516949
0.25349 0.0964735 -0.1340344
0.236591 0.22027318 -0.13860458
-0.20845287 0.348548 -0.13817701
-0.073366553 0.348548 -0.13095069
0.20274919 0.348548 -0.1368317
0.23735709 -0.28684503 -0.12855217
0.25349 0.060810037 -0.1218579
-0.239125 0.14468947 -0.1265026
0.25349 0.16694194 -0.12012395
0.24995247 0.18001227 -0.12462293
0.24125636 0.244765 -0.12710583
-0.228986 0.26706186 -0.12364607
0.24914579 0.27610147 -0.12242614
-0.25349 0.34829473 -0.12815258
-0.14658946 0.348548 -0.12188676
0.034263223 0.348548 -0.12182406
-0.16138329 -0.348548 -0.11471781
-0.11315792 -0.348548 -0.11933165
-0.10628023 -0.348548 -0.11571056
-0.051289186 -0.348548 -0.11695995
0.23175982 -0.348548 -0.11576824
-0.239125 -0.33439812 -0.11805608
0.242505 -0.33773378 -0.11071494
0.236591 -0.25313392 -0.11539824
-0.23912501 0.024080426 -0.11764474
-0.21633516 0.348548 -0.11681658
-0.18278208 0.348548 -0.11650956
-0.064928658 0.348548 -0.11753388
-0.034528542 0.348548 -0.11859164
0.028330781 0.348548 -0.11191219
0.24561113 0.34453484 -0.1134283
0.07951545 -0.348548 -0.10375544
0.14771762 -0.348548 -0.10342539
0.18029609 -0.348548 -0.1005436
0.242505 -0.3461431 -0.10602687
0.23659098 -0.24292071 -0.1099243
0.23659101 -0.18147317 -0.10313967
0.236591 -0.16296047 -0.10186431
-0.23912498 -0.047493763 -0.10445483
0.25349 -0.02143465 -0.1093297
0.25349 0.033316664 -0.10408258
0.25349 0.078868374 -0.10281204
0.25349 0.12282483 -0.10659792
0.25349 0.15357395 -0.10292229
0.25349 0.18453264 -0.10836387
-0.23290731 0.20575936 -0.10367019
0.24842 0.28251642 -0.10549676
0.11131828 0.348548 -0.1004203
0.14259037 0.348548 -0.10790771
-0.089952119 -0.348548 -0.096191697
0.067418307 -0.348548 -0.095004164
0.07100974 -0.348548 -0.092185847
0.21240707 -0.348548 -0.09798865
0.236591 -0.18943796 -0.090822257
-0.23912501 -0.089125469 -0.094811246
-0.23912501 -0.06370382 -0.097127691
0.25349003 -0.066054225 -0.095929109
-0.23912498 -0.044775758 -0.099297971
-0.23912498 0.058239754 -0.098976821
-0.23912498 0.084082343 -0.092590459
-0.228986 0.27516744 -0.092838123
-0.20992851 0.348548 -0.096641712
-0.046346534 0.348548 -0.096193396
0.045777224 0.348548 -0.095957778
-0.10326763 -0.348548 -0.084075153
-0.052539784 -0.348548 -0.082857154
0.083749004 -0.348548 -0.089802049
0.11761051 -0.348548 -0.081832044
0.23659098 -0.19829386 -0.08524929
0.25349 -0.058570493 -0.088503525
-0.239125 -0.026044056 -0.0890387
0.1693251 0.348548 -0.087396733
0.17217231 0.348548 -0.081116356
0.19258118 0.348548 -0.081593879
0.027467974 -0.348548 -0.078961864
0.044631392 -0.348548 -0.072980881
0.14294733 -0.348548 -0.078771964
0.1855247 -0.348548 -0.0757742
-0.239125 -0.30458987 -0.073113576
0.236591 -0.26525584 -0.077991784
-0.23912501 -0.21806376 -0.071221396
0.23659101 -0.17732736 -0.070506215
-0.23912498 -0.095208637 -0.078063823
0.25349 -0.061647125 -0.07850384
0.25349 0.036674455 -0.072089955
0.25349 0.047516994 -0.076020882
0.25349 0.098959215 -0.079757407
0.25349 0.11061788 -0.079492263
-0.23912501 0.15670256 -0.07317175
-0.23912498 0.16117711 -0.074994579
0.25349 0.20615627 -0.078942791
0.236591 0.23802595 -0.07700558
-0.177468 0.348548 -0.072872132
0.051240809 0.348548 -0.077620424
0.2129935 0.348548 -0.07681413
-0.16248161 -0.348548 -0.069624566
-0.11811362 -0.348548 -0.068359479
-0.10559282 -0.348548 -0.067016333
0.15015887 -0.348548 -0.060590066
0.236591 -0.21813962 -0.0616979
0.23659101 -0.1405063 -0.06162475
0.236591 -0.10665832 -0.06189939
0.25349 0.16326255 -0.068928979
-0.228986 0.27425736 -0.062763259
-0.11921377 0.348548 -0.062343508
0.05569613 -0.348548 -0.057515569
-0.23912501 -0.32491302 -0.054123297
0.236591 -0.24715213 -0.050659701
0.236591 -0.11933072 -0.057412874
-0.23912498 -0.062778302 -0.052837893
0.25349 -0.034524009 -0.059585545
-0.239125 0.018894777 -0.056091737
0.25349 0.19056891 -0.05898292
0.236591 0.24188772 -0.059507757
0.24842 0.25548971 -0.057368305
-0.15033001 0.348548 -0.053872757
-0.058154158 0.348548 -0.057333715
-0.22701424 -0.348548 -0.042821877
-0.072840944 -0.348548 -0.040426426
-0.066344723 -0.348548 -0.042131901
0.091611542 -0.348548 -0.041816946
0.21474943 -0.348548 -0.048141003
-0.24676204 -0.010874285 -0.046292238
0.25349 0.050215714 -0.044185475
-0.23912498 0.093008734 -0.048885509
0.24842 0.25751859 -0.049264111
-0.228986 0.26877728 -0.04553809
-0.14497146 0.348548 -0.043003522
-0.13082838 0.348548 -0.044932682
-0.11355671 0.348548 -0.044135757
-0.095548958 0.348548 -0.041345634
0.087575331 0.348548 -0.04378134
-0.2036873 -0.348548 -0.03674525
-0.093796849 -0.348548 -0.03070287
-0.0038893581 -0.348548 -0.032510273
-0.239125 -0.22737119 -0.031561945
-0.23912501 -0.20183507 -0.038271874
-0.13582501 0.348548 -0.034827851
-0.06158758 0.348548 -0.032510221
0.030383781 0.348548 -0.038790435
0.1271632 0.348548 -0.032093294
0.21660794 0.348548 -0.034694687
0.24842 0.34214586 -0.030340575
-0.23507245 -0.348548 -0.020541124
-0.16795589 -0.348548 -0.029672964
-0.11709683 -0.348548 -0.020815982
-0.065845743 -0.348548 -0.027691457
0.13253297 -0.348548 -0.022208311
0.24250498 -0.33347988 -0.029032677
-0.23912498 -0.2956112 -0.028225116
0.23659101 -0.27998829 -0.02704677
-0.239125 -0.11570115 -0.025544368
0.25188529 -0.11291124 -0.025463715
-0.23912501 0.056032874 -0.02372865
0.25349 0.10158583 -0.028325431
0.25349 0.20943686 -0.025170226
-0.25349 0.33894634 -0.023136584
-0.01426436 -0.348548 -0.017858475
0.25349 -0.031952567 -0.01975292
0.25349 0.16448703 -0.019281153
-0.239125 0.18373162 -0.011368793
0.25349 0.1878323 -0.019137826
0.25349 0.23142511 -0.012997012
-0.25349 0.33919892 -0.016631018
-0.24414228 0.348548 -0.019884072
0.0069400743 0.348548 -0.016787998
0.16168977 0.348548 -0.011957936
-0.075453706 -0.348548 -0.0069254264
-0.064290717 -0.348548 -0.0096452832
-0.239125 -0.14831102 -0.007364288
-0.24077968 0.0079028876 -0.0048022708
0.25349 0.083576627 -0.0018857722
-0.23912498 0.15671664 -0.00076202303
-0.228986 0.23796535 -0.0060714073
0.24842 0.26904431 -0.0028092861
0.10832597 0.348548 -0.0018999614
0.13212314 0.348548 -0.00049558282
0.23571134 0.348548 -0.0064641312
-0.15657026 -0.348548 0.009876024
0.025549784 -0.348548 0.0032984987
0.14119777 -0.348548 5.9977174e-05
0.16059624 -0.348548 0.0033058003
0.19671729 -0.348548 0.0084775537
-0.239125 0.059508525 0.0087174028
-0.23912498 0.079480231 0.0087876767
-0.228986 0.23923245 0.0039163567
-0.24453451 0.29822299 0.0099404082
0.15437421 0.348548 0.0055477843
0.16125542 0.348548 0.0080405921
-0.096579269 -0.348548 0.01935719
0.0013698861 -0.348548 0.017623492
-0.23912498 -0.2834844 0.011259846
0.25349 -0.064237699 0.014800617
-0.23912501 0.13219921 0.016981993
0.25349 0.16088697 0.012445975
-0.23534383 0.348548 0.016090795
-0.17206034 0.348548 0.012972392
-0.031136625 0.348548 0.016471066
-0.018555421 0.348548 0.01133967
0.0033601201 0.348548 0.014477567
-0.17488873 -0.348548 0.02147942
-0.0047651939 -0.348548 0.029265121
0.023957863 -0.348548 0.023879237
0.058399104 -0.348548 0.02204299
0.16515897 -0.348548 0.02570102
-0.239125 -0.31870449 0.020513147
-0.239125 -0.29537541 0.026610818
0.24250498 -0.29960105 0.025244022
0.23659098 -0.13643041 0.028686618
0.24845129 -0.11339235 0.02281533
0.25349 -0.079183519 0.020183746
0.25349 -0.0025135844 0.025331713
0.25349 0.078324385 0.025834361
0.25349 0.17377329 0.025868837
-0.239125 0.19371942 0.023615021
-0.20312539 0.348548 0.020307943
-0.15634741 0.348548 0.028090566
0.1044204 0.348548 0.025400765
0.15441059 0.348548 0.023713306
0.24842 0.34749854 0.028862566
-0.19260323 -0.348548 0.032269321
0.21583387 -0.348548 0.033497535
-0.239125 -0.049253486 0.036293361
-0.23912498 -0.026894499 0.036800485
-0.239125 0.051416453 0.033621345
0.24541816 0.22925431 0.031882282
-0.228986 0.27989218 0.038370609
-0.25349 0.30958208 0.031915501
-0.099823341 0.348548 0.033455148
0.1016665 0.348548 0.034151077
0.19245413 0.348548 0.037647299
0.036881108 -0.348548 0.045921922
0.16788939 -0.348548 0.044005252
-0.23912498 -0.33223152 0.041217398
-0.239125 -0.31111658 0.045623321
-0.23912498 -0.23986259 0.041110113
-0.239125 -0.10067733 0.040375542
-0.239125 0.022091527 0.049860675
0.25349 0.15196082 0.045790438
-0.25349 0.32906404 0.047545012
0.2172036 0.348548 0.049446791
-0.23456128 -0.348548 0.050679576
-0.16293365 -0.348548 0.053153835
0.008168634 -0.348548 0.050600536
0.036476895 -0.348548 0.057921588
0.21376514 -0.348548 0.052652121
0.24250501 -0.32966185 0.059292063
0.23659098 -0.28459033 0.059571207
-0.239125 -0.17423357 0.051092323
-0.23912498 -0.0043501332 0.050907567
0.24842 0.32343885 0.052883994
-0.12368167 0.348548 0.054364711
0.020902298 -0.348548 0.061011825
0.242505 -0.31838006 0.068855792
-0.239125 -0.28969723 0.062236577
-0.239125 0.082826227 0.067453757
0.25349 0.10995471 0.064783707
-0.25349 0.30176726 0.061171718
-0.060868151 0.348548 0.060262881
0.060131893 0.348548 0.068836547
0.18112257 0.348548 0.067652531
-0.019467279 -0.348548 0.072881997
-0.239125 -0.21284787 0.076623529
-0.23912501 -0.18600264 0.077149555
-0.23912501 -0.15382695 0.079323255
0.25349 -0.066909574 0.078483462
-0.239125 -0.055847954 0.072038703
0.25349 0.046185713 0.07034348
0.25349 0.071213335 0.075757071
-0.22175352 0.348548 0.07642588
-0.11671585 0.348548 0.079598613
-0.089355752 0.348548 0.07576789
0.18390295 0.348548 0.077075101
-0.14429152 -0.348548 0.089390084
0.17819279 -0.348548 0.082306236
0.18585172 -0.348548 0.087547854
0.24250498 -0.32284492 0.081106991
-0.239125 -0.14447726 0.086797945
-0.23912498 -0.014374495 0.088574797
0.25349 0.017323248 0.085603908
-0.23912498 0.086045839 0.086612314
-0.239125 0.1209008 0.083557278
0.24842 0.28396749 0.083645873
0.24842 0.32166862 0.084547497
-0.22144026 0.348548 0.084865808
-0.16884811 0.348548 0.084529698
-0.089459963 0.348548 0.089088969
-0.19283697 -0.348548 0.097853079
0.0073414445 -0.348548 0.090591878
0.056206752 -0.348548 0.092923947
0.19770083 -0.348548 0.094068967
0.24250498 -0.31406605 0.094878927
-0.239125 -0.26986617 0.092255577
-0.239125 -0.16896784 0.096199207
-0.23912501 -0.15441793 0.099915355
0.236591 -0.12868938 0.09049733
-0.23912501 -0.094137169 0.097194605
0.25349 0.013218638 0.092651397
-0.23912498 0.068229705 0.094926499
0.23736632 0.20473863 0.096252508
0.2372137 0.24476501 0.09680222
-0.24195018 0.29822299 0.097496189
0.24842 0.30734941 0.098840237
0.22155872 0.348548 0.0932898
0.24842 0.34154737 0.091577098
-0.239125 -0.31761006 0.1086404
-0.239125 -0.29473001 0.10268822
-0.239125 -0.26602572 0.1093938
-0.23912498 -0.17070632 0.10399026
0.25349 0.011484641 0.10348991
0.25349 0.065457389 0.10003108
-0.239125 0.12229201 0.10346466
-0.24856043 0.29822299 0.10047963
0.24841999 0.30428171 0.1098986
-0.22381969 0.348548 0.10363415
-0.20311418 0.348548 0.1067174
0.23421839 0.348548 0.1031563
-0.16973074 -0.348548 0.11552648
-0.10644367 -0.348548 0.11491521
-0.062616445 -0.348548 0.1192676
0.02618245 -0.348548 0.11496838
0.10247206 -0.348548 0.11189447
0.22617805 -0.348548 0.11045312
0.24250498 -0.30275485 0.11250191
-0.23912498 -0.26321763 0.11603143
-0.23912501 -0.17181575 0.11396787
-0.23912498 -0.038567681 0.11760538
-0.239125 0.069518149 0.11365778
0.24842 0.29519743 0.11645539
-0.2191851 0.348548 0.1143605
-0.10257205 0.348548 0.11736207
-0.082937106 0.348548 0.11750246
0.088958979 0.348548 0.11508378
-0.19926366 -0.348548 0.12382509
0.064190671 -0.348548 0.12667802
0.23659098 -0.1767672 0.12009205
0.236591 -0.16631755 0.12521738
0.236591 -0.09635514 0.12365335
-0.239125 -0.062870577 0.12022783
0.25288561 -0.058902744 0.12724259
0.25349 0.11922412 0.12910801
0.236591 0.19763364 0.12163106
-0.228986 0.25919557 0.12683637
0.24842 0.28143156 0.12289433
-0.23002744 0.29822299 0.12454079
-0.17699119 0.348548 0.12308937
-0.060929004 0.348548 0.12676564
0.00078854337 0.348548 0.12063356
0.16963422 0.348548 0.1206984
0.21463293 0.348548 0.12753838
-0.12605223 -0.348548 0.13408732
0.06595099 -0.348548 0.13709347
0.236591 -0.26030964 0.13995244
-0.23912501 -0.113368 0.139983
0.236591 -0.095928118 0.13489558
-0.23912501 -0.036576346 0.13752905
-0.239125 0.0245404 0.13346268
-0.22898598 0.17671017 0.1327242
0.23659098 0.24312921 0.13245024
0.24842 0.28019196 0.13829944
-0.2526601 0.348548 0.13903782
0.070076488 0.348548 0.13189828
-0.042557456 -0.348548 0.14690353
0.22156498 -0.348548 0.14899875
0.242505 -0.33737344 0.14810532
-0.23912498 -0.11164587 0.14429671
0.25349 -0.012269067 0.14125314
-0.23428112 0.055693403 0.148312
-0.23686852 0.074287862 0.148312
-0.23294325 0.12364423 0.148312
-0.228986 0.27845821 0.14249699
0.24842 0.29020214 0.14260268
0.24842 0.33561641 0.14437482
-0.16931342 0.348548 0.14135918
0.11148928 0.348548 0.14788002
-0.036295138 -0.348548 0.15638952
0.236591 -0.17769064 0.15221271
0.236591 -0.047794282 0.15093271
0.25349 0.010645583 0.15002173
0.25349 0.11930543 0.15348598
0.25349 0.13139212 0.15373552
0.236591 0.15903807 0.15423369
-0.228986 0.19544894 0.15181585
0.236591 0.2237238 0.15949243
-0.228986 0.27293849 0.15317413
-0.15829241 0.348548 0.15699804
0.074149646 0.348548 0.15791103
0.16214094 0.348548 0.15494126
-0.13042061 -0.348548 0.16747579
0.094441183 -0.348548 0.16891018
-0.22898601 -0.14592949 0.16644835
-0.228986 -0.13884686 0.16391906
0.23659101 -0.13982709 0.16871327
-0.22898598 0.038434748 0.1613898
-0.228986 0.09991385 0.16557024
-0.228986 0.10184785 0.16637565
0.24842 0.28531915 0.16936213
-0.23609692 0.29822299 0.16629675
-0.25349 0.33401236 0.1600038
0.24842 0.33673745 0.16832572
-0.096195869 0.348548 0.16411424
-0.12031592 -0.348548 0.17146167
-0.228986 -0.27544776 0.17752641
0.236591 -0.1044086 0.17418262
0.236591 -0.034281626 0.17087233
0.236591 0.044440638 0.17486753
0.236591 0.16459018 0.17738619
-0.25349 0.31976098 0.17828973
0.22659548 -0.348548 0.18592449
0.242505 -0.29680082 0.18709268
-0.228986 -0.26116729 0.1881955
-0.228986 -2.9742718e-05 0.18979427
0.236591 0.083430499 0.18873525
-0.228986 0.13078493 0.18541612
0.23659098 0.13646103 0.18186167
0.24842 0.29523838 0.1867322
0.24842 0.3276495 0.1829399
-0.22690213 0.348548 0.18503273
0.023168743 0.348548 0.18472475
-0.18686093 -0.348548 0.1985032
-0.17861883 -0.348548 0.19880164
-0.13901171 -0.348548 0.19812082
-0.228986 -0.094442822 0.19662076
-0.228986 0.15711975 0.19420667
-0.228986 0.1763687 0.1951578
0.23659098 0.19861355 0.19906051
0.23659101 0.20792095 0.19947961
-0.24317941 0.29822299 0.19333233
-0.25349 0.31840098 0.19478446
0.042117864 0.348548 0.19875973
0.084145933 0.348548 0.19886094
0.16746745 -0.348548 0.20450224
0.242505 -0.34733948 0.20131539
0.23659098 0.093893901 0.20225409
0.23659098 0.21911716 0.20773177
-0.25342658 0.29822302 0.20392483
-0.02431906 0.348548 0.20681891
0.12998047 0.348548 0.20998694
0.14921571 0.348548 0.2097013
0.20380849 -0.348548 0.21179152
-0.228986 -0.13554725 0.21051967
0.236591 -0.00030717999 0.21950549
-0.228986 0.05355629 0.21474905
-0.228986 0.095314197 0.21950714
0.236591 0.19548161 0.21325573
-0.11098368 0.348548 0.21763489
-0.092154793 0.348548 0.2183236
0.19062501 0.348548 0.21285731
-0.21816498 -0.348548 0.2243779
-0.056034334 -0.348548 0.22468159
-0.0090883598 -0.348548 0.22711471
0.16587445 -0.348548 0.22979258
-0.228986 -0.30915803 0.22152989
0.236591 -0.23712158 0.22633483
-0.228986 -0.12959427 0.22690959
-0.228986 -0.08220692 0.22080705
0.23659098 -0.03077314 0.22137532
-0.228986 0.19718377 0.22987433
-0.228986 0.28692201 0.22663356
0.0031603081 0.348548 0.2269415
0.055907704 0.348548 0.2236321
0.065598577 0.348548 0.22922933
0.14938894 0.348548 0.22105709
0.2301795 0.348548 0.22843626
-0.19426084 -0.348548 0.23354761
-0.025122341 -0.348548 0.238912
0.088106222 -0.348548 0.23665333
0.24250501 -0.34606647 0.23756269
0.23659101 -0.17250814 0.23662083
0.23659098 -0.1519492 0.23733623
0.236591 -0.12029305 0.23735482
0.23659101 -0.095092878 0.23537293
0.23659098 0.017888412 0.23085178
0.236591 0.029537581 0.23458965
0.236591 0.081060097 0.2317024
-0.228986 0.10886663 0.23111252
0.236591 0.1484821 0.23875093
-0.25349 0.33779153 0.23535141
0.18014614 0.348548 0.23734334
0.23274478 0.348548 0.23594943
-0.11673221 -0.348548 0.24312885
-0.067709632 -0.348548 0.24247858
0.091307178 -0.348548 0.24566562
-0.228986 -0.27210265 0.24211341
0.23659098 -0.12287032 0.24436983
-0.228986 -0.092666954 0.24613778
0.23659098 -0.061837986 0.24614035
-0.228986 0.13481386 0.24856511
-0.11331213 0.348548 0.24386524
0.096575193 0.348548 0.24279475
0.17550299 0.348548 0.24321312
-0.22579609 -0.34854797 0.25112706
0.15484709 -0.34204391 0.25349
0.23978887 -0.34051818 0.25349
-0.20063448 -0.33301929 0.25349
0.049339402 -0.33802474 0.25349
-0.010092042 -0.32149708 0.25349
0.1354726 -0.32786313 0.25349
-0.14693171 -0.31654972 0.25349
0.036787212 -0.31345457 0.25349
0.06064374 -0.31064487 0.25349
0.13348183 -0.3101846 0.25349
-0.22146241 -0.3069382 0.25349
-0.050372954 -0.30004305 0.25349
-0.048837774 -0.3097769 0.25349
-0.021266811 -0.30231327 0.25349
0.21906379 -0.30447787 0.25349
0.043155216 -0.29878017 0.25349
0.04828025 -0.28926325 0.25349
0.077209875 -0.2843602 0.25349
0.18414123 -0.28263682 0.25349
-0.0033043474 -0.27555472 0.25349
0.18143509 -0.27341753 0.25349
0.19095144 -0.27188691 0.25349
0.10347241 -0.26923141 0.25349
0.1509856 -0.26134595 0.25349
0.17143302 -0.26827309 0.25349
-0.033843786 -0.25008377 0.25349
0.01219669 -0.25299561 0.25349
0.14130636 -0.25385889 0.25349
-0.15099783 -0.24570753 0.25349
-0.14357193 -0.24765226 0.25349
0.025322914 -0.23462054 0.25349
0.073016174 -0.23840322 0.25349
0.2350754 -0.23859984 0.25349
-0.18966214 -0.22950496 0.25349
-0.030766439 -0.22910492 0.25349
0.15590365 -0.22494663 0.25349
0.17504866 -0.22179542 0.25349
-0.16223991 -0.21777627 0.25349
0.20729412 -0.21227053 0.25349
-0.18324564 -0.2091915 0.25349
-0.1563853 -0.20813259 0.25349
-0.12494464 -0.20677857 0.25349
-0.14791495 -0.19546275 0.25349
0.10559963 -0.19213358 0.25349
0.15988424 -0.18378022 0.25349003
-0.14593615 -0.17758772 0.25349
-0.0045999587 -0.17542544 0.25349
0.086488888 -0.17396773 0.25349
0.10649453 -0.17468908 0.25349
-0.18561922 -0.1683978 0.25349
-0.043653648 -0.16290875 0.25349
-0.034223791 -0.16365489 0.25349
0.17537872 -0.16514069 0.25349
-0.2141145 -0.15060893 0.25349
-0.2001555 -0.15286691 0.25349
-0.19278562 -0.1547201 0.25349
-0.0051711462 -0.15122175 0.25349
-0.0088256672 -0.13271815 0.25349
-0.22869 -0.12803259 0.25349
-0.18561611 -0.12008652 0.25349
0.063718006 -0.12115078 0.25349
0.136261 -0.12604833 0.25349
0.14117202 -0.12388054 0.25349
0.16718647 -0.12041122 0.25349
0.23062266 -0.11112186 0.25349
0.10744727 -0.10783777 0.25349
0.0034174733 -0.093588352 0.25349
-0.14442968 -0.082447991 0.25349
0.093393803 -0.075332701 0.25349
0.051409431 -0.065199785 0.25349
-0.095785551 -0.058822826 0.25349
0.036461055 -0.049368933 0.25349
0.05205017 -0.042713542 0.25349
0.10811627 -0.040402751 0.25349
-0.092983685 -0.037256911 0.25349
-0.21946147 -0.020467848 0.25349
-0.12159705 -0.021192774 0.25349
-0.096725971 -0.020142823 0.25349
-0.22099856 -0.012281939 0.25349
-0.16254315 -0.018631145 0.25349
0.19569308 -0.015509151 0.25349
-0.21144967 -0.0055685788 0.25349
0.037664026 -0.00036713481 0.25349
0.081678376 -0.0072128065 0.25349
-0.21393201 0.0068669766 0.25349
-0.12452836 0.0013128892 0.25349
-0.072899394 0.0097906366 0.25349
-0.016399149 0.001900543 0.25349
-0.0061130696 0.0021109078 0.25349
-0.077830285 0.013726216 0.25349
-0.050371222 0.015100271 0.25349
0.22633685 0.017298907 0.25349
-0.20076296 0.023707718 0.25349
-0.16116761 0.022096276 0.25349
0.040533043 0.021514893 0.25349
0.033527724 0.033552513 0.25349
0.18122147 0.033128135 0.25349
0.23429444 0.031217545 0.25349
-0.21406427 0.044267401 0.25349
-0.1812221 0.049569443 0.25349
0.017808117 0.049646005 0.25349
-0.026190236 0.060833842 0.25349
-0.14685403 0.071282849 0.25349
-0.10159422 0.078616574 0.25349
-0.086275578 0.075045101 0.25349
-0.028609723 0.077129483 0.25349
0.0091856718 0.071638107 0.25349
0.11639113 0.076808669 0.25349
0.19016483 0.077945709 0.25349
-0.21638231 0.084540218 0.25349
-0.13703492 0.096330956 0.25349
0.19236085 0.10719197 0.25349
-0.18357749 0.11875761 0.25348997
-0.12280929 0.11329765 0.25349
0.015808687 0.11229593 0.25349
-0.057575285 0.12112748 0.25349
-0.020837333 0.12748379 0.25349
0.0041035376 0.1241813 0.25349
0.01003927 0.1256561 0.25349
0.16346148 0.12573412 0.25349
-0.19723713 0.13292229 0.25349
-0.14482971 0.1314453 0.25348997
-0.20295954 0.14264639 0.25349
0.014734015 0.14263296 0.25349
0.19233623 0.14121819 0.25349
-0.228986 0.1597731 0.2531938
-0.088001475 0.15626191 0.25349
-0.037722092 0.16340992 0.25349
0.068300232 0.17285764 0.25349
0.17367382 0.17376731 0.25349
-0.0185574 0.1871537 0.25349
0.017420059 0.19243875 0.25349
-0.19154526 0.20838422 0.25349
0.049302951 0.20947053 0.25349
0.057158414 0.20250356 0.25349
-0.22086392 0.21627182 0.25349
-0.17781483 0.2111513 0.25349
-0.018150277 0.21367414 0.25349
0.16604711 0.21919657 0.25349
-0.12136788 0.22520436 0.25349
-0.034081198 0.23751698 0.25349
-0.16015628 0.2496911 0.25349
-0.025382698 0.24909738 0.25349
0.038630977 0.25901076 0.25349
0.020035945 0.26112384 0.25349
0.22461969 0.26976159 0.25349
0.11253923 0.28718039 0.25349
0.12784271 0.28762463 0.25349
0.21465513 0.28973207 0.25349
-0.19854149 0.29580721 0.25349
0.053798642 0.29249457 0.25349
0.10319657 0.29154196 0.25349
0.22335579 0.2935006 0.25349
-0.16702455 0.3029125 0.25349
0.061719544 0.30141503 0.25349
0.10334691 0.32364991 0.25349
-0.15233441 0.33227012 0.25349
0.058164421 0.33424944 0.25349
0.21439634 0.33415154 0.25349
0.057956383 0.348548 0.25317833
0.23282504 0.3410176 0.25349
