# .PCD v0.7 - Point Cloud Data file format
VERSION 0.7
FIELDS x y z
SIZE 4 4 4
TYPE F F F
COUNT 1 1 1
WIDTH 115
HEIGHT 1
VIEWPOINT 0 0 0 1 0 0 0
POINTS 115
DATA ascii
-0.16436093 0.32912475 -0.050393414
-0.18507981 0.33687404 -0.05068922
-0.21430355 0.34780431 -0.051205769
-0.20560221 0.34454983 -0.050875403
-0.22127342 0.35041121 -0.051033653
-0.16344483 0.32878211 -0.044030845
-0.19107297 0.33911562 -0.047525484
-0.18540403 0.33699536 -0.045426995
-0.17514038 0.33315644 -0.04510596
-0.16823286 0.33057293 -0.044169251
-0.21387082 0.34764248 -0.044499848
-0.20544155 0.34448972 -0.045785841
-0.19683315 0.34127003 -0.043657109
-0.22275567 0.35096562 -0.043092113
-0.16370125 0.32887802 -0.035104126
-0.19078965 0.33900967 -0.037651818
-0.18521324 0.33692396 -0.035678487
-0.17492419 0.33307561 -0.034519721
-0.16834845 0.33061618 -0.038403735
-0.22016534 0.34999675 -0.034807827
-0.21477591 0.34798095 -0.035305649
-0.20356411 0.34378755 -0.034321487
-0.19533224 0.34070864 -0.033903193
-0.22129081 0.3504177 -0.03172772
-0.10974869 0.31685466 -0.021248914
-0.16377516 0.32890567 -0.023227917
-0.19148618 0.33927017 -0.022692153
-0.18532966 0.33696747 -0.023616308
-0.17424884 0.33282307 -0.027280709
-0.1679776 0.33047745 -0.024338474
-0.2149135 0.34803244 -0.025297966
-0.20572443 0.34459558 -0.02559879
-0.1958655 0.34090808 -0.026484512
-0.22188661 0.35064054 -0.025709445
-0.11128998 0.31696916 -0.016225323
-0.1066959 0.31662783 -0.014534825
-0.16421974 0.32907194 -0.015020769
-0.1917194 0.33935738 -0.015084185
-0.18499938 0.33684394 -0.013137985
-0.17394398 0.33270898 -0.01499455
-0.16832896 0.33060887 -0.014534609
-0.21496631 0.34805223 -0.015318546
-0.20528714 0.344432 -0.014664968
-0.19601735 0.34096494 -0.015629295
-0.22223112 0.3507694 -0.015320605
-0.11092103 0.31694174 -0.0072765062
-0.10671514 0.31662929 -0.0049732337
-0.16351534 0.32880852 -0.0042518121
-0.19081196 0.33901799 -0.0053004185
-0.18515198 0.33690104 -0.0052240691
-0.1742364 0.33281839 -0.0036074622
-0.16820768 0.33056352 -0.0052679158
-0.2142342 0.34777838 -0.0055876295
-0.20553197 0.34452358 -0.0057128794
-0.1962283 0.3410438 -0.0036973108
-0.2229832 0.3510507 -0.0077383686
-0.11186966 0.31701225 0.0093500055
-0.10702348 0.31665218 0.0035211495
-0.16303806 0.32862994 0.0070230062
-0.19098073 0.33908114 0.0034353249
-0.18683709 0.3375313 0.0041096932
-0.174509 0.33292037 0.004693836
-0.16790062 0.33044869 0.0036813887
-0.2154399 0.34822935 0.0049347919
-0.20467974 0.34420484 0.0050678351
-0.19689377 0.34129274 0.0055749728
-0.22166617 0.35055807 0.0055791219
-0.11058966 0.31691712 0.015472441
-0.10695116 0.31664681 0.015071237
-0.16393563 0.32896566 0.014014835
-0.19251937 0.33965656 0.016145842
-0.18582723 0.33715364 0.013667993
-0.17426048 0.33282742 0.014474869
-0.16813533 0.33053645 0.016882231
-0.22000346 0.34993619 0.017082021
-0.21360843 0.34754431 0.014794853
-0.20405465 0.34397101 0.012987774
-0.1980765 0.34173509 0.015706945
-0.22199351 0.3506805 0.014827298
-0.11043434 0.31690559 0.025435679
-0.10709626 0.3166576 0.023009406
-0.16430068 0.32910222 0.024328791
-0.19128665 0.33919552 0.025216337
-0.18458708 0.33668971 0.024211533
-0.17620018 0.3335529 0.025672458
-0.16772075 0.33038139 0.02430987
-0.21449086 0.3478744 0.025372621
-0.20408785 0.34398347 0.024115643
-0.19612609 0.34100559 0.025217626
-0.22116201 0.35036951 0.024715105
-0.16403867 0.32900423 0.035447761
-0.19147399 0.33926558 0.035053473
-0.18392712 0.33644292 0.03583679
-0.17420025 0.33280486 0.035746314
-0.16743256 0.33027363 0.035444465
-0.22015488 0.34999281 0.035213783
-0.21424532 0.34778252 0.03430992
-0.20554765 0.34452945 0.035358097
-0.19667728 0.34121177 0.033989538
-0.22258227 0.35090074 0.034512479
-0.16456097 0.32919958 0.046366237
-0.19212 0.33950722 0.043686125
-0.18494767 0.33682463 0.043341823
-0.17498775 0.3330994 0.043840736
-0.16830532 0.33060005 0.044949666
-0.21542498 0.34822378 0.045797531
-0.20461139 0.34417924 0.044553161
-0.19744913 0.34150043 0.04586843
-0.22249384 0.35086769 0.043773968
-0.16097087 0.32785678 0.050214451
-0.18442684 0.33662981 0.050585296
-0.17449296 0.33291432 0.050379489
-0.21021034 0.34627336 0.050448101
-0.20795815 0.34543103 0.050842568
-0.19816875 0.34176958 0.050735362
