# .PCD v0.7 - Point Cloud Data file format
VERSION 0.7
FIELDS x y z
SIZE 4 4 4
TYPE F F F
COUNT 1 1 1
WIDTH 974
HEIGHT 1
VIEWPOINT 0 0 0 1 0 0 0
POINTS 974
DATA ascii
0.27507901 -0.31950501 -0.25156865
0.20640048 -0.3044945 -0.251582
-0.099428751 -0.29110789 -0.251582
-0.076377735 -0.29608756 -0.251582
0.064339802 -0.29238924 -0.251582
0.16739835 -0.29974833 -0.251582
-0.14620778 -0.28002974 -0.251582
0.26195672 -0.28541878 -0.251582
-0.18405136 -0.27166885 -0.251582
-0.16964602 -0.2733117 -0.251582
-0.151758 -0.2771112 -0.251582
-0.12328619 -0.27530071 -0.251582
-0.09571968 -0.27726263 -0.25158203
0.02036152 -0.27630478 -0.251582
0.1133604 -0.27723274 -0.251582
0.20311767 -0.26042452 -0.251582
0.10528737 -0.25882709 -0.251582
0.18244392 -0.25538665 -0.251582
0.23869839 -0.25779736 -0.251582
-0.22907972 -0.24102022 -0.251582
-0.16483039 -0.24973287 -0.251582
0.04480359 -0.2465298 -0.251582
0.072436981 -0.2422249 -0.251582
0.24100627 -0.24870782 -0.251582
-0.26732141 -0.23104705 -0.251582
-0.18774837 -0.23478587 -0.251582
-0.14010552 -0.23481587 -0.251582
-0.043562498 -0.23237737 -0.251582
0.27564558 -0.23000954 -0.251582
0.093980886 -0.22392264 -0.251582
0.13163602 -0.22072212 -0.251582
-0.15186656 -0.21969296 -0.251582
-0.13918103 -0.21041326 -0.251582
0.0025313348 -0.21574751 -0.251582
-0.24694557 -0.20911427 -0.251582
-0.19073883 -0.20524853 -0.251582
0.002299428 -0.20672381 -0.251582
-0.10063628 -0.19838834 -0.251582
-0.24529287 -0.18902843 -0.251582
-0.0613994 -0.18250051 -0.251582
0.0081055686 -0.18738535 -0.251582
0.034936212 -0.18715748 -0.251582
-0.19537923 -0.1715503 -0.251582
-0.046548463 -0.17980829 -0.251582
-0.0088849999 -0.17713854 -0.251582
-0.12507975 -0.16059096 -0.251582
-0.05924632 -0.16972032 -0.251582
-0.058747374 -0.15770097 -0.251582
-0.18703972 -0.1420479 -0.251582
-0.15690152 -0.14866255 -0.251582
0.14649674 -0.1437345 -0.251582
-0.031416655 -0.13281326 -0.251582
0.0069573224 -0.12259746 -0.251582
0.076200075 -0.12234746 -0.251582
-0.16313115 -0.11617582 -0.251582
-0.1119869 -0.1153576 -0.251582
0.070701897 -0.11747807 -0.251582
0.12031282 -0.11042509 -0.251582
0.17780659 -0.11540686 -0.251582
-0.26890659 -0.10488751 -0.251582
-0.12747315 -0.10669529 -0.251582
-0.11993239 -0.10625644 -0.251582
-0.26988062 -0.099389628 -0.251582
-0.14453383 -0.099462241 -0.251582
-0.066162735 -0.095948614 -0.251582
-0.047829036 -0.093594074 -0.251582
0.11206575 -0.098411009 -0.251582
0.1558308 -0.09763056 -0.251582
0.026562154 -0.088425726 -0.251582
0.079761744 -0.086830258 -0.251582
0.09196727 -0.08620806 -0.251582
0.24855682 -0.083554178 -0.251582
-0.11875175 -0.073599674 -0.251582
0.0097392797 -0.071225241 -0.251582
0.11634076 -0.075158916 -0.251582
-0.23043256 -0.069813304 -0.251582
-0.1888538 -0.064494967 -0.251582
0.068480752 -0.068766445 -0.251582
-0.26823997 -0.057337105 -0.251582
-0.1661547 -0.054346513 -0.251582
-0.054292955 -0.055870049 -0.251582
0.030311234 -0.055224203 -0.25158197
0.14345992 -0.05836805 -0.251582
0.2292988 -0.050551459 -0.251582
-0.033217955 -0.045060441 -0.251582
0.012440903 -0.041279044 -0.251582
0.07817588 -0.041941822 -0.251582
0.096186399 -0.047546532 -0.251582
0.25638387 -0.045463428 -0.251582
-0.072701491 -0.033529807 -0.251582
-0.22742212 -0.027670555 -0.251582
-0.096574455 -0.027415697 -0.251582
-0.27417511 -0.017174864 -0.251582
-0.22100177 -0.016100749 -0.251582
-0.18044382 -0.017674085 -0.251582
-0.22831763 -0.0064809546 -0.251582
-0.17248501 -0.0010279641 -0.25158203
0.13170451 -0.0072966293 -0.251582
0.16052666 -0.00097930431 -0.251582
-0.10541821 0.0087253535 -0.251582
-0.060889829 0.0093298405 -0.251582
-0.031013289 0.00026391074 -0.251582
0.026298728 0.0085226949 -0.251582
0.20997736 0.0097245462 -0.251582
0.21226546 0.0063155629 -0.251582
-0.10481745 0.018760577 -0.251582
-0.064692982 0.015511062 -0.251582
-0.01683753 0.01623646 -0.251582
0.24994756 0.018198699 -0.251582
-0.24535032 0.023118731 -0.251582
-0.18613788 0.026791621 -0.251582
-0.036070548 0.02867629 -0.251582
0.23286349 0.026988912 -0.251582
-0.23629643 0.037258267 -0.251582
0.27613601 0.030116595 -0.25016493
-0.17899084 0.049292229 -0.251582
-0.27222261 0.052136287 -0.251582
-0.047136612 0.058962263 -0.251582
0.22578123 0.053776912 -0.251582
-0.1861925 0.068621926 -0.251582
-0.22133356 0.073022626 -0.251582
0.13915017 0.073849499 -0.251582
0.16385201 0.075476222 -0.251582
-0.054710682 0.085171901 -0.251582
-0.039373003 0.081191815 -0.25158203
-0.028915651 0.08519426 -0.251582
-0.20403072 0.093686722 -0.251582
0.076901332 0.092372581 -0.251582
0.15538232 0.096077338 -0.251582
0.21538591 0.098749205 -0.251582
0.275318 0.10493267 -0.251582
-0.21961433 0.11946227 -0.251582
-0.14778687 0.11553228 -0.251582
-0.011846766 0.11123784 -0.251582
0.14207956 0.11992455 -0.251582
-0.14718992 0.12945476 -0.251582
-0.069460638 0.125342 -0.25039732
0.11131299 0.12325742 -0.251582
0.13812986 0.12368684 -0.251582
-0.13416561 0.13777654 -0.251582
-0.27031627 0.14274698 -0.251582
-0.26887354 0.14188319 -0.251582
-0.2499662 0.14877471 -0.251582
-0.1507273 0.16009006 -0.251582
-0.15554251 0.1964938 -0.251582
-0.14773931 0.214627 -0.251582
-0.15968896 0.23851898 -0.251582
-0.25466272 0.2400344 -0.251582
-0.26424298 0.25093091 -0.251582
-0.20642576 0.25870231 -0.251582
-0.27484968 0.29445323 -0.251582
-0.21045853 0.29973134 -0.25158203
-0.14958884 0.30217609 -0.251582
-0.26313689 0.33033314 -0.251582
-0.18454424 0.33133364 -0.251582
-0.16278172 -0.31950501 -0.24956205
-0.01296936 -0.31950501 -0.24225977
0.029245742 -0.31950501 -0.24079193
0.10443534 -0.31950501 -0.24568057
0.14465891 -0.31950501 -0.24343307
0.20624772 -0.31950501 -0.2408115
-0.27613601 -0.30045018 -0.24817783
-0.27613601 -0.22727391 -0.2450489
-0.27613601 -0.20165759 -0.24967207
-0.27613601 -0.12411863 -0.24003407
-0.27613601 -0.074339986 -0.24942127
0.27613601 -0.067204006 -0.24958807
0.27613601 0.083637595 -0.24774988
0.072184816 0.125342 -0.24275328
-0.27613601 0.16409183 -0.24540764
-0.27613601 0.21125142 -0.24174236
-0.126818 0.21918032 -0.24932298
-0.126818 0.26935184 -0.24322775
-0.15385252 0.332349 -0.24142855
-0.21649006 -0.31950501 -0.23346132
-0.0079654157 -0.31950501 -0.23004206
0.21819445 -0.31950498 -0.2306007
-0.27613601 -0.16370168 -0.23170626
0.27613601 -0.16169959 -0.23812035
-0.27613601 -0.13595459 -0.23604947
0.27613601 -0.13000882 -0.23777884
0.27613601 0.03768792 -0.23365764
0.27613601 0.10745145 -0.23577456
-0.0027903616 0.125342 -0.23012029
0.09652517 0.12534201 -0.23957582
-0.27613601 0.19425577 -0.23019712
-0.126818 0.22821586 -0.23578179
-0.126818 0.30665728 -0.23647365
-0.26587498 0.332349 -0.23137552
-0.2145974 0.332349 -0.2359059
-0.094368756 -0.31950501 -0.22930194
0.13626099 -0.31950501 -0.22948934
-0.27613601 -0.21816336 -0.22673793
0.27613601 -0.19519351 -0.22551444
0.27613601 -0.040751845 -0.22994806
0.27613601 0.012949727 -0.2280217
0.22527258 0.125342 -0.22817929
-0.126818 0.18227857 -0.22435397
-0.27613601 0.24521235 -0.22548206
-0.126818 0.31795084 -0.22380289
-0.030340817 -0.31950504 -0.21400817
0.13408375 -0.31950501 -0.21020772
-0.27613604 -0.17456681 -0.21310027
0.27613601 -0.081748113 -0.21640953
0.27613601 0.058213085 -0.21011579
0.27613601 0.10454856 -0.21052049
0.1704756 0.125342 -0.21766829
-0.126818 0.18048625 -0.21697409
-0.27613601 0.20875351 -0.21452412
-0.126818 0.31050622 -0.21989615
-0.16478926 -0.31950501 -0.20868692
-0.015769921 -0.31950501 -0.20205516
0.072109528 -0.31950501 -0.20428467
-0.27613601 -0.26761788 -0.20163733
-0.27613601 -0.16520675 -0.20324603
-0.27613604 -0.0084386915 -0.20662712
-0.27613601 0.072212324 -0.2082314
0.27613604 0.096182913 -0.20225787
0.1973206 0.125342 -0.20715483
-0.27613601 0.2628589 -0.20688742
-0.22988056 0.332349 -0.20117834
-0.0043005645 -0.31950501 -0.1919713
0.13278426 -0.31950501 -0.19478625
0.20622079 -0.31950501 -0.19222514
0.27613601 -0.26692614 -0.19715726
0.27613601 -0.25257921 -0.19132629
0.27613601 -0.1225567 -0.19114366
-0.27613601 -0.0065891147 -0.19783136
-0.27613601 0.072569422 -0.19061431
0.12793098 0.125342 -0.19514552
-0.126818 0.22116092 -0.19678211
-0.27613601 0.26656562 -0.19521321
-0.24333927 0.332349 -0.19172949
-0.21190889 0.332349 -0.19918719
-0.27085033 -0.31950498 -0.18980998
0.017066609 -0.31950501 -0.18246408
0.097189963 -0.31950501 -0.18370917
0.27613601 -0.28627902 -0.18979491
0.27613601 -0.27408338 -0.1849885
0.27613601 -0.063993774 -0.18033805
-0.27613601 -0.057816431 -0.18733846
0.27613601 -0.0015921891 -0.18333501
-0.27613601 0.11716707 -0.18483703
0.27613601 0.11689058 -0.18507122
-0.27613601 0.15116799 -0.18901876
-0.120774 0.24627154 -0.1844634
-0.26866019 0.332349 -0.18151191
0.17903645 -0.31950501 -0.17568006
0.19478571 -0.31950501 -0.17874974
0.26222503 -0.31950501 -0.1715975
-0.27613601 -0.18471909 -0.17636451
0.27613598 0.017549567 -0.17067304
-0.096271828 0.125342 -0.17148849
0.22932026 0.125342 -0.1754785
0.2590293 0.125342 -0.172607
0.26357308 0.125342 -0.17241007
0.27195582 0.125342 -0.17769589
-0.27613601 0.18780746 -0.17691895
0.21425757 -0.332349 -0.16932927
-0.27406058 -0.31950501 -0.16353504
-0.072326854 -0.31950501 -0.16479255
0.10764347 -0.31950504 -0.16046296
0.18460417 -0.31950501 -0.16428757
-0.27613601 -0.23886378 -0.1670661
0.27613601 -0.13680957 -0.16144617
-0.27613601 -0.10455575 -0.16536413
0.27613601 -0.086378247 -0.1692335
-0.27613601 -0.038787201 -0.16857269
-0.126818 0.13466585 -0.16850246
-0.120774 0.18280622 -0.1608476
-0.27613601 0.21657637 -0.16481897
-0.27613601 0.2236961 -0.16516681
-0.092772827 -0.31950501 -0.15325642
-0.0050147548 -0.31950501 -0.15868765
-0.27613604 -0.18271372 -0.15157105
-0.27613601 -0.10016119 -0.15615793
-0.27613601 -0.058611274 -0.15172015
0.27613601 -0.041791823 -0.15010531
0.27613601 -0.027844951 -0.15768838
0.27613601 -0.0040771961 -0.15824249
-0.089420319 0.125342 -0.15671402
0.040479735 0.125342 -0.15936083
0.060501732 0.125342 -0.15957758
-0.27613601 0.14804536 -0.15556358
-0.126818 0.31245387 -0.15572298
-0.23990703 0.332349 -0.1509538
-0.0040241112 -0.31950501 -0.14890531
0.033638351 -0.31950501 -0.1418056
0.13542056 -0.31950501 -0.14875425
0.21345425 -0.31950501 -0.14385574
-0.27613601 -0.057343483 -0.14598987
0.27613604 -0.0048967022 -0.14452982
0.27613601 0.084796876 -0.14241815
-0.126818 0.12717715 -0.1420587
-0.126818 0.3123661 -0.14544517
-0.24981233 0.332349 -0.14211389
-0.1883944 0.332349 -0.14800635
-0.21526112 -0.31950501 -0.13164298
-0.092874624 -0.31950501 -0.13959274
0.27613601 -0.2993004 -0.13768998
-0.27613601 -0.19007182 -0.13205662
0.27613601 -0.1692258 -0.13002028
0.27613604 -0.087039612 -0.13118427
-0.27613601 0.02734036 -0.13476203
-0.27613601 0.13333438 -0.13433446
-0.27613601 0.1635955 -0.13001958
-0.120774 0.17061377 -0.13840604
-0.27613601 0.26813444 -0.13178743
-0.17554986 0.332349 -0.13484982
-0.13429068 -0.31950501 -0.12120606
0.12206547 -0.31950501 -0.12586358
0.27613601 -0.20129752 -0.12320489
0.27613601 -0.18632889 -0.12185796
-0.27613601 -0.17540741 -0.12112036
0.27613601 -0.16890934 -0.12442322
0.27613601 -0.1541497 -0.12626973
-0.27613598 -0.13430619 -0.12343436
0.27613601 -0.13396668 -0.12690662
-0.27613601 -0.10104527 -0.12562348
-0.115486 0.21735664 -0.12541488
-0.27613601 0.22352098 -0.12062009
-0.25679338 0.332349 -0.12758455
-0.20476085 0.332349 -0.12252151
-0.12016281 -0.31950501 -0.11624649
-0.048948593 -0.31950501 -0.11085941
0.23558196 -0.31950501 -0.11218525
0.27151367 -0.31950501 -0.11077885
-0.27613601 -0.1895006 -0.11758632
0.27613601 -0.16561495 -0.11116622
-0.27613601 -0.073157415 -0.1148037
0.27613601 0.090037405 -0.11098258
-0.126818 0.14765511 -0.11997344
-0.126818 0.15211692 -0.1185803
-0.27613601 0.16900952 -0.11355078
-0.115486 0.230656 -0.11567173
-0.115486 0.26071665 -0.11656557
-0.27613601 0.31675413 -0.11231563
-0.2305844 -0.31950501 -0.1035739
-0.049972206 -0.31950501 -0.10373586
0.2185774 -0.31950501 -0.10308609
-0.27613601 -0.29293641 -0.10779274
-0.27613601 -0.24245042 -0.10556687
-0.27613601 -0.11809833 -0.10721055
-0.27613601 -0.095312715 -0.10491788
0.27613601 -0.098652206 -0.10663319
0.27613601 -0.021208093 -0.10122696
-0.27613601 -0.010957476 -0.10465189
0.040277235 0.125342 -0.10715551
0.097537301 0.125342 -0.10592997
0.12225556 0.125342 -0.10047998
0.13324709 0.125342 -0.10156755
-0.25847206 0.332349 -0.10307914
-0.13725984 0.332349 -0.10307704
-0.25547454 -0.31950498 -0.095577642
0.27613601 -0.2924127 -0.098687157
0.27613601 -0.19607803 -0.095229119
0.27613601 -0.10999193 -0.09824539
-0.27613601 -0.093619078 -0.090447254
-0.27613601 0.071400434 -0.093171045
0.20873357 0.125342 -0.094062127
-0.27613601 0.17896986 -0.098851979
-0.27613601 0.18320802 -0.093691021
-0.27613601 0.32662451 -0.096302472
0.010189235 -0.31950501 -0.087324589
0.27613601 -0.05996386 -0.080496505
0.06802009 0.125342 -0.081850372
0.24096139 0.125342 -0.08396171
-0.126818 0.29919571 -0.089795932
-0.20177846 -0.31950501 -0.076012745
-0.17975113 -0.31950501 -0.078485429
-0.095490649 -0.31950501 -0.079634354
-0.050804395 -0.31950501 -0.073288932
0.27613601 -0.29997537 -0.077169143
0.27613601 -0.23796333 -0.078145564
0.27613601 -0.130564 -0.077395573
-0.27613601 -0.12794793 -0.076005153
-0.27613601 -0.028289676 -0.079471678
-0.27613601 0.013130382 -0.074078619
-0.058323726 0.125342 -0.073802531
0.063973293 0.125342 -0.07163807
-0.126818 0.16964933 -0.071861118
-0.14642738 0.332349 -0.078485422
-0.27613601 -0.31900749 -0.063330598
0.074837476 -0.31950498 -0.06512747
0.10708805 -0.31950501 -0.069555894
0.19996424 -0.31950501 -0.063505404
0.22894523 -0.31950501 -0.066432945
0.27613601 -0.29640433 -0.067395039
-0.27613601 -0.21858144 -0.061256498
-0.27613601 -0.16038947 -0.060782257
0.27613601 -0.092153244 -0.068337515
0.27613601 -0.042938977 -0.066248044
-0.27613601 0.098151058 -0.067012087
-0.056207605 0.125342 -0.062784977
0.076701 0.125342 -0.069281951
0.11544635 0.125342 -0.065993831
-0.27613601 0.17782514 -0.06392809
-0.27613601 0.20800427 -0.065896846
-0.126818 0.29314572 -0.067035884
-0.27613601 -0.31448147 -0.057503253
-0.2589066 -0.31950501 -0.058966741
0.018907294 -0.31950501 -0.057176486
0.27613601 -0.016051508 -0.05102127
-0.27613601 -0.0057614297 -0.058951415
-0.087008856 0.125342 -0.054834642
0.0273197 0.125342 -0.050597034
0.27219921 0.125342 -0.058757246
-0.27613601 0.16724566 -0.057174228
-0.27613601 0.21360397 -0.053133804
-0.126818 0.26459104 -0.051020451
-0.27613601 0.28482762 -0.052995875
-0.27613601 0.29509932 -0.050020993
-0.27613601 0.30225235 -0.055423066
0.0016761422 -0.31950501 -0.044092029
0.15904123 -0.31950501 -0.049683746
0.27613601 -0.17300378 -0.046015013
0.27613601 -0.094836496 -0.049651653
-0.27613601 -0.067131594 -0.047187146
0.27613601 -0.069044106 -0.04123117
0.27613601 -0.039082155 -0.048068523
-0.27613601 1.119636e-05 -0.047257729
-0.12250074 0.125342 -0.042186789
-0.23266107 0.332349 -0.046225488
-0.27613601 -0.31802768 -0.033743683
-0.16977245 -0.31950501 -0.039304033
-0.011834152 -0.31950501 -0.038333051
0.11965879 -0.31950501 -0.031166788
0.15315858 -0.31950501 -0.033852205
0.27613601 -0.26877904 -0.039639443
-0.27613601 -0.25924969 -0.032435916
-0.27613601 -0.23147207 -0.030612294
-0.27613604 -0.015458748 -0.032367274
-0.27613601 0.048361957 -0.032025181
-0.00061379746 0.125342 -0.03363061
0.072818294 0.125342 -0.03439711
-0.27613601 0.18715206 -0.037109572
-0.27613601 0.24199994 -0.034023553
-0.27613601 0.27629545 -0.038838141
-0.27613601 0.29792416 -0.033911839
-0.090622872 -0.31950501 -0.022414148
0.084552772 -0.31950501 -0.020652916
-0.27613601 -0.2924459 -0.025438897
-0.27613601 -0.27620757 -0.020476386
0.27613601 -0.27672017 -0.021722533
0.27613601 -0.22754042 -0.025054004
0.27613601 -0.21087173 -0.028814156
-0.27613601 0.088841639 -0.020288698
0.27613601 0.11237141 -0.021823835
-0.083695531 0.125342 -0.029223509
-0.126818 0.13873929 -0.024968244
-0.126818 0.21362491 -0.020804999
-0.27613601 0.27184564 -0.027475126
0.069240354 -0.31950501 -0.013063163
0.079376198 -0.31950501 -0.01359763
0.14609997 -0.31950498 -0.01229348
0.23638724 -0.31950504 -0.010719739
0.25650135 -0.31950501 -0.018923573
-0.022596354 0.125342 -0.015475988
0.014083814 0.125342 -0.014686633
0.062570855 0.125342 -0.01928544
-0.27613601 0.14797601 -0.016912468
-0.12304623 0.23106873 -0.019843083
-0.27613601 0.28613025 -0.013857671
-0.17685756 0.332349 -0.017615043
-0.11388862 -0.31950501 -0.0067421123
0.051544785 0.125342 -0.0085462853
-0.27613601 0.20918471 -0.0087716877
-0.16276382 -0.31950501 0.0012166873
-0.082011871 -0.31950501 0.0090892166
0.11394051 -0.31950501 0.0090382025
0.26632094 -0.31950501 0.0047481507
0.27613601 -0.27898043 0.0050356761
-0.27613601 -0.064907178 0.0091553777
0.27613601 -0.02058663 0.00036649406
0.27613601 0.0096631888 0.0096981041
-0.018558979 0.125342 0.0051914304
0.046631109 0.125342 0.00033314526
0.20550485 0.125342 0.008735396
-0.126818 0.28577253 0.0087419711
-0.126818 0.31150252 0.0064684004
-0.17865777 0.332349 0.0057471804
-0.13876173 0.332349 0.0067577362
-0.19339202 -0.31950501 0.01383297
0.087706581 -0.31950501 0.013179749
0.19168913 -0.31950501 0.013318243
-0.27613601 -0.11893457 0.014623877
-0.27613601 -0.09329211 0.016505841
0.27613601 -0.064580247 0.011362806
0.27613601 -0.057601109 0.019381626
0.27613601 -0.0037194863 0.012418073
-0.27613601 0.0040830076 0.012623899
-0.27613601 0.056521371 0.015650019
-0.079090983 0.125342 0.014463738
0.039349213 0.125342 0.013541842
0.12414362 0.125342 0.012995455
0.17039686 0.125342 0.014151819
0.19846451 0.125342 0.018479943
-0.126818 0.16269404 0.019876331
-0.126818 0.20037675 0.016155245
-0.26326156 0.332349 0.010754012
-0.22170183 0.332349 0.01549197
-0.19446243 0.332349 0.011014372
-0.033944838 -0.31950501 0.022286139
0.070880912 -0.31950501 0.022677068
0.11466684 -0.31950501 0.026555121
0.27613601 -0.28589532 0.027777798
0.27613601 -0.23633122 0.022867598
0.27613601 -0.18319243 0.028949883
-0.27613601 -0.16291976 0.026178652
0.27613601 -0.10816887 0.027093217
-0.27613601 -0.088199221 0.02296244
0.12286019 0.125342 0.023507327
0.26524442 0.125342 0.027979188
-0.126818 0.25489286 0.023517061
-0.24211726 -0.31950501 0.036146581
-0.18899348 -0.31950504 0.037836894
-0.16280995 -0.31950501 0.030330002
0.23704982 -0.31950501 0.039794758
-0.27613601 -0.29906771 0.030992158
-0.27613601 -0.24215674 0.039864928
0.27613601 -0.24842289 0.03535796
0.27613601 -0.15963106 0.035155959
-0.27613601 -0.099675328 0.031675279
-0.12478553 0.125342 0.037637152
-0.064380549 0.125342 0.036195405
-0.053743821 0.125342 0.036628097
-0.015316196 0.125342 0.030264445
0.27613601 0.12413893 0.037096653
-0.126818 0.14703715 0.037393145
-0.126818 0.22970127 0.036213756
-0.126818 0.23009621 0.031205248
-0.126818 0.29833683 0.039903358
-0.126818 0.31652299 0.035066426
-0.20963541 -0.31950501 0.048583992
0.13074964 -0.31950501 0.049917847
0.24199624 -0.31950501 0.046361502
0.27613601 -0.19891182 0.044005454
-0.020998713 0.125342 0.045815464
-0.126818 0.16196623 0.042360343
-0.27613601 0.2514694 0.045409948
-0.27613601 0.32844281 0.040330321
-0.23110868 0.332349 0.040965024
-0.071715713 -0.31950501 0.054639243
0.1981888 -0.31950501 0.05522494
0.22476435 -0.31950501 0.050274659
0.24529627 -0.31950501 0.057880986
0.27613601 -0.13713251 0.056890033
0.27613601 -0.0015421286 0.056810297
-0.27613601 0.088190101 0.057258196
0.27613601 0.084991552 0.058547273
0.27613601 0.11200771 0.057097059
-0.032888018 0.125342 0.050885111
-0.2496742 0.332349 0.056632102
-0.18314126 -0.31950501 0.066416174
-0.17235139 -0.31950501 0.069452673
-0.070467345 -0.31950501 0.065143257
-0.013467044 -0.31950501 0.062416315
0.0012275949 -0.31950504 0.061363641
0.027570233 -0.31950501 0.068731397
0.27613601 -0.1547707 0.069879837
-0.27613601 -0.0063589625 0.067690484
-0.27613601 0.039165683 0.060711287
-0.12470289 0.125342 0.069679119
0.058053233 0.125342 0.06113413
-0.12984 0.17024502 0.066546991
-0.12984 0.21804036 0.060357362
-0.22164182 0.332349 0.067858189
-0.20334858 0.332349 0.06275627
-0.064722583 -0.31950501 0.078921288
-0.052314706 -0.31950498 0.0776271
-0.0027436167 -0.31950501 0.079172567
0.22576086 -0.31950504 0.072589524
0.27613601 -0.23561971 0.072920293
0.27613601 0.087758519 0.075842567
0.049598373 0.125342 0.072841458
0.27613601 0.12050996 0.076199777
-0.126818 0.13836962 0.074365541
-0.27613601 0.2776998 0.076286986
-0.20470697 0.332349 0.075828895
0.23923521 -0.31950501 0.084529303
0.27613601 -0.17774305 0.080824688
-0.27613601 -0.031408932 0.082905121
0.27613601 -0.024477236 0.087347105
-0.27613601 0.030249506 0.088510096
0.27613601 0.095099151 0.084868304
-0.27613601 0.12944029 0.089010447
-0.027643908 0.12534201 0.082190529
0.24939081 0.125342 0.08270137
-0.27613601 0.22800152 0.086811274
-0.126818 0.31496558 0.087093547
-0.23844348 0.332349 0.081242993
-0.069577962 -0.31950501 0.095406905
0.049807265 -0.31950501 0.098506853
0.16603084 -0.31950501 0.095182121
-0.27613601 -0.018764183 0.096294545
0.27613601 0.052821837 0.096046165
-0.11111762 0.125342 0.091410898
0.19639263 0.125342 0.099738926
0.27466679 0.125342 0.090842828
-0.27613601 0.28385636 0.090227254
-0.12756354 0.332349 0.092996441
-0.21979588 -0.31950501 0.10246117
-0.15771556 -0.31950504 0.10037503
-0.13728572 -0.31950504 0.10236865
0.00037436187 -0.31950501 0.10925421
0.27613601 -0.21548685 0.10126626
-0.27613601 -0.17165211 0.10946863
0.27613601 -0.046053015 0.10672031
-0.27613601 -1.937151e-05 0.10452221
0.27613601 0.020686086 0.10864436
-0.023959156 0.125342 0.10472745
-0.126818 0.15163383 0.10433074
-0.12984 0.18094783 0.10480288
0.02278737 -0.31950501 0.11903425
0.2650941 -0.31950501 0.11281016
0.27613601 -0.26922685 0.11182237
0.27613601 -0.19710003 0.1174063
-0.27613601 -0.075603895 0.11519233
-0.27613601 0.077667624 0.11849773
-0.11114842 0.125342 0.11667069
0.21132199 0.125342 0.11089069
0.24503092 0.12534201 0.11141361
-0.27613601 0.13909572 0.11601489
-0.11277823 -0.31950501 0.12149951
0.16308257 -0.31950501 0.12044057
0.27613601 -0.27495936 0.12442549
-0.27613601 -0.20483756 0.12928206
0.27613601 -0.19908968 0.1279918
0.27613601 -0.01242134 0.12183806
0.27613601 0.038483109 0.12671322
-0.098399177 0.125342 0.12804072
-0.011659199 0.125342 0.12271195
0.11863771 0.125342 0.1201701
-0.27613601 0.16791467 0.12718797
-0.12984 0.17016804 0.12180843
-0.12984 0.22864409 0.12346119
-0.14432065 0.332349 0.12722059
0.27613601 -0.23090431 0.13745835
0.27613601 -0.13207135 0.13914116
-0.27613601 -0.1067391 0.13411264
0.27613601 0.089921676 0.13683343
0.061867166 0.125342 0.13386028
0.27471775 0.125342 0.13490996
-0.126818 0.15775776 0.13580847
-0.27613601 0.24362835 0.13167545
-0.12984 0.24199723 0.13236828
-0.27613601 0.27619839 0.13860631
-0.126818 0.30251083 0.1388426
0.27613601 -0.23894215 0.14699055
-0.27613601 -0.11552566 0.147598
0.27613604 -0.11736529 0.14774963
0.27613601 -0.05686748 0.1457842
0.27613601 0.073676996 0.1449427
0.27613601 0.11230149 0.14471164
-0.12207736 0.125342 0.14887258
0.093527421 0.125342 0.14444321
0.18027984 0.125342 0.14554511
-0.12452841 -0.31950501 0.15304619
-0.10462936 -0.31950501 0.15769543
-0.08643584 -0.31950501 0.15095967
0.12837988 -0.31950501 0.15659745
0.25752226 -0.31950498 0.1591467
-0.27613601 -0.30754906 0.15735625
0.27613601 -0.29755461 0.15580943
0.27613601 -0.18501684 0.15490149
0.27613601 -0.17628409 0.15927228
-0.27613601 -0.1644991 0.15351377
0.27613601 -0.16945927 0.15900168
0.27613601 -0.14301246 0.15910824
-0.27613601 -0.12277056 0.15035832
-0.27613601 -0.11917335 0.15660028
-0.27613601 -0.041599367 0.15616572
-0.27613601 0.052533403 0.15811518
-0.27613601 0.07526049 0.15313429
-0.037084289 0.125342 0.15178859
-0.016796594 0.125342 0.15900062
0.072299406 0.125342 0.15704639
0.14420605 0.125342 0.15854761
-0.27613601 0.14407037 0.15879944
-0.12984 0.1773117 0.15078729
-0.27613601 0.2365464 0.15908468
-0.27211264 -0.31950501 0.16616729
-0.13723935 -0.31950501 0.1695922
0.022841707 -0.31950501 0.16275892
0.27613601 -0.25815496 0.16655564
0.27613601 -0.18136488 0.16729769
0.27613601 -0.14414209 0.16396594
-0.27613601 -0.12619799 0.16286743
-0.27613601 -0.053840771 0.16576897
0.27613601 0.037063014 0.16789506
0.27613601 0.083370864 0.1606316
-0.1035662 0.125342 0.16861224
0.049601477 0.125342 0.16312699
0.07705906 0.125342 0.1669437
0.18375774 0.125342 0.16370797
-0.12984 0.19321789 0.16523094
-0.27613601 0.21321785 0.16976187
-0.16807011 0.332349 0.16810043
0.12545857 -0.31950501 0.17337963
0.27613601 -0.28583965 0.17924641
0.27613601 -0.26579511 0.17877431
0.27613601 -0.17187059 0.17944737
0.27613601 -0.16017744 0.17312008
-0.27613601 -0.1055858 0.17105392
-0.27613601 -0.043319412 0.17694774
0.093358174 0.125342 0.17128216
0.21410412 0.125342 0.1776773
0.2396 0.125342 0.17747319
-0.27613601 0.17440514 0.17076939
-0.12984 0.21598873 0.17452504
-0.27613601 0.24748057 0.17717978
-0.16638651 0.332349 0.17368087
-0.1453443 0.332349 0.17584646
-0.22125123 -0.32130906 0.18361266
-0.27613601 -0.31885946 0.18077898
0.017981373 -0.31950501 0.18030339
0.13805623 -0.31950501 0.18186752
0.27613601 -0.3186149 0.18642636
-0.27613601 -0.13208467 0.18085235
0.0017851964 0.125342 0.18448859
-0.27613601 0.24482772 0.18610185
-0.27613601 -0.31438231 0.195168
0.27613601 -0.31079236 0.1998001
0.27613601 -0.18856883 0.19993673
0.27613601 -0.16130897 0.19931263
0.27613601 -0.11304948 0.1936793
-0.27613601 -0.062664852 0.19497901
-0.27613601 -0.025312588 0.19139798
-0.27613601 -0.0044956058 0.19331831
-0.27613601 0.011110678 0.19069612
-0.27613601 0.036955699 0.19314528
0.27613601 0.10968268 0.19627966
0.067203172 0.125342 0.19256967
0.11666703 0.125342 0.1923885
-0.27613601 0.14330888 0.19854374
-0.27613601 0.26414943 0.19622576
-0.15174162 -0.31950501 0.2054825
0.033060513 -0.31950501 0.20797943
0.12898113 -0.31950501 0.20161752
0.27613601 -0.11431114 0.20945978
0.27613601 -0.01921235 0.20331985
0.27613598 0.0411538 0.20250757
0.27613601 0.079106137 0.20058362
-0.052345973 0.125342 0.20926829
-0.047686398 0.125342 0.20920801
0.065660492 0.125342 0.20999967
-0.126818 0.15180232 0.20480663
-0.126818 0.1605538 0.20831758
-0.12984 0.18767244 0.2047148
-0.12984 0.19779497 0.20210829
-0.27613601 0.3178753 0.2048557
-0.12749131 0.332349 0.20282391
-0.22590674 -0.32438308 0.21890323
0.050815333 -0.31950501 0.21139961
0.1649704 -0.31950501 0.21215066
0.27613601 -0.13002577 0.21258757
0.27613601 0.095911995 0.21111859
-0.12386914 0.125342 0.21656927
0.1252134 0.12534198 0.21664804
0.16228089 0.125342 0.21509752
-0.27613604 0.16803837 0.21349946
-0.12984 0.18621011 0.21291682
-0.12984 0.25013027 0.21804625
-0.18787073 0.332349 0.21991307
-0.19721092 -0.32815045 0.22181448
-0.26649147 -0.31950501 0.22179914
-0.25613645 -0.31950501 0.22542173
-0.22606196 -0.31950504 0.22969775
-0.076616555 -0.31950501 0.22027409
0.068839006 -0.31950501 0.22332557
-0.27613601 -0.10555619 0.22415313
0.27613601 0.00072797388 0.2220895
0.27613601 0.040832132 0.22345436
0.27613601 0.11519289 0.22924611
-0.069218144 0.125342 0.22408992
0.073500007 0.125342 0.22910258
0.2011704 0.125342 0.22478986
-0.27613601 0.14627701 0.22379258
-0.126818 0.18744408 0.22876337
-0.27613601 0.21796352 0.22259982
-0.27613601 0.3314532 0.22402494
0.16619051 -0.31950501 0.2328321
-0.27613601 -0.20349956 0.23357993
-0.27613601 -0.1087721 0.23425981
0.27613601 -0.06204024 0.23531267
0.27613601 -0.036430709 0.23545563
-0.11439738 0.125342 0.23158093
0.073881596 0.12534201 0.2336559
0.23995174 0.125342 0.23060516
-0.27613601 0.14792201 0.23375241
-0.27613601 0.17118582 0.23777059
-0.126818 0.26226926 0.23616615
-0.15453491 0.332349 0.2320725
-0.26313058 -0.31950504 0.24425365
-0.013164937 -0.31950504 0.2487019
0.0085518062 -0.31950501 0.24811876
-0.27613601 -0.081791602 0.24183397
-0.27613601 -0.0075421631 0.24710628
0.27613601 0.043849576 0.24285251
0.27613601 0.075996302 0.24280421
-0.12097837 0.125342 0.24068117
0.202455 0.125342 0.24755736
0.2674939 0.125342 0.24239458
-0.126818 0.13194185 0.24080217
-0.01887951 -0.31122005 0.251582
0.049408987 -0.31467205 0.251582
0.15170592 -0.31876948 0.251582
0.23118706 -0.31950501 0.25064331
-0.16315493 -0.30771032 0.251582
0.022926778 -0.30342191 0.251582
-0.11817831 -0.29109904 0.251582
0.12171941 -0.29320797 0.251582
0.18816824 -0.29310244 0.251582
-0.20169148 -0.28862783 0.251582
-0.179929 -0.28155375 0.251582
-0.11619905 -0.28657436 0.251582
-0.092315845 -0.28089607 0.251582
-0.16826223 -0.27251634 0.251582
-0.13712277 -0.27958822 0.251582
-0.062556982 -0.27486646 0.25158203
-0.25329715 -0.2671791 0.251582
0.14894664 -0.2688944 0.251582
0.17165317 -0.26033336 0.251582
0.26321617 -0.26680493 0.251582
-0.27613601 -0.25577617 0.2502799
-0.23861587 -0.25128266 0.251582
0.018348716 -0.25212607 0.251582
0.25918517 -0.25724822 0.251582
-0.20027748 -0.2467324 0.251582
-0.07950639 -0.24733323 0.251582
0.15056224 -0.24482308 0.25158197
-0.10859017 -0.23340674 0.251582
0.16129945 -0.23173296 0.251582
0.19934498 -0.23513059 0.251582
0.2531811 -0.23771121 0.251582
-0.10097288 -0.22475816 0.251582
-0.033024326 -0.22118178 0.251582
-0.024135508 -0.22807345 0.251582
-0.014561102 -0.22332412 0.251582
0.019781545 -0.22373807 0.251582
0.24771726 -0.22846295 0.251582
-0.012455046 -0.210789 0.251582
-0.16343695 -0.20445479 0.251582
-0.039889403 -0.20049489 0.251582
0.13765867 -0.20569985 0.251582
0.25828475 -0.20230941 0.251582
-0.21946244 -0.19799061 0.251582
-0.19651763 -0.19828093 0.251582
-0.0064486265 -0.19548097 0.251582
0.2063126 -0.19434609 0.251582
0.085331574 -0.18227324 0.251582
0.14257804 -0.18492369 0.251582
-0.17682533 -0.17694703 0.251582
0.0019480735 -0.17952055 0.251582
0.089314997 -0.17355986 0.251582
0.19341686 -0.17608625 0.251582
-0.2635242 -0.16720602 0.251582
-0.18579559 -0.16286722 0.251582
0.15652652 -0.16231629 0.251582
-0.14312539 -0.15400118 0.251582
-0.065778993 -0.15678179 0.251582
-0.0019610897 -0.1598601 0.251582
0.15863045 -0.15432926 0.251582
-0.2474024 -0.14493552 0.25158197
-0.11865258 -0.14942029 0.251582
-0.0043433979 -0.14637722 0.251582
0.11446736 -0.14050013 0.251582
-0.23036648 -0.13896365 0.251582
-0.043161921 -0.13591203 0.251582
0.064076036 -0.13342392 0.251582
0.26760003 -0.13468203 0.251582
-0.21885194 -0.12381629 0.251582
-0.19645698 -0.12243137 0.251582
-0.18928763 -0.12799254 0.251582
-0.12178832 -0.12161408 0.251582
-0.06404531 -0.12543765 0.251582
-0.15689838 -0.11298592 0.251582
0.02038651 -0.11986294 0.251582
0.082245663 -0.11128055 0.251582
0.1432662 -0.11764373 0.251582
-0.16079104 -0.10830298 0.251582
0.23651889 -0.10510194 0.251582
-0.27604109 -0.097013287 0.251582
0.11094008 -0.092718266 0.251582
0.21398237 -0.096713632 0.251582
0.24929385 -0.090291105 0.251582
-0.19079621 -0.088683665 0.251582
0.18680391 -0.089053169 0.251582
-0.2495006 -0.078942232 0.251582
-0.10752749 -0.073345304 0.251582
0.076265134 -0.076954216 0.251582
-0.18564971 -0.067905322 0.251582
-0.11063281 -0.064636178 0.251582
-0.10434725 -0.069724895 0.251582
-0.098312691 -0.064466923 0.251582
0.043015603 -0.064936288 0.251582
0.23090321 -0.061111443 0.251582
-0.19100289 -0.051749416 0.251582
-0.13573369 -0.054261982 0.251582
-0.078143127 -0.055927873 0.251582
0.030588754 -0.059895672 0.251582
0.17578107 -0.051738344 0.251582
-0.16184098 -0.04934907 0.251582
-0.15881871 -0.046001188 0.251582
0.13262643 -0.041781489 0.251582
0.26665398 -0.020131558 0.251582
-0.17793408 -0.0031494722 0.251582
-0.10344687 -0.0010427535 0.251582
-0.022397205 0.0097068325 0.251582
-0.057583846 0.017297044 0.251582
0.066398107 0.014087882 0.251582
-0.27357432 0.025968701 0.25158203
0.066789217 0.025535369 0.251582
0.081052817 0.022734579 0.251582
0.1414437 0.021054538 0.251582
0.21833113 0.028304771 0.251582
-0.27043885 0.039706364 0.251582
-0.17927907 0.03972185 0.251582
-0.16951126 0.033683456 0.251582
0.11536928 0.036600698 0.251582
-0.27058485 0.041459724 0.251582
0.11733104 0.04455059 0.251582
0.26297548 0.046941213 0.251582
-0.081251465 0.057711437 0.251582
0.20979826 0.050323181 0.251582
0.23390837 0.057540469 0.251582
0.25459346 0.050735608 0.251582
0.038822979 0.062672988 0.251582
0.050815374 0.060543254 0.251582
0.076075964 0.061857551 0.251582
-0.26708442 0.078872874 0.251582
-0.20552707 0.07897146 0.251582
-0.096452937 0.078551948 0.251582
-0.041936561 0.077016205 0.251582
-0.2334165 0.081974961 0.251582
-0.21367264 0.085421465 0.251582
-0.14363949 0.086474627 0.251582
-0.030582532 0.083660208 0.251582
0.13738 0.083903164 0.251582
0.16747884 0.083906144 0.251582
0.19650669 0.081165865 0.251582
-0.02121016 0.095006764 0.251582
0.15660247 0.097795196 0.251582
0.16088259 0.0972137 0.251582
0.19309554 0.09493728 0.251582
0.2688022 0.098252833 0.251582
-0.2325179 0.10601324 0.251582
-0.11188679 0.10659359 0.251582
0.24307114 0.10177694 0.251582
-0.11273937 0.11161061 0.251582
0.0073522329 0.1132995 0.251582
0.072520539 0.11624156 0.251582
0.10822562 0.11079535 0.251582
0.15404309 0.11113267 0.251582
-0.26267165 0.12336807 0.251582
-0.15269573 0.12140965 0.251582
-0.21256381 0.15031044 0.251582
-0.22686723 0.16989477 0.251582
-0.14569008 0.16628826 0.251582
-0.24979496 0.17112981 0.251582
-0.1862087 0.19652785 0.251582
-0.24588925 0.20534262 0.251582
-0.15272975 0.20231715 0.251582
-0.23527941 0.21572034 0.251582
-0.20616806 0.21390831 0.251582
-0.22200403 0.26561958 0.251582
-0.12809712 0.2625891 0.251582
-0.27372307 0.28807193 0.251582
-0.20775872 0.28364351 0.251582
-0.17863683 0.30552003 0.251582
-0.14468579 0.3093971 0.251582
-0.26314589 0.3184571 0.251582
-0.18354806 0.31584704 0.25158197
-0.13532408 0.3207081 0.251582
