# .PCD v0.7 - Point Cloud Data file format
VERSION 0.7
FIELDS x y z
SIZE 4 4 4
TYPE F F F
COUNT 1 1 1
WIDTH 977
HEIGHT 1
VIEWPOINT 0 0 0 1 0 0 0
POINTS 977
DATA ascii
0.049222812 -0.34761769 -0.25303799
0.058242217 -0.34870401 -0.25152424
0.071587816 -0.3471849 -0.25303799
-0.22271354 -0.33743411 -0.25303799
-0.10700799 -0.32659227 -0.25303799
-0.038574014 -0.32243562 -0.25303799
-0.036491282 -0.31380689 -0.25303799
0.16484122 -0.31642246 -0.25303799
-0.24947134 -0.30815995 -0.25303799
-0.071184792 -0.30642748 -0.25303799
0.10419488 -0.30282438 -0.25303799
0.23005441 -0.30285272 -0.25303799
-0.10937967 -0.29447788 -0.25303799
0.0095281452 -0.29701626 -0.25303799
0.11151987 -0.28979909 -0.25303799
-0.12838462 -0.27948764 -0.25303799
0.12305124 -0.27052706 -0.25303799
-0.10794988 -0.2471159 -0.25303799
-0.075529836 -0.24917641 -0.25303799
-0.15924478 -0.22567497 -0.25303799
-0.044179991 -0.22204342 -0.25303799
0.02991572 -0.22430003 -0.25303799
0.077712327 -0.21450017 -0.25303799
-0.18926895 -0.20743284 -0.25303799
-0.10273173 -0.19715655 -0.25303799
0.22349286 -0.19577089 -0.25303799
-0.11286554 -0.18784143 -0.25303799
-0.16716677 -0.15230086 -0.25303799
-0.084844217 -0.15261309 -0.25303799
0.14079715 -0.15473896 -0.25303799
0.17446366 -0.1507335 -0.25303799
-0.23447669 -0.14585188 -0.25303799
-0.045967683 -0.14917727 -0.25303799
0.055293456 -0.13493188 -0.25303799
-0.18152869 -0.1222813 -0.25303799
-0.066774994 -0.12093996 -0.25303799
0.10269831 -0.12785745 -0.25303799
0.11548623 -0.12860286 -0.25303799
-0.18325511 -0.11489511 -0.25303799
0.17499453 -0.097332515 -0.25303799
-0.068899646 -0.08155591 -0.25303799
-0.014493184 -0.087484196 -0.25303799
0.14086878 -0.084884427 -0.25303799
-0.072461478 -0.071254939 -0.25303799
0.18047149 -0.074631914 -0.25303799
-0.090283275 -0.064609185 -0.25303799
0.2110842 -0.060346991 -0.25303799
-0.1825777 -0.051782299 -0.25303799
-0.13224921 -0.056961231 -0.25303799
-0.020145178 -0.052093655 -0.25303799
0.064769492 -0.056070894 -0.25303799
-0.2407821 -0.048908949 -0.25303799
0.043557484 -0.047584716 -0.25303799
0.10933177 -0.048733346 -0.25303799
-0.23348379 -0.02896734 -0.25303799
0.033151172 -0.025182821 -0.25303799
-0.24147877 -0.014852976 -0.25303799
-0.11119578 -0.018916287 -0.25303799
-0.03214439 -0.010645673 -0.25303799
-0.086520992 -0.0046685711 -0.25303799
-0.06684082 -0.0054674111 -0.25303799
0.16535169 -0.0030309483 -0.25303799
0.23095977 -0.0021720082 -0.25303799
-0.18295366 0.0037323684 -0.25303799
-0.15906736 0.015071981 -0.25303799
0.15435906 0.017487705 -0.25303799
0.19219564 0.017736144 -0.25303799
-0.19887155 0.02993504 -0.25303799
-0.13652278 0.028652303 -0.25303799
0.13403928 0.023345217 -0.25303799
0.21222015 0.022094846 -0.25303799
0.16019385 0.037754655 -0.25303799
-0.052132159 0.048920646 -0.25303799
0.11945787 0.049392357 -0.25303799
0.13337477 0.044172976 -0.25303799
0.084742583 0.053877383 -0.25303799
0.13864763 0.050381929 -0.25303799
0.19059879 0.059403591 -0.25303799
-0.22760907 0.068214849 -0.25303799
0.062914893 0.068791144 -0.25303799
-0.21753135 0.070495971 -0.25303799
-0.065733664 0.071312487 -0.25303799
-0.10255729 0.081562907 -0.25303799
-0.042472683 0.08123868 -0.25303799
0.012898706 0.081219204 -0.25303799
0.047308173 0.084761508 -0.25303799
0.10802898 0.080882065 -0.25303799
-0.13396087 0.099566832 -0.25303799
0.16003048 0.090992883 -0.25303799
0.18081406 0.091166772 -0.25303799
-0.20018104 0.10367815 -0.25303799
-0.10268167 0.10996009 -0.25303799
0.20862076 0.10198303 -0.25303799
-0.22981407 0.11908823 -0.25303799
-0.21561527 0.11674829 -0.25303799
0.024768207 0.11918115 -0.25303799
0.14456882 0.12610285 -0.25303799
0.024344794 0.13156487 -0.25303799
0.22706315 0.13441631 -0.25303799
-0.13943571 0.14929992 -0.25303799
-0.20035003 0.15248635 -0.25303799
-0.103609 0.15160221 -0.25303799
0.093474336 0.15525894 -0.25303799
-0.19606407 0.16957864 -0.25303799
0.052349541 0.18598503 -0.25303799
-0.052474134 0.19941555 -0.25303799
0.055218741 0.198101 -0.25303799
0.11242542 0.19385505 -0.25303799
0.19962364 0.20893668 -0.25303799
-0.033136725 0.2168427 -0.25303799
0.085062042 0.21698353 -0.25303799
-0.22356512 0.2278389 -0.25303799
-0.19105071 0.22047196 -0.25303799
-0.1337709 0.22220346 -0.25303799
-0.018856052 0.2205074 -0.25303799
0.10557099 0.22825018 -0.25303799
-0.16500905 0.24885902 -0.25303799
-0.12536365 0.24646589 -0.25303799
-0.079454899 0.240669 -0.25303799
0.005674459 0.24649154 -0.25303799
0.010873631 0.24017674 -0.25303799
0.073862046 0.24313286 -0.25303799
0.15988798 0.24513176 -0.25303799
0.18206404 0.24172735 -0.25303799
-0.2245708 0.25406429 -0.25303799
-0.11340943 0.25447294 -0.25303799
-0.25372601 0.27871677 -0.25172836
-0.24520457 0.27013722 -0.25303799
-0.19521664 0.27183816 -0.25303799
0.17618036 0.27293295 -0.25303799
0.18173276 0.276555 -0.25303799
-0.19165649 0.28742313 -0.25303799
-0.017023094 0.28401408 -0.25303799
0.19757445 0.29571065 -0.25303799
0.22438234 0.30395541 -0.25303799
-0.23291093 0.32403183 -0.25303799
-0.16430664 0.32980272 -0.25303799
-0.15047938 0.32165581 -0.25303799
-0.13989475 0.32093671 -0.25303799
0.10540748 0.34126213 -0.25303799
-0.034049489 -0.34870401 -0.24154654
0.13508022 -0.34870404 -0.24086812
0.17951047 -0.34870401 -0.24167775
0.24015801 -0.25986969 -0.24258144
0.24015799 0.041175187 -0.24458517
0.24015799 0.052985944 -0.24765953
0.24015802 0.32096756 -0.24567622
-0.12335233 0.34870401 -0.242001
0.14767009 0.34870401 -0.24375585
0.24015802 -0.32891977 -0.23543225
0.24015801 -0.22492459 -0.23364438
0.24015801 -0.19650875 -0.23216182
0.24015802 -0.11082558 -0.23300877
0.24015801 -0.046121091 -0.23576066
-0.030749951 0.015990717 -0.23057231
0.0059886873 0.019451214 -0.230534
0.20118766 0.014198084 -0.23059212
0.082320437 0.025092363 -0.23047157
-0.12700605 0.030519987 -0.23041151
-0.0061962456 0.038024541 -0.23032844
0.15192901 0.030855823 -0.23040777
0.20737685 0.034411535 -0.23036844
-0.0439988 0.04283233 -0.23027526
-0.024575869 0.041558322 -0.23028935
0.084237896 0.047304489 -0.23022576
0.04423441 0.064519383 -0.23003526
0.14534552 0.060966462 -0.23007455
-0.25372601 0.19963999 -0.23493175
-0.2503846 0.34870398 -0.23824452
-0.031753711 0.34870401 -0.23203027
0.1070912 0.34870398 -0.23935479
-0.11654399 -0.34870401 -0.22798181
0.069920316 -0.34870401 -0.22515818
-0.25372601 -0.22862054 -0.22964939
-0.25372601 -0.13923913 -0.22606817
0.24015799 -0.03843398 -0.2222382
0.12717888 -0.016588913 -0.22364411
0.24015802 -0.007986702 -0.22600318
-0.040457904 0.0055518365 -0.22931561
0.24015799 0.017961413 -0.22855204
0.22658999 0.045344163 -0.22393894
-0.1167444 0.078520603 -0.22743449
0.048275262 0.077213868 -0.22780019
0.052744672 0.082990848 -0.22618353
-0.097670756 0.096399412 -0.22243127
0.083483905 0.099971257 -0.22143172
0.091512516 0.10147688 -0.22101039
0.24015801 0.17457831 -0.22526845
-0.25372601 0.18925108 -0.22128342
-0.25372601 0.34774563 -0.22532143
-0.10618258 -0.34870404 -0.2174733
0.11414859 -0.34870401 -0.21262184
0.24015801 -0.2277257 -0.21697509
0.24015799 -0.21629649 -0.21257347
-0.25372601 -0.07278952 -0.21766196
0.16631681 -0.054224193 -0.21154781
-0.12349734 -0.036173172 -0.21862748
-0.25372601 0.046628676 -0.21157499
0.22658999 0.054975551 -0.21302176
-0.25372601 0.060990781 -0.21636772
0.22658999 0.10224822 -0.21922131
-0.045904577 0.11342433 -0.21766698
0.24015801 0.24246883 -0.21384245
0.24015801 0.25655791 -0.21921448
0.03680186 0.34870404 -0.21725804
0.16083585 0.34870401 -0.21169636
-0.18272451 -0.34870401 -0.20707235
0.038382344 -0.34870401 -0.20294797
0.24015801 -0.31230259 -0.20860808
0.24015801 -0.20237872 -0.203004
0.24015802 -0.11917901 -0.20053498
-0.25372601 -0.10820414 -0.20370913
-0.026472345 -0.069876038 -0.20274112
0.24015801 0.0070690643 -0.20476919
0.24015802 0.074236989 -0.20948122
0.24015799 0.093553372 -0.20044905
0.0010311976 0.14155036 -0.20493442
0.046710737 0.14835607 -0.20090419
-0.25372601 0.22334328 -0.20190009
0.24015801 0.23001078 -0.20594525
-0.25372601 0.33321884 -0.20604126
-0.22595274 -0.34870401 -0.19574991
-0.086118005 -0.34870401 -0.19409698
-0.041291568 -0.34870401 -0.19837572
0.086688779 -0.34870401 -0.19040427
0.11534445 -0.34870401 -0.19086865
0.15168458 -0.34870401 -0.19057286
-0.25372601 -0.2199665 -0.19969276
0.24015802 -0.16152108 -0.19023621
-0.12401165 -0.076938614 -0.19876727
0.042780891 -0.076923653 -0.19877571
0.17455371 -0.077839695 -0.19826029
0.24015801 -0.076014236 -0.19456926
-0.25372601 -0.069075525 -0.19443712
-0.25372601 -0.049465433 -0.19250566
-0.14246702 -0.04589903 -0.19919756
0.24771385 0.015498198 -0.1926401
-0.14246701 0.048572902 -0.19563356
0.24206623 0.048874319 -0.19393224
0.22658999 0.063881449 -0.195896
-0.25372601 0.082463734 -0.19116688
-0.12933898 0.15042967 -0.19967625
-0.0088593811 0.15412551 -0.19748762
0.22658999 0.15067612 -0.1971961
-0.25372601 0.27573839 -0.19736139
0.034642734 0.34870401 -0.19109234
-0.25372601 -0.34582481 -0.18717888
-0.24511012 -0.34870398 -0.18807176
-0.11070599 -0.34870401 -0.18742001
-0.25372601 -0.17518528 -0.18037879
0.070934102 -0.10064048 -0.18408594
-0.088246703 -0.097581878 -0.18707763
-0.12182471 0.16690329 -0.18992081
0.16505422 0.17109023 -0.18744138
0.17318754 0.17750913 -0.18321684
-0.25372601 0.22898468 -0.18553029
0.22009251 0.34870401 -0.18283534
-0.21400888 -0.34870401 -0.17885965
-0.19944362 -0.34870404 -0.17960092
-0.066427685 -0.34870401 -0.17300898
0.097882532 -0.34870401 -0.17752652
-0.25372601 -0.33465391 -0.17074434
-0.25372601 -0.050228909 -0.17797181
0.22659001 -0.016234579 -0.17976445
0.012987038 0.18120831 -0.17943487
0.15864161 0.1888335 -0.17163907
-0.25372601 0.26742691 -0.1724709
-0.23853715 0.34870401 -0.17836955
-0.22934014 0.34870401 -0.17435998
-0.21532586 0.34870401 -0.17224738
-0.016288236 0.34870398 -0.17800897
-0.25372601 -0.30221343 -0.16408125
0.24015799 -0.18430302 -0.16251154
-0.25372601 -0.1422548 -0.16514805
0.24015802 -0.1318647 -0.16473946
0.14568755 -0.1215675 -0.16361664
0.15688716 -0.12501074 -0.16024871
0.21852218 -0.12269543 -0.16251336
0.24015801 -0.10359474 -0.16491547
-0.25372601 -0.054466575 -0.16672833
0.25372601 -0.058997698 -0.16593906
-0.25372601 -0.027167194 -0.1655378
0.22658999 0.055446554 -0.16837148
-0.039475881 0.19073308 -0.169697
-0.25372601 0.24620636 -0.16000536
0.090083033 -0.34870398 -0.1564213
0.24015801 -0.30994195 -0.15661725
-0.25372601 -0.27586856 -0.15971848
0.050215743 -0.13238603 -0.15303475
-0.14246701 -0.12046176 -0.155011
-0.057936262 -0.12932813 -0.15602574
-0.14246701 -0.109341 -0.15728122
-0.25372601 -0.0020795465 -0.1512285
-0.25372601 0.088011369 -0.15576252
0.098829024 0.20818724 -0.15185228
0.13467687 0.20232938 -0.15784121
-0.12220165 0.34870401 -0.15210724
-0.032256577 0.34870401 -0.15649086
-0.098293692 -0.34870398 -0.14940454
0.016417377 -0.34870401 -0.1454667
-0.25372601 -0.12094198 -0.14549321
0.23250121 0.020456262 -0.14847633
-0.14246701 0.13591586 -0.14491114
-0.13744663 0.21207561 -0.14787689
0.18239407 0.21141699 -0.14855026
0.24015802 0.24470896 -0.1405025
-0.19896659 -0.34870398 -0.13636844
-0.035199948 -0.34870401 -0.13758571
0.092576012 -0.34870401 -0.1355516
0.18673705 -0.34870401 -0.13536973
0.21703225 -0.34870404 -0.13936888
0.23876709 -0.34870401 -0.13349938
0.24015801 -0.30468678 -0.13557078
0.24015802 -0.25508535 -0.13418704
-0.069521584 -0.14789259 -0.13182747
0.22658999 -0.12321397 -0.13518226
-0.14246701 -0.051948577 -0.13561508
0.22658999 0.059905704 -0.13179633
0.25372601 0.12194662 -0.13447087
0.22658999 0.1379258 -0.13802388
-0.093706101 0.21896228 -0.1398048
0.05217056 0.22143964 -0.13540195
0.13123401 0.22394508 -0.1309492
0.14202768 0.34870401 -0.13709082
-0.25372601 -0.3451941 -0.12792405
-0.22611713 -0.34870398 -0.12860572
0.041951913 -0.34870401 -0.12883693
-0.14246701 -0.085737929 -0.12738442
0.23785418 -0.039145906 -0.12993678
0.22659001 0.10097478 -0.12699957
0.24331935 0.11284445 -0.1265192
-0.25372601 0.12381107 -0.12298334
0.22658999 0.12284273 -0.12341611
-0.13251238 0.22893828 -0.12207513
0.12610836 0.22674894 -0.12596609
0.17757525 0.2252295 -0.12866646
0.18991692 0.22556767 -0.12806548
0.24015799 0.24730632 -0.12887584
-0.030560341 0.34870401 -0.12122463
0.019068249 0.34870401 -0.12965664
0.051707532 0.34870401 -0.12261133
-0.16445303 -0.34870401 -0.11381318
0.22658999 -0.0082716644 -0.11966506
0.25340527 0.13080545 -0.11160654
-0.25372601 0.15446763 -0.11663543
0.25372601 0.19317204 -0.11144625
0.054964617 0.23076189 -0.11883415
0.24015799 0.24009949 -0.1164078
-0.066074096 0.34870401 -0.11505787
0.067591205 0.34870401 -0.11785898
-0.20429495 -0.34870398 -0.10599166
0.074647211 -0.34870401 -0.10594038
0.24015802 -0.33306062 -0.10617176
-0.11762321 -0.16188559 -0.10819821
0.084998898 -0.16531958 -0.10239941
0.19300801 -0.16243421 -0.10727178
-0.14246701 -0.12794614 -0.10948104
-0.14246701 -0.10020346 -0.10458276
0.24063106 -0.072890267 -0.10209883
0.22658999 -0.026699241 -0.1078062
-0.14246701 0.069028735 -0.10846688
-0.25372601 0.26037762 -0.10115918
-0.24239105 0.34870401 -0.10134704
-0.12794183 0.34870401 -0.1092563
0.17073283 0.34870401 -0.10753161
-0.14109378 -0.34870401 -0.097329736
-0.041489854 -0.34870404 -0.092124909
0.077255316 -0.34870404 -0.095760986
-0.088850752 -0.16871433 -0.09666688
0.25372601 -0.1188286 -0.098129459
0.22658998 0.14336653 -0.096646123
-0.14246701 0.15401116 -0.097969189
0.25372601 0.18420798 -0.09798041
-0.14246701 0.20927009 -0.099875703
-0.043719478 0.24306792 -0.096963502
-0.17941661 -0.34870401 -0.08875452
-0.029229842 -0.34870401 -0.089183979
0.19945657 -0.34870401 -0.08923056
-0.25372601 -0.19331907 -0.083384916
-0.092264883 -0.17197849 -0.086146519
-0.14246701 0.19098841 -0.085164197
0.22658999 0.23352039 -0.088768527
0.19831112 0.24788991 -0.085222594
-0.25372601 0.28801724 -0.089793399
-0.16551 0.34870404 -0.087571219
-0.087290525 -0.34870401 -0.078158677
0.12999867 -0.34870401 -0.074982844
0.14055288 -0.34870401 -0.070011243
-0.25372601 -0.22325821 -0.073389888
-0.053306252 -0.17623392 -0.0709408
0.12070634 -0.17644289 -0.07019411
0.15899733 -0.17451398 -0.077086553
0.25372601 -0.10905203 -0.077453516
-0.14246701 0.0046541644 -0.077824615
0.22658999 0.075876415 -0.076105915
-0.14246701 0.088148139 -0.079388522
0.24015801 0.23424083 -0.076630369
0.24015799 0.25307393 -0.070051759
-0.25372601 0.29023573 -0.076728478
-0.038621686 0.34870401 -0.079403676
0.10628381 0.34870401 -0.073497057
-0.094520777 -0.34870401 -0.069571219
-0.075375028 -0.34870401 -0.065629572
0.089649424 -0.34870401 -0.067902282
-0.25372601 -0.29958734 -0.061062641
-0.25372601 -0.24120779 -0.068082236
-0.041781142 -0.17693731 -0.068427414
-0.011330104 -0.17874245 -0.061977137
0.17915025 -0.17760777 -0.066031694
0.22658999 -0.16011626 -0.063991778
-0.14246701 -0.10061466 -0.061706353
-0.032667957 0.25276405 -0.066192925
-0.23789707 -0.34870404 -0.052779116
-0.13202448 -0.18045695 -0.055850782
0.14877291 -0.18060532 -0.055320658
-0.14246701 -0.16682658 -0.05004295
-0.14246701 -0.15342599 -0.053179715
0.22658998 -0.13621619 -0.058605693
0.25372601 -0.12175699 -0.05317796
-0.25372601 -0.082414448 -0.052742645
0.22658998 -0.074143499 -0.054551747
-0.25372601 0.087482363 -0.057589576
0.030838856 0.25485697 -0.058021791
0.089330621 0.34870401 -0.053935237
0.14491859 0.34870401 -0.059893288
0.18459895 0.34870404 -0.053636551
0.17529808 -0.34870401 -0.045627557
0.22256425 -0.34870401 -0.04921994
0.24015801 -0.19178678 -0.044073034
0.25372601 -0.13979927 -0.046049342
-0.25372601 -0.027499035 -0.040095642
-0.10729596 0.25769076 -0.046958089
0.0099437721 0.2574718 -0.047813028
0.023873925 0.2586211 -0.043325931
0.058983032 0.258439 -0.044036813
-0.25372601 0.26217225 -0.045672748
-0.011726789 -0.34870401 -0.037311494
0.24015799 -0.29261029 -0.03488626
-0.25372601 -0.1912888 -0.031858601
0.22658998 -0.14381605 -0.030995432
-0.25372601 -0.0078229569 -0.037358202
-0.25372601 0.021090984 -0.031171516
0.22658999 0.030257251 -0.034166958
-0.14246701 0.067158297 -0.039812043
-0.14246701 0.13394064 -0.035435963
-0.014824702 0.34870401 -0.039860703
0.063302375 0.34870401 -0.034806672
-0.23775673 -0.34870401 -0.023500867
-0.13752289 -0.34870401 -0.021290299
-0.25372601 -0.21564332 -0.023095326
-0.13833626 -0.1853293 -0.022942545
-0.023836404 -0.1853146 -0.024272498
0.22658998 -0.049311481 -0.027412131
-0.14246701 -0.011054118 -0.024782727
-0.25372601 0.013188832 -0.028736781
-0.25372601 0.09452863 -0.020766726
-0.14246701 0.09963993 -0.022437617
0.22779518 0.17596093 -0.029875036
0.22658998 0.22223178 -0.022393145
-0.25372601 0.2440173 -0.024483465
0.24717006 0.28200847 -0.021517113
-0.084789962 0.34870401 -0.026948892
-0.18971652 -0.34870401 -0.011821419
-0.064251482 -0.34870401 -0.012981832
0.014537916 -0.34870404 -0.012197018
0.11778204 -0.34870401 -0.019997716
0.15932828 -0.34870398 -0.015293516
0.24015801 -0.25745434 -0.019073457
-0.25372601 -0.24254002 -0.010533489
-0.25372601 -0.21914366 -0.016601365
-0.25372601 -0.19431767 -0.0147085
-0.14246701 -0.11229599 -0.016344469
-0.14246701 -0.041404851 -0.010827102
-0.25372601 0.05360052 -0.015740603
0.22658999 0.15038739 -0.011449167
0.22658999 0.21385179 -0.019447658
-0.25372601 0.2586877 -0.010947164
0.11875489 0.26075146 -0.014125481
0.25372601 0.30033964 -0.012933168
-0.20528348 0.34870401 -0.010819331
-0.1575502 0.34870398 -0.014253855
0.090620734 0.34870401 -0.016770236
-0.24729288 -0.34870404 -0.00779498
0.16132587 -0.34870401 -0.0029240735
-0.11951343 -0.1855388 -0.0039829509
-0.039455146 -0.18547307 -0.009931406
0.20054072 -0.18557383 -0.00081247836
-0.14246702 -0.13105775 -0.0054023787
0.22658998 0.22088294 -0.0021199305
-0.10077082 0.26066953 -0.006723322
0.091467738 0.26063687 -0.0037722541
-0.25372601 0.27046236 -0.0063431934
-0.25372601 0.3402313 -0.0094339922
-0.064648159 0.34870401 -0.0094587728
-0.1134246 -0.34870401 0.0097876787
0.21892308 -0.34870401 0.0094660446
-0.0040178001 -0.18563086 0.0043473551
0.039617673 -0.18562992 0.0042639477
0.11561925 -0.18562575 0.0038849486
0.22658999 -0.1113679 0.0047754492
0.022759464 0.26053506 0.0054286635
-0.17618954 0.34870398 0.007789731
-0.16751033 0.34870404 0.00065033138
-0.028186139 0.34870401 0.00071549416
0.18039504 0.34870398 0.0036401227
-0.25372601 -0.34787732 0.015636206
0.12083828 -0.34870401 0.01119078
0.24015802 -0.21583904 0.017882679
0.058079418 -0.18574025 0.014248413
0.086541116 -0.18579105 0.01969018
0.22659001 -0.037346892 0.019681111
-0.25372601 -0.015171011 0.011310142
-0.25372601 -0.0038098758 0.011590775
0.22658999 0.036080711 0.01694686
-0.14246701 0.13922743 0.012867395
-0.14246701 0.20980117 0.017563473
-0.25372601 0.22818169 0.019756407
0.034756295 0.26042697 0.01519502
0.17432469 0.26041645 0.016143657
0.22544865 0.26037958 0.019476941
-0.25372601 0.29925531 0.013937868
-0.12475383 0.34870401 0.013765302
0.053040862 0.34870404 0.013959285
0.038220067 -0.34870401 0.023835745
-0.14246701 -0.15779091 0.022695318
0.25372601 -0.13596411 0.02596711
0.22658999 -0.089128882 0.025800152
-0.25372601 -0.074704409 0.020594895
-0.14246701 0.068254426 0.025013698
-0.25372601 0.088179439 0.02040612
-0.14246701 0.1506995 0.029094376
0.22658998 0.15051806 0.022448147
-0.14246701 0.19127606 0.020238388
-0.084582172 0.25961554 0.027118243
-0.17083789 0.34870401 0.026242159
0.17277592 0.34870404 0.025562853
0.24015802 -0.33847499 0.035003811
-0.077554889 -0.18274419 0.031585682
0.10933748 -0.18182129 0.035188895
0.20683876 -0.18119477 0.037634894
0.25372601 -0.12006956 0.036711473
-0.25372601 -0.093034379 0.0350895
-0.14246701 -0.07099314 0.033606857
-0.25372601 -0.049390882 0.034791537
-0.25372601 -0.023409858 0.032554589
-0.14246701 0.061710037 0.038265876
-0.14246701 0.18804747 0.038696215
-0.25372601 0.19336016 0.037324335
0.22659001 0.2003842 0.036462162
0.075758949 0.25603792 0.03990325
0.13770103 0.25726131 0.035531353
0.24015801 0.3277775 0.039215706
0.06278538 0.34870401 0.030348577
0.14615676 0.34870401 0.034930229
0.22732714 0.34870401 0.03720919
-0.025808163 -0.34870401 0.044914484
0.18461806 -0.34870401 0.0476285
0.20065297 -0.34870401 0.040322356
-0.25372601 -0.33541372 0.047460228
0.24015801 -0.28336382 0.047042113
0.24015802 -0.22315259 0.049982585
0.22658999 -0.016887849 0.04062853
0.22658999 0.17254001 0.043681048
-0.14246701 0.1900446 0.040273607
0.22658999 0.23745075 0.045833889
0.22658999 0.24479119 0.041707389
0.17921004 0.2557804 0.040823482
-0.20676699 0.34870401 0.045109063
0.12011368 0.34870401 0.041006595
0.18679143 0.34870401 0.040081687
0.24015801 -0.18469256 0.052238964
-0.14246701 -0.17309539 0.051754192
0.10579844 -0.17756644 0.051800586
0.24015801 -0.17051914 0.059884068
0.24015801 -0.1591568 0.058649659
-0.25372601 -0.08507669 0.057836041
0.22658998 0.032108348 0.059534319
-0.14246701 0.09670081 0.052623365
-0.14246701 0.13749367 0.057131752
0.028701773 0.25162819 0.055661976
0.24015799 0.28197354 0.051854741
-0.25372601 0.30885115 0.050310478
-0.25372601 0.31650409 0.055743814
-0.098236673 0.34870401 0.050446928
-0.010588549 0.34870401 0.055188686
0.10952824 0.34870401 0.055312537
0.15682706 0.34870404 0.056213688
0.23058978 0.34870398 0.058681436
-0.21435514 -0.34870398 0.060765617
0.10928126 -0.34870401 0.064126499
0.24015801 -0.30628443 0.067257375
-0.25372601 -0.25448212 0.061134037
-0.25372601 -0.19288072 0.061611004
0.24015801 -0.14952134 0.061730172
0.22659001 -0.10093863 0.060919691
0.22659001 -0.031101104 0.064109646
0.22659001 0.10235126 0.062594913
0.22658999 0.18385756 0.064710669
-0.25372601 0.2156696 0.066278219
-0.091272689 0.24776356 0.069472566
0.24015802 0.29957759 0.067642249
-0.25372601 -0.25089672 0.077937394
0.24015801 -0.22253573 0.072734043
-0.055377815 -0.17247656 0.07167244
0.12351649 -0.17150268 0.075474694
0.046249278 -0.16971764 0.079235516
-0.14246701 -0.093131557 0.077193007
0.22659001 0.015354657 0.078541376
0.22658998 0.048140045 0.070699632
-0.14246701 0.15552896 0.078355648
-0.25372601 0.23415819 0.077340052
0.18049391 0.24575569 0.076647915
0.24015801 0.32764482 0.076575696
-0.073490329 0.34870401 0.074081987
-0.0071437396 -0.34870401 0.087023668
0.24015801 -0.28411013 0.085239947
-0.09997005 -0.16560066 0.086552151
0.25372601 -0.092144199 0.081386343
0.22658999 0.017590573 0.084624588
-0.25372601 0.03094266 0.088754907
0.22659001 0.11110351 0.085201181
0.22827703 0.14585114 0.086272597
-0.14246701 0.15045533 0.082736559
-0.14246701 0.16925772 0.083372153
0.22658999 0.21903336 0.080815576
0.065552428 0.24268888 0.084203035
0.087806858 0.24396822 0.082042664
0.24015802 0.24964458 0.087983318
-0.18906173 0.34870401 0.087119691
0.20059557 0.34870401 0.080932133
0.17161323 -0.34870404 0.095878892
-0.017058596 -0.16349988 0.090285651
-0.14246701 -0.017015565 0.090679705
-0.14246701 0.15324524 0.095659204
-0.25372601 0.18914053 0.094233245
-0.048900705 0.23699373 0.093820199
0.083157033 0.23474309 0.09762077
0.22659001 0.23249447 0.095383987
-0.10924204 0.34870401 0.094159365
-0.018973034 -0.34870401 0.10621241
-0.25372601 -0.22875991 0.10617781
-0.25372601 -0.1778309 0.10841657
-0.12035526 -0.15321836 0.10855784
0.085034706 -0.15516642 0.10509578
0.15587798 -0.15713188 0.10160279
0.24015802 -0.14189124 0.1076998
-0.14246701 -0.092191249 0.10740071
0.22659001 -0.071862675 0.10946894
0.23297405 0.12958813 0.1033233
0.24015799 0.22431584 0.10969316
-0.15947849 0.34870398 0.10995128
-0.031421185 0.34870401 0.10462435
-0.023384545 0.34870401 0.10989743
0.22265726 0.34870401 0.1098555
-0.22477745 -0.34870404 0.11127204
0.1929193 -0.34870401 0.11657734
0.22694463 -0.34870401 0.11392761
0.12180436 -0.14856316 0.11683101
0.22658999 -0.13407113 0.11246905
-0.25372601 -0.11330425 0.11096688
-0.25372601 -0.085140735 0.11546811
-0.25372601 -0.040321782 0.1132243
-0.14246701 -0.048331436 0.11730211
-0.25372601 0.043222427 0.11456486
-0.14246701 0.15601411 0.11875004
-0.12303926 0.2253914 0.11341259
-0.10742158 0.22434321 0.11518262
-0.089272708 0.22395724 0.11583439
-0.25372601 0.34771568 0.11551631
-0.076858684 0.34870401 0.11476547
-0.016303241 -0.34870401 0.12184667
0.24015802 -0.19242074 0.12191744
-0.00083115697 -0.14231341 0.12785603
-0.14246701 -0.13490285 0.1280178
0.24119493 0.08556889 0.1291346
0.25372601 0.13817409 0.12568764
0.22658999 0.19095623 0.12576632
0.055341713 0.21814947 0.12564176
-0.25372601 0.23227069 0.12131815
0.24015801 0.2349745 0.12422545
-0.25372601 0.24886733 0.12614515
-0.24766552 0.34870401 0.12240917
-0.11476195 0.34870398 0.12569442
-0.062903754 0.34870401 0.12485769
0.029804736 0.34870401 0.12941711
0.17888044 -0.34870401 0.13696729
-0.25372601 -0.33351964 0.13183884
-0.026807833 -0.13679115 0.13350186
0.14107633 -0.13144316 0.13896951
0.1684311 -0.1354389 0.13488436
-0.14246701 -0.10444351 0.13641877
-0.14246701 -0.093244374 0.13855375
-0.14246701 -0.05709359 0.13338652
0.22658998 0.014112419 0.13631856
0.232696 0.019734209 0.13849148
-0.14246701 0.095325753 0.13572161
-0.14246702 0.15760604 0.13566926
-0.25372601 0.16815737 0.13077204
-0.25372601 0.17415473 0.1330597
-0.14246701 0.1971952 0.13809875
-0.14192037 0.2126395 0.13357736
0.048047084 0.34870401 0.13789378
-0.16772586 -0.34870404 0.14166117
0.24015802 -0.15409893 0.14055942
-0.086401686 -0.12845783 0.14202164
-0.25372601 0.00021953136 0.14791405
0.24015799 0.17080976 0.14515239
-0.12926757 0.19844297 0.14746319
-0.12894313 0.20204568 0.14393932
-0.11492368 0.20264199 0.14335606
0.24015801 0.23202062 0.14247717
-0.23273553 0.34870401 0.14582738
0.084339157 0.34870404 0.14161038
0.090020373 0.34870398 0.1490308
-0.18292178 -0.34870401 0.15763518
-0.17414686 -0.34870401 0.15165237
-0.14335895 -0.34870398 0.15289745
0.10215168 -0.34870401 0.1517888
0.24015799 -0.30645606 0.15618178
-0.25372601 -0.21594748 0.15667197
-0.25372601 -0.20235321 0.15244825
-0.25372601 -0.19220777 0.15909851
-0.034558401 -0.11264436 0.15818894
0.10597786 -0.11466931 0.15611869
-0.25372601 -0.069578022 0.15259822
0.25372601 -0.04263632 0.1545026
0.25372601 -0.01137542 0.15229234
0.22658999 0.11941829 0.15014523
-0.21735159 0.34870401 0.15708292
0.056508213 -0.34870401 0.16521667
0.13358268 -0.34870404 0.16635646
-0.25372601 -0.048368573 0.16954829
0.24811083 -0.044293761 0.16632012
0.25372601 0.076650359 0.1674424
0.23881891 0.30130625 0.16560499
0.055724412 0.34870401 0.16126634
0.098057687 0.34870401 0.1631375
0.21171036 0.34870401 0.16423321
-0.25372601 -0.20449875 0.1773852
0.091409817 -0.09266308 0.17487985
0.18482402 -0.091470838 0.17558587
0.21915489 -0.090911433 0.17591713
0.22658999 -0.096682355 0.17236027
0.24015802 -0.063083418 0.17639089
0.22658998 -0.01505952 0.17501357
-0.14246701 0.072094262 0.17364791
-0.17099617 -0.34870401 0.18065628
-0.16311879 -0.34870401 0.18294802
0.1424671 -0.34870401 0.1890758
-0.25372601 -0.27737734 0.18723115
-0.11081084 -0.083212905 0.18047607
0.087217927 -0.070889063 0.18777403
-0.068074152 -0.06897594 0.18890697
-0.25372601 0.11691168 0.18503606
0.10732485 0.1456866 0.1878951
-0.076262571 0.15877484 0.18053034
0.21855669 0.15908591 0.1803553
-0.25372601 0.27865052 0.18226753
0.23346189 0.3025263 0.18128
-0.22810744 0.34870401 0.18538824
-0.040180042 0.34870401 0.18289423
0.17066082 0.34870401 0.18132403
-0.1490535 -0.34870401 0.19426179
0.1748739 -0.34870401 0.19575697
-0.25372601 -0.18595259 0.19524986
0.24015802 -0.18248868 0.19238517
-0.11881779 -0.062084187 0.19298816
-0.052827712 -0.060533363 0.19390652
0.070806392 -0.064083412 0.19180423
0.20933086 -0.066267945 0.1905106
0.037649058 -0.058903553 0.19487166
0.13270549 -0.057908293 0.19546103
0.16539541 -0.05329787 0.19819126
0.17954268 -0.057892192 0.19547057
0.22658999 0.10955306 0.19848676
0.18785334 0.1248921 0.19959612
0.19805419 0.12712538 0.19833948
0.05523663 0.13756664 0.19246419
-0.25372601 0.27832344 0.19634297
0.24015802 0.29678875 0.19789045
0.23277672 0.30374956 0.19403434
0.063918822 0.34870404 0.19136244
-0.20366821 -0.34870398 0.2004382
0.24015801 -0.21962616 0.20094979
0.24015801 -0.2024965 0.20546415
0.10888737 -0.04040423 0.20257625
-0.10431802 -0.023873411 0.20720229
0.058969356 -0.019498445 0.20842659
0.10216855 -0.019729214 0.20836201
0.18693255 -0.017684134 0.20893431
-0.25372601 0.070387974 0.20943651
0.20611009 0.096243165 0.2080089
0.0097317956 0.10646962 0.20538959
0.22658998 0.10059044 0.20512576
0.007850036 0.12111935 0.2016373
-0.25372601 0.24360821 0.20613144
-0.25372601 0.27435762 0.20808475
-0.13614084 0.34870401 0.20318413
-0.08098828 0.34870398 0.20040065
-0.056321092 0.34870401 0.20591816
0.24015799 -0.30836046 0.21672302
-0.25372601 -0.19363698 0.21433356
0.24015799 -0.063136652 0.21308698
0.24015802 -0.015211992 0.21454413
0.015129782 0.00039447495 0.21399347
0.059447914 0.0069817407 0.2155066
-0.11521646 0.017188178 0.21561955
0.12971082 0.017776733 0.21562606
0.21121232 0.016938277 0.21561678
-0.045660403 0.038627453 0.21585682
0.012897983 0.037535395 0.21584472
0.091127731 0.038219623 0.21585231
0.20675746 0.040645726 0.21587914
0.22658999 0.056756023 0.21267377
-0.025847487 0.065178752 0.21596551
-0.25372601 0.2010683 0.21082798
0.081779175 0.34870401 0.21539006
0.067819364 -0.34870401 0.22516301
0.19985381 -0.34870401 0.22938253
0.24015802 -0.25902522 0.22357695
0.24015799 -0.24378596 0.22840571
0.24015801 -0.1678191 0.22013304
-0.25372601 -0.098373413 0.22804299
-0.25372601 0.053282261 0.22808908
-0.25372601 0.18221034 0.22446804
-0.064253308 -0.34870401 0.23360679
-0.033377517 -0.34870401 0.23840144
0.040397994 -0.34870401 0.23540229
0.1917436 -0.34870401 0.23660097
0.24015801 -0.12841821 0.23133971
-0.25372601 0.079806939 0.2303143
0.24015801 0.17852546 0.23522393
0.24015799 0.2494126 0.23253557
0.12316275 0.34870404 0.23360333
-0.23180206 -0.34870401 0.24149196
-0.22058228 -0.34870401 0.24297316
-0.062624805 -0.34870401 0.24138236
0.19113447 -0.34870401 0.24308759
-0.25372601 -0.25002745 0.24646708
-0.25372601 -0.11208288 0.24267536
0.24015801 -0.0028126589 0.24691752
0.24015801 0.043715887 0.24426077
0.24015799 0.12468994 0.24580202
0.24015801 0.13634898 0.24159345
0.24015801 0.16728413 0.24402244
-0.25372601 0.21914366 0.2431414
0.24015801 0.25669566 0.24303852
-0.10131034 0.34870401 0.2485937
-0.032863334 0.34870401 0.24553126
-0.21466199 -0.34464836 0.25303799
-0.084092736 -0.34870401 0.2522226
0.089081101 -0.34690109 0.25303799
-0.15055253 -0.33696628 0.25303799
-0.17690271 -0.32977593 0.25303799
-0.073390663 -0.32439807 0.25303799
-0.054988809 -0.32129252 0.25303799
-0.046993501 -0.32862055 0.25303799
0.19068396 -0.32807279 0.25303799
0.22477102 -0.32125604 0.25303799
-0.22259206 -0.31288713 0.25303799
0.21584345 -0.31841734 0.25303799
0.032763522 -0.30940244 0.25303799
0.045423552 -0.30977467 0.25303799
0.18231513 -0.30357584 0.25303799
-0.14727585 -0.2991415 0.25303799
-0.079209819 -0.29605293 0.25303799
-0.063495062 -0.29925388 0.25303799
-0.051883478 -0.28601629 0.25303799
0.035345379 -0.28485733 0.25303799
0.22491296 -0.28206265 0.25303799
-0.25372601 -0.27797836 0.25075597
-0.001939781 -0.26331532 0.25303799
-0.19262736 -0.23156112 0.25303799
0.13167959 -0.23545435 0.25303799
0.18650511 -0.2367872 0.25303799
-0.25372601 -0.22262098 0.25111702
-0.12361155 -0.21826343 0.25303799
0.1938815 -0.21358323 0.25303799
0.21543106 -0.21369959 0.25303799
0.24015801 -0.21113399 0.25082985
-0.034256395 -0.19497219 0.25303799
0.12032706 -0.19523844 0.25303799
-0.1556596 -0.18303642 0.25303799
-0.14454895 -0.16787833 0.25303799
0.054611929 -0.16897854 0.25303799
0.072128318 -0.15655994 0.25303799
0.17058077 -0.15229936 0.25303799
-0.15691283 -0.14093967 0.25303799
0.22305563 -0.14276996 0.25303799
-0.01242958 -0.13115703 0.25303799
-0.25372601 -0.123721 0.25142992
0.011231184 -0.1292029 0.25303799
-0.12027095 -0.10602254 0.25303799
-0.028806359 -0.10085567 0.25303799
0.04794576 -0.10870753 0.25303799
-0.22360474 -0.095237173 0.25303799
0.1619986 -0.096697442 0.25303799
-0.25334907 -0.087779082 0.25303799
0.20096481 -0.086327538 0.25303799
-0.029612854 -0.072184205 0.25303799
0.12437458 -0.075532727 0.25303799
-0.11113182 -0.059344802 0.25303799
-0.2525112 -0.0455954 0.25303799
-0.18702695 -0.042430006 0.25303799
0.0089802491 -0.044182353 0.25303799
0.044476829 -0.034819648 0.25303799
-0.0063755624 -0.022320375 0.25303799
0.054951556 -0.024836987 0.25303799
0.13553253 -0.02717495 0.25303799
0.088948615 -0.010926932 0.25303799
-0.090164989 -0.001116395 0.25303799
0.027720476 -0.0066631176 0.25303799
0.15902184 -0.0066101104 0.25303799
-0.084619462 0.0086984672 0.25303799
0.056755736 0.0075856894 0.25303799
-0.0608273 0.012689769 0.25303799
-0.0085561499 0.017497286 0.25303799
0.13587193 0.018880837 0.25303799
0.21348165 0.020612746 0.25303799
-0.22722578 0.031218573 0.25303799
-0.13685805 0.036063928 0.25303799
0.078648403 0.030678447 0.25303799
-0.18432873 0.041563645 0.25303799
0.20892903 0.048915312 0.25303799
-0.25166059 0.051087484 0.25303799
0.15686962 0.05012951 0.25303799
0.23516653 0.063457109 0.25303799
0.19058773 0.077221498 0.25303799
0.21096215 0.07683605 0.25303799
0.20640168 0.08712022 0.25303799
0.22890249 0.089149266 0.25303799
-0.12203677 0.099633023 0.25303799
0.090022489 0.098115817 0.25303799
0.1648825 0.090390854 0.25303799
-0.11563505 0.10370266 0.25303799
0.15538265 0.10731865 0.25303799
0.027173659 0.11046286 0.25303799
0.11663997 0.11073671 0.25303799
0.18446869 0.11313275 0.25303799
0.011269152 0.122679 0.25303799
-0.025099477 0.13460259 0.25303799
-0.011664376 0.1448725 0.25303799
0.16588627 0.1455085 0.25303799
-0.1417037 0.15172848 0.25303799
0.0033878945 0.15965542 0.25303799
0.14163445 0.15757579 0.25303799
0.21399531 0.15995491 0.25303799
0.22109966 0.15604535 0.25303799
-0.12519245 0.16682619 0.25303799
-0.017996978 0.16556078 0.25303799
-0.20011698 0.17819521 0.25303799
-0.13239679 0.17651677 0.25303799
0.13242403 0.17066714 0.25303799
-0.18291257 0.1816112 0.25303799
-0.032189976 0.18537289 0.25303799
-0.099178925 0.20457751 0.25303799
-0.0023819581 0.20196247 0.25303799
0.042477269 0.2069122 0.25303799
-0.10194263 0.21705507 0.25303799
-0.042762771 0.21868795 0.25303799
-0.02520404 0.21015352 0.25303799
0.04537221 0.21225104 0.25303799
0.096416689 0.21102837 0.25303799
-0.10726491 0.2257416 0.25303799
-0.091647886 0.23708847 0.25303799
0.077869102 0.24530742 0.25303799
-0.17972142 0.26246867 0.25303799
0.016350187 0.26770809 0.25303799
0.22400783 0.26966894 0.25303799
-0.24984474 0.27051166 0.25303799
-0.077445157 0.27834421 0.25303799
0.24015801 0.30345169 0.25057071
-0.15353467 0.31422865 0.25303799
-0.091625445 0.31068638 0.25303799
0.09917862 0.31018662 0.25303799
-0.094062015 0.32469466 0.25303799
0.23919301 0.34847027 0.25303799
