# .PCD v0.7 - Point Cloud Data file format
VERSION 0.7
FIELDS x y z
SIZE 4 4 4
TYPE F F F
COUNT 1 1 1
WIDTH 980
HEIGHT 1
VIEWPOINT 0 0 0 1 0 0 0
POINTS 980
DATA ascii
0.053353019 -0.30757287 -0.271442
0.13226393 -0.30263373 -0.271442
-0.20453833 -0.29667225 -0.271442
-0.066345192 -0.29568902 -0.271442
0.11057176 -0.29746768 -0.271442
0.15039846 -0.29674926 -0.271442
0.26005518 -0.28962156 -0.271442
-0.17875031 -0.27796808 -0.271442
-0.16862921 -0.2620216 -0.271442
0.08748813 -0.26631191 -0.271442
0.14136505 -0.26957986 -0.271442
-0.15487126 -0.25614282 -0.271442
0.1564596 -0.25829867 -0.271442
-0.20736764 -0.23037246 -0.271442
-0.074822351 -0.22201261 -0.271442
0.053419426 -0.22652754 -0.271442
0.091897152 -0.22442281 -0.271442
-0.28175595 -0.21835294 -0.271442
-0.19779798 -0.20406167 -0.271442
-0.1899597 -0.18899792 -0.271442
-0.15179747 -0.1885511 -0.271442
0.066692352 -0.18455046 -0.271442
-0.066545464 -0.1700123 -0.271442
0.10803129 -0.17735854 -0.271442
-0.24723083 -0.15557179 -0.271442
-0.15720899 -0.1438968 -0.271442
-0.12698407 -0.14644159 -0.271442
0.077431247 -0.14332993 -0.271442
0.098853841 -0.14315867 -0.271442
-0.17917168 -0.11187945 -0.271442
-0.19640946 -0.10641664 -0.271442
-0.18380015 -0.10633849 -0.271442
0.084547982 -0.10867104 -0.271442
-0.078663357 -0.08396706 -0.271442
-0.051635284 -0.088875003 -0.271442
0.077460185 -0.086664513 -0.271442
-0.25128466 -0.077412218 -0.271442
0.15257159 -0.072793178 -0.271442
0.18247777 -0.064168736 -0.271442
-0.089513354 -0.058851559 -0.271442
0.21551393 -0.057262413 -0.271442
-0.14028524 -0.048166811 -0.271442
-0.12397944 -0.041657597 -0.271442
-0.023306303 -0.049226642 -0.271442
0.17190585 -0.033880837 -0.271442
0.19771963 -0.031428605 -0.271442
0.25396198 -0.037631102 -0.271442
-0.016504847 -0.025366601 -0.271442
0.082845792 -0.024592325 -0.271442
0.1563112 -0.026600219 -0.271442
-0.19272535 -0.013663799 -0.271442
-0.096540332 -0.019396544 -0.271442
0.14659825 -0.013467763 -0.271442
-0.065023065 -0.0012054741 -0.271442
0.10012195 -0.0071283132 -0.271442
0.09124478 0.0082477629 -0.271442
0.13204832 0.0085632466 -0.271442
-0.21370304 0.014523372 -0.271442
-0.13469653 0.011668772 -0.271442
0.00096896291 0.013061076 -0.271442
0.15758228 0.027472902 -0.271442
-0.087566324 0.034222528 -0.271442
-0.074054562 0.035587914 -0.271442
0.22919683 0.037723497 -0.271442
0.24010137 0.03746593 -0.271442
-0.24186705 0.048380852 -0.271442
0.19574115 0.04144394 -0.271442
-0.20719318 0.065044269 -0.271442
-0.040098604 0.063576601 -0.271442
-0.0027733743 0.062912233 -0.271442
0.16307308 0.067784339 -0.271442
0.2395539 0.072667792 -0.271442
-0.080981582 0.089095272 -0.271442
0.22880781 0.08316417 -0.271442
0.24388929 0.084478006 -0.271442
-0.24544214 0.093698159 -0.271442
-0.20090441 0.098946027 -0.271442
-0.11661576 0.091152899 -0.271442
0.015765689 0.096554697 -0.271442
0.15794569 0.093527861 -0.271442
-0.26859942 0.10833224 -0.271442
0.13105874 0.10944434 -0.271442
0.258791 0.1000945 -0.27095819
-0.18334481 0.11197781 -0.271442
0.10545886 0.1134779 -0.271442
0.21770212 0.11066803 -0.271442
-0.094656676 0.12907574 -0.271442
0.01542183 0.12991533 -0.271442
-0.17585774 0.13356227 -0.271442
0.22752091 0.13545445 -0.271442
-0.23426513 0.16690782 -0.271442
-0.25714746 0.17623541 -0.271442
-0.18777753 0.17954122 -0.271442
-0.14333342 0.17411062 -0.271442
-0.082223311 0.17039788 -0.271442
-0.22103712 0.18843342 -0.271442
-0.15513299 0.18727073 -0.271442
-0.045680407 0.19116101 -0.271442
0.19792354 0.19326483 -0.271442
-0.20960422 0.20539029 -0.271442
0.083790138 0.2049018 -0.271442
0.17933565 0.21667495 -0.271442
-0.1929062 0.23071119 -0.271442
0.025909148 0.23997433 -0.271442
-0.13952039 0.24457817 -0.271442
-0.0021439791 0.24453001 -0.271442
-0.23020659 0.25981569 -0.271442
-0.17671064 0.25114012 -0.271442
-0.048144437 0.2530953 -0.271442
0.10367764 0.25247538 -0.271442
0.11311904 0.25641721 -0.271442
0.21944083 0.25280672 -0.271442
-0.10411295 0.28620693 -0.271442
0.20368996 0.28866994 -0.271442
0.024846889 0.30234957 -0.271442
-0.18377696 -0.30920801 -0.26202339
0.18990794 -0.30920801 -0.26405701
-0.28409401 -0.21241444 -0.26775137
-0.28409401 -0.076342396 -0.26646549
-0.28409401 0.022386406 -0.26431257
0.258791 0.1207971 -0.26978707
0.272953 0.25181758 -0.26861259
0.272953 0.28977603 -0.26923087
0.097384766 0.30920801 -0.26873145
0.15527852 0.30920801 -0.26991308
0.2189735 0.30920798 -0.268994
0.033100508 -0.30920801 -0.25679868
-0.28409401 -0.14624608 -0.25962502
0.258791 -0.11193035 -0.25041449
0.258791 -0.089448214 -0.2543152
-0.28409401 0.025439441 -0.25087473
0.26653424 0.19770446 -0.25472137
-0.28409401 0.23987041 -0.25254935
-0.28409401 0.29011896 -0.25247443
-0.071583435 0.30920801 -0.25691769
0.18303451 0.30920801 -0.25210267
0.23919925 -0.30920801 -0.24653478
0.26351199 -0.30087394 -0.24184912
-0.28409401 -0.18260512 -0.24007231
0.258791 -0.13233131 -0.24614549
-0.28409401 -0.12851249 -0.24503739
-0.28409398 -0.058189057 -0.24226829
0.258791 0.017276011 -0.2406484
-0.28409401 0.061990105 -0.24429411
-0.28409401 0.10038383 -0.24869889
-0.28409401 0.19143344 -0.24882139
-0.11966152 0.30920801 -0.24079408
0.088917404 0.30920801 -0.24810025
0.15829632 0.30920801 -0.24602187
0.26351199 -0.30415648 -0.23828875
-0.28409401 -0.27223933 -0.23407508
0.258791 -0.23381139 -0.23065512
-0.28409401 -0.18880215 -0.23135637
0.258791 -0.088236913 -0.23144585
0.258791 0.056290887 -0.23826739
-0.28409401 -0.30729553 -0.22418034
0.010918632 -0.30920801 -0.22599462
-0.28409401 -0.23196639 -0.22820181
0.258791 0.084155552 -0.22106777
0.258791 0.12583736 -0.22159684
0.258791 0.1382806 -0.22417416
-0.28409401 0.14248773 -0.22247154
0.258791 0.16825691 -0.22658175
-0.25805598 0.30920801 -0.22713909
-0.11971025 0.30920801 -0.22616196
0.031505428 0.30920801 -0.22801752
0.23479947 0.30920801 -0.22670245
-0.25167358 -0.30920801 -0.21306355
-0.18695101 -0.30920801 -0.21749578
0.068772919 -0.30920801 -0.21504647
0.25278673 -0.30920801 -0.21557242
0.258791 -0.11785201 -0.21122286
-0.28409401 -0.05296959 -0.21310577
-0.28409401 -0.033133559 -0.21748379
0.258791 -0.00088153034 -0.2171129
0.258791 0.17143299 -0.21304247
0.272953 0.2994616 -0.21307242
-0.27448276 0.30920801 -0.21028318
-0.26600149 0.30920801 -0.2182242
-0.15800063 0.30920801 -0.21272095
-0.092242919 0.30920801 -0.21951655
0.012236938 0.30920801 -0.21039173
-0.044707634 -0.30920801 -0.20623264
0.0093655288 -0.30920801 -0.20896843
0.11554864 -0.30920801 -0.20642968
0.258791 -0.24879545 -0.20332392
0.258791 -0.11342967 -0.20374811
-0.28409404 -0.022253212 -0.20644143
-0.28409401 0.20010029 -0.2035649
-0.28409401 0.23646575 -0.20239893
-0.17408398 0.30920801 -0.2047774
-0.13113369 0.30920804 -0.20408484
0.15447471 0.30920801 -0.20014709
0.11838257 -0.30920801 -0.19934113
0.13512269 -0.30920801 -0.19959158
0.16518471 -0.30920801 -0.19971453
0.258791 -0.2601178 -0.19737323
-0.28409401 -0.22162887 -0.19337031
-0.28409401 -0.11372921 -0.1909841
0.258791 0.013799742 -0.19620948
0.258791 0.093614593 -0.19388562
-0.27351093 0.30920801 -0.19968079
-0.069995888 0.30920801 -0.19609666
0.22534482 -0.30920801 -0.18410513
-0.28409401 -0.14709026 -0.18987411
-0.043397486 -0.046415668 -0.18457206
0.17540884 -0.022232663 -0.187756
0.0439943 -0.017508939 -0.18837793
-0.28409401 0.015631773 -0.1891619
0.1049865 0.013412053 -0.187289
0.15968126 0.019420953 -0.18649787
0.0066922787 0.029271206 -0.18520099
0.18831035 0.020301219 -0.18638197
0.16746722 0.04471628 -0.18267059
0.080502063 0.30920801 -0.18478864
0.098999418 0.30920801 -0.18259287
-0.26550433 -0.30920801 -0.17571558
-0.22080439 -0.30920801 -0.17148973
-0.18050165 -0.30920801 -0.1717529
0.046249911 -0.30920801 -0.17166831
0.078805923 -0.30920801 -0.17155336
0.18799016 -0.30920801 -0.17970361
0.258791 -0.24155249 -0.17613289
-0.026434781 -0.080596238 -0.17293143
0.045021206 -0.083374374 -0.17178069
0.258791 -0.088685006 -0.17682622
0.019802421 -0.074098155 -0.17562306
0.049903173 -0.071321093 -0.17677334
0.1595681 -0.076976135 -0.17443094
0.19349144 -0.077516839 -0.17420697
0.057632212 -0.066511318 -0.17876564
0.12797984 -0.067837074 -0.17821649
-0.28409401 0.036938064 -0.17482933
-0.081101902 0.035215929 -0.17590517
-0.059673402 0.052551731 -0.17942508
0.12298967 0.051261827 -0.17995936
0.11038513 0.063257195 -0.17499074
0.258791 0.16892883 -0.17300962
0.27293804 0.2345677 -0.17455475
0.044469491 0.30920801 -0.1741908
0.18507753 0.30920801 -0.17013636
0.25135425 0.30920801 -0.17067008
-0.25346503 -0.30920801 -0.16808876
0.097957253 -0.30920801 -0.1671295
0.10452026 -0.10521273 -0.16128896
0.017123295 -0.095758803 -0.16665088
0.258791 -0.099782206 -0.16408767
0.244629 -0.072690129 -0.16151226
0.244629 0.064901546 -0.16928926
0.073305592 0.087371483 -0.16500238
0.12581769 0.086350381 -0.16542533
0.16240431 0.084807903 -0.16606423
0.054441418 0.093564197 -0.1607376
0.14562246 0.091919474 -0.16199964
0.272953 0.29764473 -0.16586761
0.17600808 0.30920801 -0.16195469
-0.26804116 -0.30920798 -0.15613523
-0.059794411 -0.30920801 -0.15729249
0.01467827 -0.30920804 -0.15941305
0.16433923 -0.30920804 -0.15859403
0.258791 -0.19294871 -0.15639499
0.13081616 -0.11162165 -0.15637118
-0.28409401 -0.030610554 -0.15615249
0.258791 -0.034644566 -0.15861142
-0.28409401 -0.023330338 -0.15014769
-0.081101902 -0.02940218 -0.15242079
0.258791 -0.020547388 -0.15096362
-0.28409401 -0.01584024 -0.15951267
0.258791 0.011681793 -0.15739973
-0.069899723 0.097987324 -0.15734357
-0.016382098 0.09776023 -0.15751784
0.088031873 0.094580799 -0.15995751
0.009556774 0.1013404 -0.15477064
0.035539538 0.1057079 -0.1514193
0.20018855 0.10642616 -0.15086815
0.2659781 0.19613357 -0.1541502
-0.28409401 0.24202661 -0.1570846
-0.18868209 0.30920801 -0.15429294
0.1787169 0.30920801 -0.15035337
0.22838151 0.30920801 -0.15593909
0.15601531 -0.30920801 -0.14449772
0.073673971 -0.12616402 -0.14521225
0.244629 -0.074519403 -0.14626239
0.24711569 -0.0044336407 -0.14375255
0.24575284 0.013579749 -0.14138061
0.26836646 0.022876032 -0.14015651
-0.0069387341 0.11474028 -0.14448845
-0.28409401 0.25644904 -0.14307755
-0.28409401 0.2928113 -0.14987916
0.038668431 0.30920801 -0.14028415
-0.17717084 -0.30920801 -0.13671601
-0.11450754 -0.30920801 -0.13145602
-0.07642062 -0.30920801 -0.13623752
-0.041609552 -0.30920801 -0.13147748
0.1152809 -0.30920801 -0.13809553
0.20867637 -0.30920801 -0.13424768
0.26351199 -0.28525943 -0.13718075
0.25579089 -0.061585143 -0.13156441
0.26316765 -0.047175717 -0.13753264
0.057814211 0.12885788 -0.13323541
0.029672358 0.130491 -0.13110705
0.11681041 0.13067557 -0.1308665
0.258791 0.13172182 -0.13501099
0.0060527623 0.30920801 -0.13293073
0.045261137 0.30920801 -0.13424525
0.086267762 0.30920801 -0.13692468
-0.25917149 -0.30920801 -0.1236332
-0.12033326 -0.30920801 -0.12098373
0.11283163 -0.30920801 -0.12667441
0.26291618 -0.28005999 -0.12785199
0.20725575 -0.15121979 -0.12020953
0.19899654 -0.14819077 -0.12415712
0.244629 -0.11757212 -0.12077142
-0.28409401 -0.029254459 -0.12659496
-0.28409401 0.01275479 -0.12520792
0.244629 0.10770005 -0.12225156
-0.056128256 0.13216855 -0.12892079
-0.0093826028 0.13759348 -0.12185072
0.27295297 0.25741836 -0.1215388
-0.28409401 0.26703665 -0.12916073
-0.050235957 0.30920801 -0.12758049
0.18053153 0.30920801 -0.12145936
-0.07592573 -0.30920801 -0.1175433
0.22264326 -0.30920804 -0.11728154
0.0041446276 -0.15273222 -0.11823845
0.012293905 -0.15617958 -0.11374568
0.13018322 -0.15536602 -0.11480595
0.258791 -0.14616983 -0.11751473
-0.081101902 0.09708181 -0.11783138
0.244629 0.13388386 -0.11958379
0.10741949 0.14365171 -0.1139553
0.18248738 0.14471669 -0.11256738
0.27289611 0.23246911 -0.1148269
-0.17264718 0.30920801 -0.11974359
0.15293378 0.30920801 -0.11505087
-0.24554552 -0.30920801 -0.10629448
-0.239824 -0.30920801 -0.10424396
-0.19482179 -0.30920801 -0.1036281
-0.13856956 -0.30920801 -0.10992724
0.24344528 -0.30920801 -0.10957201
0.258791 -0.27874988 -0.10088865
0.08926487 -0.16405737 -0.10347893
0.13129093 -0.15965964 -0.1092103
0.244629 -0.11586986 -0.10983081
-0.081101902 -0.093473449 -0.10643956
0.27031001 -0.075004227 -0.10467193
-0.081101902 -0.035140872 -0.10413602
0.27031001 0.055983514 -0.10179412
-0.081101902 0.089339867 -0.10391254
0.25802606 0.085149691 -0.10985109
0.272953 0.23885296 -0.10303321
0.14801995 0.30920801 -0.10600093
0.25589615 0.30920801 -0.10921787
-0.28409401 -0.30167678 -0.099894308
-0.099666744 -0.30920801 -0.094242334
0.016730621 -0.17162484 -0.092493623
0.033892546 -0.16761941 -0.098836735
0.2587468 -0.057012126 -0.090847597
-0.28409401 0.012241073 -0.097586036
-0.28409401 0.032343738 -0.094330102
0.085057348 0.15673718 -0.096901655
0.258791 0.16165254 -0.094233558
-0.28409401 0.29246679 -0.090679742
0.18585387 0.30920804 -0.092377141
0.272953 0.30414346 -0.091461413
-0.27814579 -0.30920801 -0.082215011
-0.23782881 -0.30920801 -0.081829607
-0.15864557 -0.30920801 -0.083505213
0.258791 -0.23114964 -0.087766632
0.258791 -0.22438234 -0.085273929
0.11988322 -0.17515856 -0.083962552
0.27031001 -0.094143718 -0.086151227
0.23575485 0.017576305 -0.088736713
-0.081101902 0.063267827 -0.08075761
0.244629 0.13612136 -0.083093792
0.0048881522 0.16418941 -0.080587856
-0.22370113 0.30920801 -0.080706298
-0.11373255 0.30920801 -0.085596368
0.0007921271 0.30920801 -0.08296515
0.010023683 0.30920801 -0.084314421
0.20060894 0.30920801 -0.089510277
0.16024929 -0.30920801 -0.078676656
-0.022511277 -0.1773473 -0.078678504
0.043271113 -0.17812118 -0.076810233
0.25595874 -0.1253244 -0.079226516
-0.28409401 -0.032643899 -0.072176591
-0.28409401 0.021367386 -0.070987292
-0.026332539 0.16785797 -0.071731254
0.16557045 0.16551286 -0.077392831
-0.28409401 0.1743091 -0.075141102
-0.051255606 0.30920801 -0.07271523
-0.26767951 -0.30920801 -0.061604328
-0.12789984 -0.30920801 -0.061294928
0.072836056 -0.30920801 -0.062993854
0.22911574 -0.30920801 -0.060451671
0.25387347 -0.30920801 -0.067291565
0.159907 -0.1846009 -0.061166935
0.258791 -0.18226671 -0.064790644
-0.081101902 -0.17684497 -0.061797671
0.25050256 -0.13524859 -0.061435152
0.212717 0.0060179532 -0.062242601
0.23346221 0.049633026 -0.069810443
0.244629 0.12855853 -0.069084041
-0.081101902 0.14551404 -0.064703286
0.089456797 -0.30920801 -0.055048913
0.1323013 -0.18773314 -0.053605132
-0.081101902 -0.17415121 -0.055757619
-0.28409401 -0.15753201 -0.059221033
0.244629 -0.14290255 -0.05450156
-0.081101902 -0.11154997 -0.053969648
0.27031001 0.090623535 -0.054422766
-0.081101902 0.14082927 -0.059928082
0.046863984 0.1758092 -0.052535459
0.2113152 0.17474853 -0.055096149
0.272953 0.24549177 -0.05335898
-0.075128891 0.30920801 -0.053687453
0.2207955 0.30920801 -0.053571172
-0.28261304 -0.30920801 -0.040025081
-0.029593986 -0.30920801 -0.042768598
0.115161 -0.30920801 -0.048524156
0.16892037 -0.30920801 -0.047245272
-0.28409401 -0.25760037 -0.048500754
-0.00579606 -0.19033654 -0.043410737
0.18280877 -0.19045675 -0.042497721
0.13753667 -0.18978715 -0.047583535
-0.081101902 -0.13438845 -0.049146015
0.27031001 -0.10150196 -0.042799257
-0.081101909 -0.089917317 -0.04907196
0.23243144 -0.082820147 -0.045654207
0.21003278 0.17751448 -0.046866942
-0.28409401 0.22208701 -0.048280455
-0.021269847 0.30920801 -0.04946908
0.12693882 0.30920801 -0.049647458
0.2624155 0.30920801 -0.044485979
-0.24578539 -0.30920801 -0.031139255
-0.17743537 -0.30920801 -0.030834153
0.22667304 -0.30920801 -0.03622131
0.23046562 -0.30920801 -0.034555227
0.258791 -0.24252093 -0.032272898
0.25982961 -0.10431042 -0.034876827
0.244629 0.14518753 -0.034465443
0.244629 0.1548899 -0.035931218
0.0021000206 0.1793669 -0.032797262
0.072589189 0.17847492 -0.039572082
0.14857706 0.17932801 -0.033092622
0.258791 0.17110929 -0.033761322
-0.28409401 0.2191263 -0.032123588
-0.05671826 0.30920801 -0.038081355
0.051171474 -0.30920801 -0.021770963
0.17514084 -0.30920801 -0.026753977
0.258791 -0.26536968 -0.02978684
-0.038939077 -0.19276629 -0.024956057
0.21148609 -0.19330028 -0.020900123
-0.28409401 -0.096847802 -0.02480753
-0.081101902 0.00744012 -0.028391829
-0.081101902 0.019418217 -0.025902627
0.244629 0.13619594 -0.022596953
-0.0089177266 0.18018419 -0.02658974
0.27289295 0.23231071 -0.024693266
-0.28409401 0.28898561 -0.027470492
0.02395682 0.30920801 -0.023437329
0.2345905 0.30920801 -0.025503263
-0.05030001 -0.30920801 -0.012259781
0.033707283 -0.30920801 -0.016508523
0.19704342 -0.30920801 -0.012510464
0.26351202 -0.30739516 -0.0191838
-0.28409401 -0.23933914 -0.017992437
0.024966322 -0.193471 -0.019603433
-0.081101909 -0.18634611 -0.01667309
-0.081101894 -0.15265806 -0.011467993
-0.081101902 -0.061750416 -0.015212009
0.212717 -0.053284146 -0.018042801
0.27031001 0.12736568 -0.013987797
-0.28409401 0.17045912 -0.010602668
0.258791 0.17668253 -0.017683938
0.20493212 0.18137622 -0.017535856
-0.28409401 0.20887646 -0.013891086
-0.28409401 0.29769045 -0.011181414
-0.28409401 -0.082788326 -0.0092847049
-0.081101909 0.15677951 -0.0072332448
-0.081101902 0.16036689 -8.1653488e-05
-0.28409401 0.29655677 -0.002881065
0.272953 0.29880506 -0.0021070614
-0.26461464 -0.30920801 0.0088654682
0.22288646 -0.19567586 0.0028568539
0.258791 -0.16882062 0.0077129118
0.212717 -0.040107429 0.0025461831
-0.28409401 -0.035944797 0.0014285445
-0.28409401 0.027980482 0.0021638721
-0.081101902 0.050535917 0.0064126248
-0.081101902 0.070541307 0.0062237512
-0.28409401 0.16656554 0.0086141378
0.082182132 0.18255556 0.0085784765
0.244629 0.18115416 0.0074625667
-0.28409401 0.2209534 0.0019090101
0.27210116 0.22145416 0.0093810186
-0.10135904 0.30920801 0.00039542466
0.050750151 0.30920801 0.0054331794
0.063906245 0.30920801 0.0068045408
-0.27974817 -0.30920801 0.01898054
-0.21101809 -0.30920801 0.014870465
0.26351199 -0.2811721 0.013584591
-0.050773688 -0.19346595 0.019641841
0.16625209 -0.19379544 0.017139301
0.23752515 -0.19434407 0.012972211
-0.081101902 -0.028208489 0.014501566
0.212717 0.051113002 0.012222359
0.258791 0.14484201 0.018251257
0.14236832 0.18179223 0.014376188
-0.27028045 0.30920801 0.011562006
-0.13923852 0.30920801 0.010463677
-0.12290798 0.30920801 0.014061686
0.078378782 0.30920798 0.011743382
-0.26812723 -0.30920801 0.023546614
0.15030374 -0.30920801 0.027031777
0.1682993 -0.30920801 0.024891637
-0.28409401 -0.29626867 0.025575459
0.258791 -0.24227427 0.025298148
-0.076270275 -0.19315866 0.021975894
0.014423102 -0.19313976 0.022119388
0.17757772 -0.19338387 0.020265218
-0.081101902 -0.17183959 0.020747175
0.258791 -0.17014955 0.021563817
0.212717 -0.067748271 0.028973319
-0.28409401 -0.059409216 0.023890518
0.212717 -0.059223492 0.020284003
-0.28409401 0.022109963 0.0296591
-0.081101902 0.17579463 0.026083877
0.067457035 0.18090373 0.02112451
-0.26126301 0.30920801 0.022549082
-0.055008695 0.30920801 0.020911627
0.0083133532 0.30920801 0.029231967
0.067268752 0.30920801 0.029970609
0.12389795 0.30920801 0.024672769
0.12978458 -0.30920801 0.031088755
-0.28409401 -0.25062448 0.039616629
0.258791 -0.22033903 0.036956381
-0.28409401 0.015599839 0.030002423
-0.28409401 0.07276018 0.03481257
-0.081101902 0.088512897 0.039317071
-0.081101902 0.091772847 0.038975134
-0.28409401 0.16422999 0.037294343
0.15315543 0.17934519 0.032962136
0.17051753 0.1797317 0.030026503
0.18676543 0.17907655 0.035002578
0.12258445 0.30920801 0.038149133
0.19717315 0.30920798 0.031235196
0.23354788 0.30920801 0.037931193
0.23154803 -0.19002663 0.045764633
0.19944374 -0.18984486 0.04714508
0.258791 -0.15406916 0.045404188
-0.081101902 -0.045959577 0.040429957
-0.081101902 -0.017176569 0.045576811
-0.28409401 0.006065689 0.048880063
0.22107641 0.061312512 0.043611694
-0.081101902 0.10064158 0.049396653
-0.040379852 0.17794026 0.043633003
0.11920905 0.17718545 0.049212933
0.272953 0.25094265 0.047861155
-0.20384653 0.30920801 0.04030896
-0.14708149 0.30920801 0.044340394
-0.28409401 -0.30631006 0.050325163
-0.14758226 -0.30920801 0.057328776
-0.28409401 -0.21692844 0.053063206
0.19262889 -0.18810721 0.052702077
0.258791 -0.17965326 0.056670528
-0.28409401 -0.060359575 0.053632222
0.27031001 0.11665601 0.056350123
0.26423278 0.12744334 0.050422113
-0.28409401 0.18397194 0.055569537
-0.28409401 0.19689366 0.057490334
-0.081101902 -0.023566905 0.063747056
0.16803251 0.16966897 0.067359418
-0.26270571 0.30920801 0.063171044
0.0087188333 0.30920801 0.06316904
0.044582248 0.30920801 0.06138096
0.23778388 0.30920801 0.06556116
-0.01635769 -0.30920801 0.073732093
0.26351199 -0.29336888 0.073538721
-0.28409401 -0.25339553 0.072390646
0.062229976 -0.17742613 0.07848864
0.16107972 -0.17968085 0.073045246
0.244629 -0.1615361 0.077191368
-0.081101902 -0.12845999 0.079866305
0.27031001 -0.11353324 0.07146056
-0.081101902 -0.080916926 0.076913111
-0.081101902 -0.050778527 0.07812576
-0.28409401 0.076876804 0.078097217
0.082224064 0.16855296 0.070053734
-0.28409401 0.17549956 0.07132858
0.26110366 0.18480715 0.076472335
0.066669151 0.30920801 0.075396188
-0.055982783 -0.30920798 0.086850941
0.23947102 -0.30920801 0.083260901
0.258791 -0.18109031 0.085645266
0.045101888 -0.17397547 0.086819351
0.092557549 -0.17635711 0.081069551
0.17376314 -0.17395793 0.086861715
-0.081101902 -0.1519355 0.084464721
0.26730976 -0.12053703 0.085465632
-0.28409401 -0.071010686 0.0874165
-0.28409401 0.0005114153 0.083288193
0.258791 0.11685561 0.08672069
-0.28409401 0.15807353 0.084560454
-0.28409401 0.25160068 0.084501512
-0.28319648 0.30920801 0.084978797
0.080460168 0.30920801 0.088493876
0.26142699 0.30920801 0.087205008
0.22628309 -0.30920801 0.091567852
0.1965694 -0.16968608 0.096144006
-0.081101902 -0.14165558 0.097499378
-0.081101894 -0.11677186 0.095446847
-0.081101902 -0.058534373 0.092333451
0.24445674 -0.024864055 0.095971495
-0.081101902 0.12906845 0.093334921
0.1885429 0.15685253 0.096752003
0.26393318 0.19091895 0.09343446
-0.20266336 0.30920801 0.095187545
-0.28409401 -0.25336447 0.10710587
-0.081101909 -0.1219749 0.10682525
0.26371729 -0.015977209 0.10361247
0.258791 0.10971135 0.10071509
-0.07400991 0.15102093 0.10435192
0.14820495 0.15300687 0.10176378
0.22291513 0.15294327 0.10184668
0.26740903 0.20027395 0.10306399
-0.28409401 0.28945452 0.10695103
0.064446054 0.30920804 0.10503515
0.18519504 0.30920801 0.1005887
0.23679398 0.30920801 0.10926026
-0.28409401 -0.22981505 0.11563623
0.258791 -0.21605767 0.11062902
0.258791 -0.17326079 0.1126819
-0.010375753 -0.15522483 0.11499029
0.046241883 -0.15575993 0.11429293
0.22159958 -0.15286471 0.1180661
-0.081101909 -0.1336716 0.11784953
-0.28409401 -0.079584494 0.11313141
-0.081101902 -0.050110914 0.1128512
0.27031001 -0.042951606 0.11228672
-0.28409401 -0.032997534 0.11348786
-0.081101902 0.039860111 0.11611465
-0.28409401 0.27050889 0.1132824
-0.15304163 0.30920801 0.11722079
-0.049765408 0.30920801 0.11612421
-0.031511053 0.30920801 0.1128571
0.23900354 0.30920804 0.11423246
-0.20090356 -0.30920801 0.12618409
0.26351199 -0.30888176 0.1283761
0.04136486 -0.1443496 0.12916321
0.053566832 -0.14401038 0.12960526
0.27031001 -0.03077291 0.12581143
0.27031001 0.029695027 0.12752566
-0.081101902 0.037708186 0.12718922
-0.28409401 0.11460485 0.12656105
0.12157454 0.13281828 0.12807414
0.15554377 0.13180493 0.12939475
0.258791 0.13986759 0.12393675
-0.28409401 0.25160486 0.12505248
0.069270596 0.30920801 0.12289736
0.18118611 0.30920801 0.12064968
-0.2633146 -0.30920801 0.13117301
-0.19721156 -0.30920801 0.13935208
0.12626249 -0.30920801 0.13380568
0.26351199 -0.29482698 0.13867036
0.043668836 -0.13741443 0.13657933
0.13070343 -0.13635099 0.13739532
0.258791 -0.11211555 0.13716529
0.244629 -0.056611095 0.13729577
-0.081101902 0.0127097 0.13878623
-0.28409401 0.063035004 0.13623774
0.244629 0.085713364 0.13360639
0.091827646 0.12802739 0.13429277
-0.022652566 -0.30920801 0.14154001
0.10523084 -0.30920801 0.14120129
0.23864011 -0.30920801 0.14855927
0.017918237 -0.13235946 0.14045805
0.21365815 -0.12428455 0.14665404
0.258791 -0.013152484 0.14576121
0.25658813 -0.0068036737 0.14390039
0.27031001 -0.0033811508 0.14135467
0.244629 0.020910811 0.14204365
-0.28409401 0.068529777 0.14988825
-0.28409401 0.15454513 0.14690228
-0.28409401 0.27265045 0.14306593
-0.23973992 0.30920801 0.14763512
-0.23418303 -0.30920801 0.1536607
-0.019213274 -0.30920801 0.15088896
0.26351199 -0.30107218 0.15356526
-0.28409401 -0.22019115 0.15193114
0.010484185 -0.11593816 0.15305832
0.09574499 -0.11472412 0.15398985
0.14988503 -0.11408834 0.15447772
0.15289707 -0.11908393 0.15064454
-0.28409401 -0.10983056 0.15999776
-0.28409401 -0.057210825 0.15788168
0.258791 -0.059460074 0.15764263
0.244629 -0.037207015 0.15189481
0.244629 -0.028203933 0.15388957
0.244629 0.0062620803 0.15312511
-0.28409401 0.011160806 0.15108839
-0.037651222 0.095501237 0.15925041
-0.057499446 0.10497351 0.15198225
0.24341702 0.10201799 0.15425004
-0.28409401 0.24845207 0.15955779
-0.28409404 0.26694012 0.15956485
0.272953 0.26940992 0.15669307
-0.21939796 0.30920801 0.15638456
0.038244538 0.30920801 0.15012503
-0.20688321 -0.30920801 0.1681091
-0.12957558 -0.30920804 0.16997871
0.075121738 -0.10427057 0.162011
-0.048187498 -0.092886679 0.16783974
0.081242129 -0.093460269 0.16760212
0.244629 0.0058212075 0.16136198
0.22809947 0.077305391 0.16917109
-0.016799204 0.084463187 0.16620612
0.12262385 0.094297476 0.16017406
-0.28409401 0.24713868 0.16876337
0.272953 0.2975775 0.16394563
-0.21139352 0.30920798 0.16147217
0.089732088 0.30920798 0.16697356
0.258791 -0.17535952 0.17261864
-0.28409401 -0.13521497 0.1773717
0.12829809 -0.08388982 0.17156656
0.16420734 -0.077880971 0.17405565
-0.034335516 -0.066718832 0.17867941
0.18260396 -0.064042337 0.17978813
0.258791 -0.066820942 0.17274877
-0.081101902 -0.029107571 0.17273888
0.258791 -0.028938327 0.1717525
-0.081101902 0.012614302 0.17401813
0.15633211 0.052497849 0.17944717
0.16834366 0.057485308 0.17738122
0.19633664 0.051215991 0.17997816
0.057718307 0.066367969 0.17370172
0.096344471 0.065447055 0.1740832
0.21794173 0.068916038 0.17264625
0.2729148 0.23340325 0.17605798
-0.2069447 0.30920801 0.17184532
-0.16149952 0.30920801 0.17690948
0.11970574 0.30920801 0.17331195
0.272953 0.30436927 0.17641182
-0.15140168 -0.30920801 0.18414603
0.23903616 -0.30920801 0.18629323
0.015936367 -0.050318599 0.18405819
0.031599902 -0.048433587 0.18430638
0.054046005 -0.049124397 0.18421543
0.0026065041 -0.039478734 0.18548539
0.13019884 -0.037187479 0.18578705
0.062350865 -0.026778277 0.18715754
0.10025969 -0.029825287 0.18675636
-0.012564903 -0.019976739 0.18805301
-0.065427378 0.0063303723 0.18822138
-0.0014641769 0.011164855 0.18758488
0.030170845 0.038552936 0.18397895
0.074983768 0.035477057 0.1843839
0.24451983 0.04303183 0.1833683
0.258791 0.12814769 0.18799441
-0.28409401 0.20491858 0.18206778
-0.17354916 0.30920801 0.1811488
0.073439583 0.30920801 0.18678626
0.096047089 0.30920801 0.18513218
-0.27097234 -0.30920801 0.19288683
-0.17101069 -0.30920798 0.196135
-0.12783821 -0.30920801 0.19780757
-0.11226389 -0.30920801 0.19319302
-0.051021963 -0.30920801 0.19457403
0.055934742 -0.30920801 0.19664684
-0.28409401 0.25126293 0.1926555
-0.17908241 0.30920801 0.19361302
0.23502754 0.30920801 0.19339618
-0.21427919 -0.30920801 0.20114291
0.26054627 -0.28005999 0.20574975
0.258791 -0.13273722 0.20740773
0.258791 -0.055008844 0.20300005
-0.28409401 -0.028585128 0.20410404
-0.28409401 0.11987143 0.20203584
0.0074415579 0.30920801 0.2010819
0.085565798 -0.30920801 0.21937001
0.13662028 -0.30920804 0.21989007
0.19237155 -0.30920801 0.21970527
0.258791 -0.039737411 0.21761173
-0.28409401 -0.011149801 0.21806742
-0.28409401 0.050004758 0.21050164
0.258791 0.13902158 0.21147656
-0.28409401 0.2149519 0.21455035
-0.26448506 0.30920801 0.21177407
-0.22619645 0.30920801 0.21641779
0.053342193 0.30920801 0.21574712
0.10899188 0.30920801 0.21571982
0.11320101 0.30920801 0.21849361
0.1445327 0.30920801 0.21124972
-0.22807439 -0.30920801 0.22984371
-0.050845347 -0.30920801 0.22936933
0.258791 -0.16255413 0.22124562
-0.28409401 0.27644843 0.226895
-0.12128717 0.30920801 0.2292307
0.1278633 0.30920801 0.22558858
0.19130355 0.30920801 0.22778438
0.2335915 0.30920801 0.22102711
0.2435419 -0.30920804 0.23425815
-0.28409401 -0.18264344 0.23315454
-0.28409401 0.0094398707 0.23527861
0.272953 0.25284076 0.23689841
-0.27301547 0.30920801 0.23500995
-0.12804964 0.30920801 0.23962134
-0.078207545 0.30920801 0.23853263
0.09426827 -0.30920801 0.24286371
0.11048473 -0.30920801 0.24331665
0.258791 -0.25502136 0.24583186
-0.28409401 -0.22266006 0.2486048
-0.28409401 -0.19550017 0.24051575
-0.28409401 -0.15900643 0.24329299
-0.28409401 -0.1462854 0.2473917
-0.28409401 -0.090687849 0.24075657
0.258791 0.0020882413 0.24343801
-0.28409401 0.20549193 0.24241859
-0.27138507 0.30920801 0.2473429
-0.17826892 0.30920801 0.24109395
0.20989496 0.30920801 0.24091326
-0.26207078 -0.30920804 0.25438672
0.030242473 -0.30920801 0.25654924
-0.28409401 -0.23594561 0.25403562
0.25879103 -0.082529776 0.25833082
-0.28409401 -0.052271366 0.25994182
-0.28409401 0.10697405 0.25866723
-0.28409401 0.20021705 0.25371134
-0.045769375 0.30920801 0.25257385
0.052524425 0.30920801 0.2540426
-0.23275596 -0.30920801 0.26730737
-0.047070161 -0.30920801 0.26929069
0.258791 -0.14733426 0.26807401
-0.28409401 0.019739186 0.26625645
0.26081997 0.18423545 0.261507
-0.28409401 0.27154928 0.26156145
-0.24911533 0.30920801 0.26266915
-0.22230226 0.30920801 0.26197129
0.0046114624 0.30920801 0.26212829
-0.21863247 -0.3076793 0.271442
-0.16137584 -0.30818549 0.271442
0.037092008 -0.30248937 0.271442
-0.031138845 -0.29354936 0.271442
-0.047469489 -0.28684965 0.271442
0.21654943 -0.28673342 0.271442
0.22746348 -0.28989419 0.27144203
0.061167561 -0.27611154 0.271442
0.16749997 -0.27250373 0.271442
-0.13692509 -0.26971868 0.271442
-0.086109169 -0.267867 0.271442
0.075348891 -0.26342857 0.271442
0.16196336 -0.26628324 0.271442
0.258791 -0.26829723 0.27044916
0.04656738 -0.25553477 0.271442
0.089821063 -0.25371659 0.271442
-0.19277065 -0.24388546 0.271442
-0.15934587 -0.24040762 0.271442
-0.087176308 -0.24715251 0.271442
-0.030688144 -0.24025102 0.271442
0.12055271 -0.23885031 0.271442
-0.010641724 -0.22628914 0.271442
0.14021805 -0.22694895 0.271442
-0.014522746 -0.2155394 0.271442
0.034120582 -0.21213405 0.271442
0.16503337 -0.2143669 0.271442
-0.1178337 -0.20234549 0.271442
-0.096706517 -0.20181032 0.271442
0.11414312 -0.20538692 0.271442
0.12293196 -0.20804118 0.271442
-0.28373459 -0.19191265 0.271442
-0.087245904 -0.19337663 0.271442
-0.14661942 -0.18951617 0.271442
0.12043288 -0.18718934 0.271442
-0.075760789 -0.17252135 0.271442
-0.022550285 -0.17607504 0.271442
0.0047297329 -0.17749314 0.271442
0.088327333 -0.1509987 0.271442
-0.26834238 -0.1402815 0.271442
-0.24549478 -0.14068511 0.271442
-0.21063878 -0.14926787 0.271442
-0.089452997 -0.14376287 0.271442
0.23666382 -0.14265582 0.271442
-0.11529189 -0.13679266 0.271442
0.19461745 -0.13081211 0.271442
0.086290307 -0.1221162 0.271442
-0.23306933 -0.11102723 0.271442
-0.05996421 -0.11273205 0.271442
0.031445742 -0.11699177 0.271442
0.02748508 -0.10656011 0.271442
0.25460723 -0.10058325 0.271442
-0.02986268 -0.094485104 0.271442
0.033247009 -0.091453761 0.271442
-0.12967271 -0.08299394 0.271442
-0.065369435 -0.087273352 0.271442
0.037840955 -0.083949119 0.271442
0.1747386 -0.08542648 0.271442
0.24844542 -0.089659445 0.271442
0.2576656 -0.080222815 0.271442
-0.017025931 -0.079128437 0.271442
0.055371121 -0.074532971 0.271442
0.12627444 -0.073698543 0.271442
-0.13239199 -0.053981297 0.271442
-0.020688727 -0.055017918 0.271442
-0.0086888699 -0.050522402 0.271442
0.2227315 -0.059101366 0.271442
0.0053860703 -0.042971805 0.271442
-0.2706793 -0.035240799 0.271442
-0.19691353 -0.034104623 0.271442
-0.12109287 -0.039420057 0.271442
-0.056522734 -0.031670235 0.271442
0.072527535 -0.035104655 0.271442
0.24177015 -0.016199559 0.271442
-0.26202446 -0.0072635263 0.271442
0.15657464 -0.0067041013 0.271442
0.091749497 0.0036995485 0.271442
0.13625392 0.0090132169 0.271442
0.19437286 0.0030042902 0.271442
-0.27629846 0.011674494 0.271442
0.220557 0.016076818 0.271442
-0.19688985 0.03803052 0.271442
-0.27811101 0.040560052 0.271442
-0.19265628 0.045340024 0.271442
-0.1295092 0.045104738 0.271442
-0.05236581 0.044687524 0.271442
0.22572795 0.049799941 0.271442
-0.23315759 0.059526712 0.271442
-0.066365309 0.051694907 0.271442
-0.25892538 0.066258535 0.271442
-0.090796836 0.06645453 0.271442
0.24411254 0.061453488 0.271442
0.25605875 0.068946451 0.271442
-0.0020071007 0.074351586 0.271442
0.10816247 0.074011303 0.271442
-0.083636135 0.087385431 0.271442
0.018855311 0.083484299 0.271442
-0.078726269 0.090899885 0.271442
0.24883373 0.098376803 0.271442
0.066191301 0.10215123 0.271442
0.21444242 0.1187263 0.271442
0.24785393 0.11001503 0.271442
0.094944224 0.12779559 0.271442
-0.21885625 0.13351086 0.271442
-0.28377217 0.1484547 0.271442
-0.05664067 0.14372902 0.271442
0.05159808 0.14175296 0.271442
0.037537269 0.15534474 0.271442
-0.049190126 0.16427997 0.271442
0.026448302 0.16820996 0.271442
0.041119121 0.17984843 0.271442
-0.1272895 0.18733795 0.271442
0.025854006 0.18163888 0.271442
0.20571557 0.19388857 0.271442
0.23466702 0.19595008 0.271442
0.16451798 0.20783742 0.271442
-0.21640329 0.21518959 0.271442
-0.031364165 0.21797439 0.271442
-0.20716397 0.22616355 0.271442
-0.1266553 0.2237446 0.271442
0.13469601 0.22064111 0.271442
-0.21120344 0.23200038 0.271442
-0.27217695 0.24416159 0.271442
0.2524192 0.24889965 0.271442
-0.075601086 0.25166515 0.271442
-0.16805774 0.26561525 0.271442
-0.08242584 0.2632964 0.271442
-0.01488347 0.26090598 0.271442
0.064305075 0.26385337 0.271442
0.22625209 0.26105887 0.271442
-0.049979538 0.27146459 0.271442
0.064861849 0.27524149 0.271442
0.25581795 0.27701527 0.271442
-0.26304901 0.28314441 0.271442
0.027735647 0.28193927 0.271442
0.21386036 0.28912145 0.271442
-0.16719791 0.29452091 0.271442
0.24104305 0.29816195 0.271442
-0.013799205 0.30284178 0.271442
0.1694681 0.30776301 0.271442
0.1916976 0.3035568 0.271442
0.21515349 0.3017872 0.271442
