# .PCD v0.7 - Point Cloud Data file format
VERSION 0.7
FIELDS x y z
SIZE 4 4 4
TYPE F F F
COUNT 1 1 1
WIDTH 983
HEIGHT 1
VIEWPOINT 0 0 0 1 0 0 0
POINTS 983
DATA ascii
-0.19443451 -0.37117201 -0.23078133
0.032465912 -0.37117201 -0.23014343
-0.05988951 -0.36850387 -0.23198199
0.17067596 -0.36851922 -0.23198199
-0.10558016 -0.35199192 -0.23198199
-0.13775475 -0.34059796 -0.23198199
-0.1261562 -0.34662876 -0.23198199
0.14651841 -0.34357756 -0.23198201
0.056314573 -0.33329904 -0.23198199
-0.037816972 -0.32326052 -0.23198199
0.12160297 -0.32934636 -0.23198199
-0.13046379 -0.31463522 -0.23198199
-0.12727228 -0.31148511 -0.23198199
-0.20530778 -0.30232659 -0.23198199
-0.19928274 -0.30115998 -0.23198199
-0.047636352 -0.29184186 -0.23198199
0.049051993 -0.29588705 -0.23198199
0.073488161 -0.29130507 -0.23198199
-0.21005596 -0.2832281 -0.23198199
-0.050841972 -0.28391892 -0.23198199
0.16369838 -0.28979945 -0.23198199
0.18007106 -0.28411683 -0.23198199
0.23189439 -0.28090668 -0.23198199
-0.083329424 -0.27325892 -0.23198199
-0.07734134 -0.27678353 -0.23198199
0.08318077 -0.27168348 -0.23198199
0.21094507 -0.27228862 -0.23198199
-0.20585276 -0.26728025 -0.23198199
0.010680333 -0.26750341 -0.23198199
0.14773057 -0.26436549 -0.23198199
-0.22919364 -0.25122237 -0.23198199
-0.08752767 -0.25686008 -0.23198201
-0.079037368 -0.25333914 -0.23198199
0.0054123029 -0.25737673 -0.23198199
0.21727422 -0.25164708 -0.23198199
-0.2193328 -0.24251923 -0.23198199
-0.14824247 -0.24401231 -0.23198199
-0.10288588 -0.24016348 -0.23198199
-0.047285642 -0.24078327 -0.23198199
-0.038128857 -0.24947962 -0.23198199
0.19994216 -0.24836512 -0.23198199
-0.19522777 -0.23467763 -0.23198199
-0.00047250837 -0.2272059 -0.23198199
0.015512127 -0.22691874 -0.23198199
0.09411259 -0.22639078 -0.23198199
-0.079692952 -0.21563414 -0.23198199
0.037649699 -0.20800389 -0.23198199
0.12107649 -0.20510256 -0.23198199
-0.092338756 -0.19289726 -0.23198199
-0.075441942 -0.19006616 -0.23198199
0.024218664 -0.19291215 -0.23198199
0.11705397 -0.19838554 -0.23198199
0.23012853 -0.19920118 -0.23198199
-0.071249828 -0.18114805 -0.23198199
-0.012887843 -0.18973774 -0.23198199
0.032561734 -0.18950303 -0.23198199
0.12795384 -0.18257579 -0.23198199
-0.074186027 -0.17219737 -0.23198199
0.028441058 -0.17678788 -0.23198199
-0.20212196 -0.16231149 -0.23198199
-0.16991919 -0.15002081 -0.23198199
-0.15696226 -0.15891972 -0.23198199
-0.10754284 -0.15283535 -0.23198199
0.015161328 -0.15837011 -0.23198199
-0.02675011 -0.14818802 -0.23198199
-0.19881035 -0.13184015 -0.23198199
0.12710497 -0.13945059 -0.23198199
0.13289043 -0.12433736 -0.23198199
0.20645326 -0.12595111 -0.23198199
0.23112589 -0.12411013 -0.23198199
-0.241693 -0.11795296 -0.23025571
-0.14275418 -0.11285388 -0.23198199
-0.12971412 -0.11704516 -0.23198199
-0.004753964 -0.11886545 -0.23198199
-0.21936217 -0.10137356 -0.23198199
0.069469318 -0.10742 -0.23198199
0.20012617 -0.10846866 -0.23198199
0.2161651 -0.10238551 -0.23198199
-0.21251145 -0.095532894 -0.23198199
-0.24169299 -0.084182352 -0.2312593
-0.14186382 -0.089117393 -0.23198199
-0.031979583 -0.089229532 -0.23198199
-0.10232218 -0.075907335 -0.23198199
0.038478091 -0.075277418 -0.23198199
0.15035984 -0.071341589 -0.23198199
-0.13597876 -0.06316857 -0.23198199
-0.09732382 -0.062746316 -0.23198199
-0.013764942 -0.061504599 -0.23198199
-0.092238523 -0.052072763 -0.23198199
-0.026524819 -0.059996184 -0.23198199
-0.0084985867 -0.049296729 -0.23198199
-0.1463255 -0.035737582 -0.23198199
-0.065744892 -0.022915989 -0.23198199
-0.046888892 -0.025439646 -0.23198199
-0.0087992251 -0.014995933 -0.23198199
0.23879635 -0.010708764 -0.23198199
-0.11632344 0.0092589483 -0.23198199
-0.23261334 0.015809985 -0.23198199
-0.077420294 0.011331588 -0.23198199
0.057458349 0.011701703 -0.23198199
0.12086619 0.011777051 -0.23198199
-0.13602617 0.02013512 -0.23198199
-0.01291807 0.02285438 -0.23198199
0.015511528 0.027024778 -0.23198199
0.039830267 0.028253525 -0.23198199
0.14425421 0.026836753 -0.23198199
-0.2251766 0.032210723 -0.23198199
0.009011548 0.033123039 -0.23198199
-0.19024435 0.044241704 -0.23198199
-0.024973292 0.047475286 -0.23198199
0.084942915 0.047096074 -0.23198199
-0.1889462 0.055118799 -0.23198199
0.15647662 0.055434585 -0.23198199
-0.15163445 0.060631409 -0.23198199
-0.070113696 0.060025506 -0.23198199
0.033216055 0.062068529 -0.23198199
-0.11248609 0.075666949 -0.23198199
-0.14732879 0.08791706 -0.23198199
-0.048519395 0.089921169 -0.23198199
-0.012916694 0.081740595 -0.23198199
0.078421853 0.088116199 -0.23198199
0.094547167 0.086988851 -0.23198199
0.082925901 0.096749589 -0.23198199
0.102979 0.094761834 -0.23198199
0.19724245 0.093050785 -0.23198199
0.077943534 0.10128824 -0.23198199
0.17590171 0.1020873 -0.23198199
0.23655421 0.10123549 -0.23198199
-0.13931729 0.11038454 -0.23198199
-0.10102695 0.11589923 -0.23198199
-0.033444006 0.11758029 -0.23198199
0.21071757 0.11156178 -0.23198199
0.24169299 0.11714936 -0.23067532
-0.18944839 0.12229812 -0.23198199
0.044969697 0.12228335 -0.23198199
0.2018996 0.12868835 -0.23198199
0.23195462 0.12181129 -0.23198199
-0.18816851 0.13016023 -0.23198199
-0.097641371 0.14446734 -0.23198199
-0.071628749 0.14448249 -0.23198199
-0.012597002 0.14362593 -0.23198199
0.17875834 0.1582776 -0.23198199
-0.20194918 0.18967684 -0.23198199
-0.13726409 0.1999446 -0.23198199
0.067185543 0.19242799 -0.23198199
-0.14791955 0.20461845 -0.23198199
-0.034829363 0.20797262 -0.23198199
-0.055355486 0.21497551 -0.23198199
0.061384343 0.21824574 -0.23198199
0.093277983 0.21257989 -0.23198199
-0.19390684 0.22079834 -0.23198199
-0.072274961 0.22369429 -0.23198199
-0.022098463 0.22024415 -0.23198199
0.0040235668 0.22832103 -0.23198199
0.18311211 0.2298345 -0.23198199
-0.086343065 0.23635033 -0.23198199
-0.031411149 0.23875234 -0.23198201
-0.17164798 0.24021584 -0.23198199
-0.017948169 0.24591947 -0.23198199
0.047965862 0.24033973 -0.23198199
0.076267019 0.24196661 -0.23198199
0.14314204 0.25226781 -0.23198199
-0.13361979 0.26303828 -0.23198199
-0.10958472 0.26523155 -0.23198199
-0.040124178 0.26989174 -0.23198199
0.1564081 0.26111746 -0.23198199
-0.18682863 0.27938026 -0.23198199
-0.11100467 0.29627872 -0.23198199
-0.029619738 0.29095811 -0.23198199
0.013022706 0.29824084 -0.23198199
0.15709907 0.29540521 -0.23198199
-0.03573475 0.30202043 -0.23198199
-0.0083827227 0.30202541 -0.23198201
0.029087275 0.30847168 -0.23198199
-0.13467976 0.31345195 -0.23198199
0.11671406 0.3172569 -0.23198199
-0.17069998 0.3205497 -0.23198199
-0.10636346 0.32617146 -0.23198199
-0.0068337247 0.32520294 -0.23198199
0.09549433 0.32596663 -0.23198199
-0.16607054 0.33544964 -0.23198199
-0.082186997 0.34321105 -0.23198199
-0.047764678 0.34569603 -0.23198199
-0.21870147 0.35917592 -0.23198199
-0.12968996 0.35107598 -0.23198199
-0.068052597 0.35598555 -0.23198199
-0.10449609 0.36279488 -0.23198199
-0.20021871 0.37117201 -0.23017497
-0.00059308112 0.37070006 -0.23198199
0.19637556 -0.37117201 -0.22844844
0.241693 -0.29611149 -0.22567059
-0.24169302 -0.015289545 -0.22334099
0.13499111 0.25029737 -0.22392827
-0.17021447 0.37117198 -0.22619154
-0.056672543 0.37117201 -0.22213322
-0.1556685 -0.37117201 -0.21538243
-0.03577996 -0.37117201 -0.21925423
0.22225253 -0.37117201 -0.21740606
-0.24169299 -0.34523559 -0.21766052
-0.241693 -0.25796536 -0.21050611
-0.24169302 -0.20494598 -0.21968043
0.24169299 -0.15076299 -0.21956909
0.24169299 -0.12650192 -0.21946742
0.24169299 0.0181664 -0.21203348
0.24169299 0.093172148 -0.2102572
0.241693 0.12772432 -0.21545407
-0.24169299 0.15064403 -0.21727173
0.16716321 0.25015199 -0.217613
0.093608528 0.37117201 -0.21071723
-0.10661189 -0.37117201 -0.20794526
-0.241693 -0.33153582 -0.2065718
-0.241693 -0.16680938 -0.20145972
-0.24169299 -0.12426452 -0.2023553
-0.24169302 0.044652224 -0.20876603
-0.241693 0.15884583 -0.2026449
-0.241693 0.19562954 -0.20455486
-0.241693 0.21819025 -0.20027065
0.12947901 0.27785259 -0.20994619
-0.241693 0.31025809 -0.20740426
0.1545172 0.315162 -0.20181747
-0.24169299 0.36477694 -0.20500928
-0.20820183 0.37117201 -0.20835948
-0.241693 -0.19564539 -0.19239981
0.241693 -0.039093666 -0.1995497
-0.24169302 -0.024518326 -0.19759575
-0.24169299 -0.015865952 -0.1919782
0.241693 0.15639211 -0.19374631
0.22689581 0.25015199 -0.19424057
-0.046536811 0.37117201 -0.19057998
-0.032907486 0.37117201 -0.19575346
0.054472655 0.37117201 -0.19799864
0.070616543 0.37117201 -0.19419809
0.10873501 0.37117201 -0.19689409
-0.084615298 -0.37117201 -0.18747979
0.10150923 -0.37117201 -0.18307579
-0.241693 -0.36793336 -0.18314373
0.241693 -0.29773438 -0.18179733
-0.24169302 -0.21479875 -0.18157944
-0.24169299 -0.19388175 -0.18850897
-0.24169302 -0.029735848 -0.1854251
0.241693 0.047177747 -0.18792427
0.241693 0.078190967 -0.18587804
0.24169299 0.11022269 -0.18776634
0.241693 0.14655375 -0.18209013
-0.24169302 0.18277469 -0.18593448
-0.241693 0.2307684 -0.18541476
0.18666652 0.32596856 -0.185048
-0.21719986 0.37117201 -0.1846792
-0.13777259 0.37117201 -0.18377233
-0.036723096 0.37117201 -0.18571407
-0.023532964 -0.37117201 -0.17648675
-0.0080960169 -0.37117201 -0.17825747
0.17679109 -0.37117201 -0.17160322
-0.241693 -0.3664048 -0.17873311
0.241693 -0.34169924 -0.17068169
0.241693 -0.32476485 -0.17500855
0.241693 -0.307731 -0.1705766
0.241693 -0.28902403 -0.17036256
-0.24169299 -0.27676195 -0.17740743
0.241693 -0.27769583 -0.17642063
-0.241693 -0.19515193 -0.17997327
-0.241693 -0.15065084 -0.17827666
0.24169299 -0.11051904 -0.17980671
0.24169302 -0.096091554 -0.17625225
-0.241693 0.3027761 -0.17026748
0.15917486 0.33674097 -0.17458802
0.173315 0.33647397 -0.17576045
-0.23337656 0.37117201 -0.17200205
-0.24121429 -0.37117201 -0.16669501
-0.036886036 -0.37117201 -0.16316228
0.035954267 -0.37117201 -0.16628845
0.10376196 -0.37117201 -0.16905192
-0.24169302 -0.066019088 -0.16661984
-0.24169302 0.1067028 -0.16170752
0.12947901 0.26723647 -0.16971821
0.12947901 0.28218547 -0.16656503
-0.24169302 0.29337794 -0.16126674
0.16734731 0.315162 -0.16433448
-0.23582187 0.37117201 -0.16616179
-0.044688195 -0.37117201 -0.15285441
0.12456545 -0.37117201 -0.15742084
0.15335062 -0.37117201 -0.15653624
-0.241693 -0.33301526 -0.1501244
0.24169302 -0.045560613 -0.15604901
-0.241693 -0.018994793 -0.15670867
-0.241693 0.24896097 -0.15373929
0.12947901 0.28310192 -0.15738896
-0.241693 0.33148515 -0.15416946
0.12947902 0.33249515 -0.15684363
0.1542659 0.33772761 -0.15688398
-0.19312534 0.37117201 -0.15988758
-0.038740553 0.37117201 -0.15269485
-0.1267475 -0.37117201 -0.14155397
0.10368476 -0.37117201 -0.14584823
-0.241693 -0.26072752 -0.14362213
0.24169302 -0.11599874 -0.14886838
-0.241693 -0.041131526 -0.14218369
0.24169299 0.03619365 -0.14540334
0.24169299 0.063948296 -0.14655997
0.24169302 0.097113274 -0.14365341
0.241693 0.23390841 -0.14863962
0.20871858 0.25015199 -0.14074787
-0.21965933 0.37117201 -0.14209113
-0.04721722 0.37117201 -0.14628634
-0.033842634 0.37117201 -0.14158201
-0.095803469 -0.37117201 -0.13864435
0.19763528 -0.37117201 -0.13132274
0.241693 0.016713858 -0.13841106
0.24169299 0.068245791 -0.13326994
-0.24169299 0.078883022 -0.13662124
-0.241693 0.097535282 -0.13166781
0.241693 0.12372456 -0.13499014
-0.24169299 0.14421651 -0.13116215
0.12947901 0.28261802 -0.13305929
-0.040258646 0.37117201 -0.13670339
-0.21973796 -0.37117201 -0.12696296
0.01091186 -0.37117201 -0.12096408
-0.241693 -0.30722657 -0.12780789
0.24169299 -0.20860483 -0.12895396
0.241693 0.0064576268 -0.12849621
-0.241693 0.12303443 -0.12321285
0.241693 0.201469 -0.12940225
-0.12592384 0.25015199 -0.12567922
0.019034378 0.25887713 -0.128399
0.02203542 0.25015199 -0.12683155
0.23052722 0.25015199 -0.12100452
-0.14354512 0.26048124 -0.128399
0.035411034 0.26134703 -0.128399
0.050489336 0.26630637 -0.128399
0.10130817 0.26216459 -0.128399
0.05920646 0.27890003 -0.128399
0.10420544 0.2740899 -0.128399
-0.099169552 0.28457582 -0.128399
-0.061582543 0.28028539 -0.128399
0.011738711 0.28523913 -0.128399
0.025477849 0.29238141 -0.128399
-0.00026358571 0.30227089 -0.128399
0.08168371 0.30329919 -0.128399
0.12905949 0.30692285 -0.128399
0.15606502 0.30694085 -0.128399
-0.043505155 0.31959561 -0.128399
-0.0087485909 0.31286404 -0.128399
-0.20595413 0.32211214 -0.128399
-0.12586144 0.33855352 -0.128399
0.11526088 0.3321608 -0.128399
0.050682656 0.34269792 -0.128399
0.10588681 0.34989941 -0.128399
-0.16367599 0.3550286 -0.128399
0.024713881 0.35015452 -0.128399
-0.074781388 0.36182985 -0.128399
0.068541229 0.36557901 -0.128399
-0.039893508 0.37009552 -0.128399
-0.096979253 -0.37117201 -0.11236437
0.1197558 -0.37117201 -0.11727914
0.16499962 -0.37117201 -0.11909424
0.24169299 -0.20606998 -0.11360636
0.24169302 -0.16105396 -0.11731029
0.24169299 -0.14021796 -0.11643244
-0.241693 -0.11986203 -0.11486296
0.24169299 -0.11202804 -0.1170197
-0.24169299 -0.079603374 -0.11198759
-0.24169299 0.11562866 -0.11859401
0.241693 0.17572135 -0.11139598
0.067996666 0.25015199 -0.11788628
0.21655659 0.25015199 -0.11827402
-0.060826764 -0.37117201 -0.10621804
0.20936984 -0.37117201 -0.10842554
0.241693 -0.15623164 -0.10250559
-0.24169299 -0.11655205 -0.1055484
0.24169299 0.052709088 -0.10566042
-0.24169302 0.073105454 -0.10284976
0.24169302 0.088418663 -0.10240205
-0.241693 0.091286302 -0.10785749
-0.241693 0.11733025 -0.10152876
0.241693 0.20621014 -0.10024961
-0.241693 0.24106711 -0.10132106
-0.20931581 0.25603729 -0.10136655
-0.1361351 0.25015199 -0.10680262
0.13801873 0.25015199 -0.10102406
0.16278437 0.25015199 -0.10823831
-0.20350707 0.26131198 -0.10426351
0.241693 -0.33333182 -0.090998717
0.24169302 -0.099814385 -0.093946934
0.24169302 -0.078542173 -0.090591386
-0.24169299 -0.060437821 -0.092072159
0.241693 -0.062703818 -0.098325714
0.24169302 0.045463447 -0.093340673
0.24169302 0.23015793 -0.092473924
-0.19147122 0.25015199 -0.092162535
0.057776887 0.25015199 -0.098551214
0.11691284 0.25015199 -0.095797718
-0.24169302 0.3422389 -0.097030744
-0.23538047 0.37117201 -0.096476078
-0.241693 -0.25233907 -0.080048084
0.24169302 -0.19877985 -0.087810092
-0.24169299 -0.18834129 -0.083197922
-0.24169299 -0.14009564 -0.082075924
0.241693 0.0085663199 -0.089089826
-0.24169299 0.090170905 -0.080457613
0.241693 0.09352985 -0.082844242
-0.24169299 0.1730606 -0.085981801
-0.1811244 0.25015199 -0.085631639
-0.10981829 0.25015199 -0.085606396
0.06048201 0.25015199 -0.087605461
-0.24169299 0.27626544 -0.089933038
-0.24169302 0.29680887 -0.088256076
-0.24169302 0.35370374 -0.08025682
-0.22047143 -0.37117201 -0.071157113
-0.2088301 -0.37117201 -0.078256473
-0.028053731 -0.37117201 -0.076446228
0.040333293 -0.37117201 -0.074225262
-0.24169302 -0.34007293 -0.075312547
0.24169299 -0.25728163 -0.072057486
0.241693 -0.10727546 -0.071365915
0.24169299 0.2056794 -0.07432346
-0.060934491 0.25015199 -0.070314601
0.16467327 0.25015199 -0.071169473
-0.22158749 0.3616311 -0.0795011
-0.22838435 0.37117201 -0.076873362
-0.0094778035 -0.37117201 -0.062416926
0.0053552166 -0.37117201 -0.063013539
0.24169299 -0.338907 -0.062144488
-0.241693 -0.10011473 -0.062656514
-0.24169299 -0.022856116 -0.062842973
0.241693 0.015111605 -0.06108686
0.241693 0.11199104 -0.068268411
-0.24169299 0.19174421 -0.06547647
-0.097626492 0.25015199 -0.060310438
0.024281258 -0.37117201 -0.055981457
0.061210193 -0.37117201 -0.058396697
-0.241693 0.011587467 -0.058200538
-0.24169299 0.047602981 -0.054588016
-0.241693 0.09336441 -0.054256629
-0.24169302 0.10679078 -0.057676502
-0.24169299 0.20443213 -0.051874582
0.088049971 -0.37117201 -0.047046363
0.12119056 -0.37117201 -0.04899478
0.241693 -0.16655171 -0.042430125
-0.241693 -0.15910292 -0.041872188
-0.241693 -0.11153489 -0.046507806
0.24169302 -0.057374362 -0.045783445
-0.241693 0.098718084 -0.047403701
-0.24169299 0.12550557 -0.042982489
0.24169302 0.1974586 -0.048529632
-0.241693 0.34804425 -0.04076796
-0.18433496 -0.37117201 -0.03675916
0.24169299 -0.30032235 -0.036551259
0.24169302 -0.021349773 -0.038018972
-0.24169299 0.020082846 -0.03465629
-0.12549211 0.25015199 -0.035053726
-0.026083112 0.25015199 -0.034191459
-0.1988956 0.28545225 -0.037910469
-0.21135123 0.32726598 -0.038551867
-0.241693 0.35171634 -0.032537632
-0.22653762 -0.37117201 -0.028577648
-0.14176112 -0.37117201 -0.023102125
-0.12364838 -0.37117201 -0.026569324
-0.074421987 -0.37117201 -0.025190527
0.044504791 -0.37117201 -0.023457028
0.22759873 -0.37117201 -0.020123608
0.24169302 -0.31141382 -0.0200302
-0.24169302 -0.17644924 -0.027712613
0.24169299 -0.14623758 -0.026351742
0.241693 -0.06833721 -0.026612476
0.24169299 0.023654148 -0.020137101
0.056996398 0.25015199 -0.024995539
-0.22179875 0.36234048 -0.025292151
-0.092958882 -0.37117201 -0.013484575
-0.073943555 -0.37117201 -0.015219916
-0.241693 -0.3372072 -0.014430776
-0.24169302 -0.097068608 -0.016030803
-0.241693 -0.058661282 -0.019085839
0.241693 -0.032991454 -0.010478854
-0.24169299 0.040790826 -0.014145806
0.241693 0.042956162 -0.011340708
0.12828706 0.25015199 -0.012122998
0.20167521 0.25015199 -0.013228394
-0.241693 0.36408126 -0.014809234
-0.241693 -0.21527249 -0.0095692351
-0.241693 -0.13343996 -0.0091838166
-0.241693 0.06683901 -0.0045507625
-0.24169299 0.090269811 -0.0036373027
-0.24169302 0.11985058 -0.0031058528
-0.016353093 0.25015199 -0.0098032653
0.058848664 0.25015199 -0.0074969409
0.10357985 0.25015199 -0.00080045382
0.20201254 0.25015199 -0.003356263
0.241693 -0.31457078 0.0046433508
0.24169299 -0.092758037 0.0075766742
-0.24169299 0.02458176 0.0087587312
0.241693 0.065567598 0.001386635
0.24169302 0.098196507 0.0030722767
0.24169299 0.11480471 0.00057264417
-0.24169299 0.16863206 0.0046540238
0.241693 0.21761577 0.0052647241
0.241693 0.22511148 0.0054494278
-0.19668549 0.25015199 0.0013942823
0.23868528 0.25015199 0.0027832091
-0.24169302 0.26479596 0.0024830252
-0.19786635 0.28199679 0.0027999207
-0.21361491 0.33486503 0.0020123851
0.035316981 -0.37117201 0.010477565
0.24169302 -0.32990244 0.018881142
-0.241693 -0.21811897 0.011884071
-0.241693 -0.18501572 0.015594866
0.241693 -0.16044238 0.012708724
0.24169302 -0.15024456 0.010691784
-0.241693 -0.13785321 0.017503485
0.241693 -0.087163858 0.016221315
-0.241693 -0.03218988 0.012778068
0.24169299 0.074845828 0.013917018
0.24169302 0.13952819 0.019112878
0.241693 0.16203512 0.0184903
-0.241693 0.19500694 0.019061502
-0.24169302 0.2288931 0.010026924
-0.20755756 0.25763389 0.016886741
-0.241693 0.28872174 0.019914851
-0.19701035 -0.37117201 0.029908925
0.092546798 -0.37117201 0.02428608
0.24169302 -0.32422888 0.025613718
-0.241693 -0.30226958 0.025334619
0.24169299 -0.25500205 0.021086052
-0.241693 -0.23329157 0.024490939
0.241693 -0.18078232 0.02669448
-0.24169302 -0.17310697 0.021948043
-0.241693 -0.12090304 0.022965442
-0.241693 -0.04776204 0.029530184
-0.24169302 -0.034009516 0.024858311
-0.24169302 0.001953423 0.026967421
0.24169302 0.083680131 0.029242989
0.241693 0.097964026 0.02964073
-0.24169302 0.15518421 0.02475626
-0.162148 0.25015199 0.024238903
0.087354824 0.25015199 0.026257558
0.14624277 0.25015199 0.027188297
-0.24069096 -0.37117201 0.031896427
0.24038573 -0.37117201 0.034206562
0.24169302 -0.27189064 0.032603331
0.24169299 -0.14787383 0.03241707
-0.24169299 -0.11060341 0.034218486
0.241693 -0.095854767 0.037267298
-0.24169302 -0.052694559 0.031372868
-0.241693 -0.016184956 0.03974022
-0.11186603 0.25015199 0.036119267
0.037105855 0.25015199 0.03731896
0.13591775 0.25015199 0.038020991
-0.21319082 0.33344156 0.03475295
-0.24169299 0.36777741 0.033526622
-0.11065231 -0.37117201 0.040577136
-0.054544087 -0.37117201 0.043510932
-0.24169302 -0.33252555 0.044571504
-0.241693 -0.23594287 0.048994306
0.24169299 -0.048712552 0.041276969
-0.241693 -0.0014470518 0.046372205
-0.24169299 0.029957548 0.043656096
-0.241693 0.031377912 0.046124004
-0.241693 0.073337138 0.045284517
0.24169299 0.1043036 0.048657853
-0.24169302 0.21588872 0.042922184
-0.028389683 0.25015199 0.043902915
-0.018210657 0.25015199 0.049925558
0.076100223 0.25015199 0.041899819
-0.24169302 0.31676883 0.046898797
-0.24169299 0.33191636 0.045381226
-0.22079746 0.35897842 0.044963066
-0.22698851 0.37117201 0.042878851
-0.23796776 -0.37117201 0.053023353
-0.16685256 -0.37117201 0.056484167
0.10381637 -0.37117201 0.05238438
0.2272035 -0.37117201 0.052648813
-0.24169299 -0.36436713 0.057275567
0.24169302 -0.34895018 0.053836323
-0.241693 -0.29807264 0.054358706
-0.24169302 -0.26650304 0.054674745
0.24169302 -0.21950875 0.056046892
0.24169302 -0.1747712 0.056030411
0.24169299 -0.16872284 0.051663704
0.241693 -0.13501149 0.055918053
-0.241693 -0.10367081 0.052719958
-0.24169299 0.047493882 0.051105212
0.24169302 0.088213541 0.057929076
-0.241693 0.11953405 0.053275451
-0.24169299 0.14395431 0.054261275
0.241693 0.21355993 0.054024234
0.095771603 0.25015199 0.052104138
0.14572372 0.25015199 0.051212348
-0.15054035 -0.37117201 0.067239285
0.20085351 -0.37117201 0.069933899
-0.24169299 -0.16784276 0.061791368
0.24169299 -0.12660271 0.063224532
0.241693 -0.11512144 0.06298247
-0.24169302 -0.0076396316 0.068307377
0.241693 0.10113656 0.067121834
-0.24169302 0.15082085 0.068038188
-0.24169302 0.19115621 0.066238731
0.015876122 0.25015199 0.066311769
0.16223295 0.25015199 0.060157366
0.23644234 -0.37117201 0.070263267
-0.24169302 -0.2934536 0.07328029
-0.24169302 -0.22099429 0.072659649
0.24169302 -0.17317109 0.074527867
0.24169302 -0.12716405 0.075760417
0.24169302 -0.038303614 0.070887044
0.24169302 0.23687233 0.071594454
0.16220637 0.25015199 0.076368347
0.20441288 0.25015199 0.074758843
0.21654902 0.25015199 0.073566213
-0.241693 0.31388879 0.077669032
-0.24169302 0.33523059 0.079225712
0.07889428 -0.37117201 0.080542155
0.16289012 -0.37117201 0.088563494
-0.241693 -0.15971319 0.085912377
0.241693 -0.11287855 0.086281911
0.24169302 -0.10086393 0.080127582
0.241693 -0.071697623 0.082024992
0.24169302 -0.069314219 0.084969878
0.24169302 -0.0041498691 0.084576741
-0.241693 0.13556089 0.088799849
0.24169299 0.19225843 0.0832977
-0.17336938 0.25015199 0.086176269
-0.095926091 0.25015199 0.086800858
0.064801656 0.25015199 0.087973036
0.16573532 0.25015199 0.083725773
-0.22199091 -0.37117201 0.099394917
-0.18455274 -0.37117201 0.097342454
0.0554493 -0.37117201 0.098406054
0.20766523 -0.37117201 0.090842254
-0.241693 -0.33506614 0.096415944
0.241693 -0.22588839 0.093376912
0.24169302 -0.20868185 0.093643315
0.24169299 -0.051390987 0.094184577
-0.241693 0.20535167 0.090959236
-0.2058166 0.30868584 0.094007127
-0.10868355 -0.37117201 0.10825953
-0.098384939 -0.37117201 0.10697652
0.097137146 -0.37117201 0.10339612
0.1806857 -0.37117201 0.10926592
0.24169299 -0.30094784 0.10311061
0.241693 -0.29931554 0.10784048
0.241693 -0.24110773 0.10023211
-0.24169302 -0.024496749 0.10143653
0.24169302 0.11524353 0.10247953
0.24169302 0.12072279 0.10540368
0.24169299 0.17021795 0.10908136
-0.24169299 0.2487033 0.10016595
0.095511422 0.25015199 0.10927249
-0.24169302 0.33828545 0.10975001
-0.19328819 -0.37117201 0.11473186
-0.11084558 -0.37117201 0.11802033
0.091994628 -0.37117201 0.11234602
0.14730918 -0.37117201 0.11684136
0.15666071 -0.37117201 0.11921009
-0.24169299 -0.34932685 0.11381796
-0.24169302 -0.25963545 0.11035383
0.24169302 -0.23421261 0.11210418
0.24169302 -0.2170932 0.1182021
-0.241693 -0.10109192 0.11818773
0.24169299 -0.09984161 0.11989258
-0.241693 -0.00035511702 0.11989013
-0.24169299 0.054021619 0.11122292
-0.19658321 0.25015199 0.11898882
0.13362508 0.25015199 0.11933484
0.17490414 0.25015199 0.11924411
-0.24169302 0.28450185 0.11281541
-0.241693 0.33268082 0.11929391
-0.14541647 -0.37117201 0.12674937
0.028936706 -0.37117201 0.12366433
0.24169302 -0.2313648 0.12788059
0.241693 -0.17123874 0.12249687
0.24169299 -0.057662167 0.12376558
-0.241693 0.12130407 0.12152026
0.086088523 0.25015199 0.1246274
0.1014875 0.25015199 0.12675124
0.11259237 0.25015199 0.12874106
0.212511 0.25015199 0.1222949
-0.15415065 -0.37117201 0.13553895
-0.022041045 -0.37117201 0.1362389
0.043697953 -0.37117201 0.13442659
0.22752275 -0.37117201 0.13343757
-0.24169299 -0.22139251 0.13990009
0.24169299 0.045221552 0.13229206
-0.241693 0.17630327 0.1369987
0.241693 0.24960025 0.13864052
0.040470209 0.25015199 0.13072357
0.10657121 0.25015199 0.13346913
0.20405751 0.25015199 0.13150811
-0.20562963 0.30805817 0.13008727
-0.14230503 -0.37117201 0.14509708
-0.095553555 -0.37117201 0.14283358
-0.078648165 -0.37117201 0.14661433
-0.04991015 -0.37117201 0.14671259
-0.001887694 -0.37117201 0.14440003
0.036007028 -0.37117201 0.14251229
0.12398706 -0.37117201 0.1457969
0.15024933 -0.37117201 0.14678487
0.241693 -0.34051362 0.14367078
-0.24169302 -0.26105011 0.14911021
0.24169299 -0.053868696 0.14308561
-0.24169302 0.019622453 0.14344409
0.241693 0.026804462 0.14507999
-0.241693 0.17182392 0.14164801
-0.13322566 0.25015199 0.14898166
-0.065997809 0.25015199 0.14735477
-0.241693 0.35619211 0.14797975
-0.17502794 -0.37117201 0.15357977
-0.0056972727 -0.37117201 0.15772763
0.22528343 -0.37117201 0.15017149
0.241693 -0.31452125 0.15734145
0.241693 -0.26209712 0.15657479
-0.24169302 -0.24743596 0.15229915
-0.24169302 -0.23932786 0.1519784
-0.24169302 -0.17395304 0.15543969
0.241693 -0.11090022 0.15915267
0.24169299 -0.012448676 0.15686214
0.241693 -0.0077603534 0.15487933
0.241693 0.020983949 0.15138084
0.241693 0.037538633 0.15140733
0.24169299 0.061509944 0.15180884
-0.241693 0.12431226 0.15585199
0.241693 0.22915794 0.15037702
-0.24169302 0.24993479 0.15936303
-0.06745398 0.25015199 0.15446647
-0.034760937 -0.37117201 0.16676268
0.24169299 -0.32415119 0.16528183
0.241693 -0.29615465 0.16484651
-0.241693 -0.26441616 0.16627613
-0.24169299 -0.20656528 0.16313572
-0.24169302 -0.18333107 0.16274963
0.24169302 -0.060112074 0.16977248
-0.241693 0.024695113 0.16963869
0.241693 0.057941698 0.16869648
-0.24169299 0.20775189 0.16519748
0.24169302 0.23036361 0.16886987
-0.16055444 0.25015199 0.1697776
0.043892764 0.25015199 0.16531089
-0.241693 0.32734957 0.1690211
-0.017351344 -0.37117201 0.17859033
0.0031463429 -0.37117201 0.17978877
0.061969556 -0.37117201 0.17583954
0.078782171 -0.37117201 0.1780979
0.241693 -0.36992881 0.1719024
-0.24169299 -0.16483955 0.17429286
0.24169302 -0.10863482 0.17623316
-0.241693 0.030597448 0.17123514
0.24169302 0.12768102 0.17076619
0.24169302 0.20035502 0.17855647
-0.2148765 0.25098789 0.17054121
0.085742563 0.25015199 0.17352784
0.095846489 0.25015199 0.1705915
0.22018731 0.25015199 0.17676488
-0.19789702 0.28209972 0.17882816
-0.23222554 -0.37117201 0.18423426
-0.069791779 -0.37117201 0.18378478
0.24169302 -0.25136736 0.18380357
-0.241693 -0.12449556 0.18802993
-0.241693 -0.094118394 0.18241891
0.241693 -0.037484836 0.18358627
0.24169299 0.067024119 0.18789309
0.241693 0.10861041 0.18036479
-0.059248284 0.25015199 0.18551296
-0.042331435 0.25015199 0.18699419
0.056421187 0.25015199 0.186859
0.083718374 0.25015199 0.18202803
-0.035798363 -0.37117201 0.19602551
-0.018722303 -0.37117201 0.1931414
0.15643315 -0.37117201 0.19686635
0.24169302 -0.27965426 0.19390325
0.241693 -0.2249985 0.19081031
-0.241693 -0.2134918 0.19008562
-0.241693 -0.16598462 0.19010894
-0.241693 -0.083247915 0.19052942
-0.24169299 -0.06632033 0.19326358
0.24169302 0.07748387 0.19923387
-0.241693 0.17574567 0.19781119
-0.16719288 0.25015199 0.19232993
-0.063111149 0.25015199 0.19381639
0.17035216 0.25015199 0.19288604
0.18471277 -0.37117201 0.20525773
-0.241693 -0.29241592 0.20907344
0.241693 -0.17237058 0.20236453
0.24169299 -0.14158824 0.2071515
0.241693 -0.10106013 0.20418397
0.24169302 -0.082465634 0.20312566
0.24169302 -0.073707275 0.20573664
0.24169302 0.026495621 0.20281781
-0.241693 0.23343253 0.20791544
0.037947044 0.25015199 0.20281607
0.17646797 0.25015199 0.20127273
0.18574753 0.25015199 0.20625286
-0.241693 0.27569914 0.20424639
0.12205887 -0.37117201 0.21554145
0.13545007 -0.37117201 0.21924658
0.241693 -0.37025172 0.21069561
0.241693 -0.33027071 0.21749188
0.241693 -0.31788743 0.21512054
0.24169299 0.065912105 0.21885404
0.241693 0.17169726 0.21632645
-0.24169299 0.1823585 0.21226314
-0.241693 0.36841434 0.2124279
0.065415293 -0.37117201 0.2229934
0.15314054 -0.37117201 0.22393259
-0.241693 -0.35449436 0.22884302
-0.241693 -0.27577612 0.22595787
-0.24169302 -0.16569947 0.22133371
-0.24169302 -0.050504446 0.2222743
0.241693 -0.036855683 0.22023416
-0.24169299 0.068815038 0.22980784
0.24169302 0.086414836 0.226789
-0.241693 0.12755588 0.22633171
-0.24169299 0.17044812 0.22628865
-0.20536792 0.25015199 0.22873941
-0.17461349 0.25015199 0.22752661
0.18779138 0.25015199 0.22704141
-0.19428921 0.26998609 0.22801363
-0.19770204 0.2814444 0.22864012
-0.21692125 0.34596619 0.22678985
-0.22310549 0.36672807 0.2283003
-0.19713283 -0.36881042 0.23198199
-0.15603915 -0.36881357 0.23198199
-0.08921171 -0.36806983 0.23198199
0.14294595 -0.35902169 0.23198199
0.068214178 -0.33846453 0.23198199
0.10046616 -0.33609584 0.23198199
0.24093296 -0.33200434 0.23198199
-0.22729807 -0.32356328 0.23198199
-0.16920188 -0.32365346 0.23198201
-0.030101821 -0.32147324 0.23198199
0.19272995 -0.32861555 0.23198199
0.009371683 -0.31764123 0.23198199
0.077688187 -0.311744 0.23198199
0.1012064 -0.31934956 0.23198199
0.14952473 -0.31598163 0.23198199
-0.013094805 -0.30097461 0.23198199
0.14165899 -0.30156595 0.23198199
0.20352907 -0.30581972 0.23198199
-0.19995731 -0.29356718 0.23198199
0.10628751 -0.29140574 0.23198199
0.11217234 -0.29408258 0.23198199
0.2257105 -0.29308632 0.23198199
-0.20533285 -0.28498408 0.23198199
-0.15595478 -0.28161705 0.23198199
-0.13548084 -0.28957587 0.23198199
-0.0045709237 -0.28556988 0.23198199
0.059500147 -0.28494021 0.23198199
-0.21013147 -0.2782909 0.23198198
-0.070557341 -0.27199832 0.23198199
0.14833242 -0.27372029 0.23198199
0.17814025 -0.27452549 0.23198199
0.22869162 -0.27671146 0.23198199
-0.21814346 -0.25583982 0.23198201
-0.23118724 -0.24767509 0.23198199
0.17435429 -0.23725383 0.23198199
-0.0077800974 -0.22211315 0.23198199
0.13723524 -0.22796814 0.23198199
0.0045527518 -0.21364895 0.23198199
-0.22434713 -0.20744377 0.23198199
-0.183375 -0.20227352 0.23198199
0.04562144 -0.20652433 0.23198199
0.12304021 -0.20966277 0.23198199
-0.15433858 -0.19951873 0.23198199
-0.16186738 -0.17477401 0.23198199
-0.012461968 -0.17620286 0.23198199
-0.17023706 -0.16295344 0.23198199
-0.15756987 -0.16623452 0.23198199
0.0034692213 -0.15546261 0.23198199
0.19221304 -0.15447043 0.23198199
-0.019345386 -0.14188167 0.23198199
0.0012141317 -0.14368764 0.23198199
0.082991332 -0.12708011 0.23198199
0.22359702 -0.12727705 0.23198199
0.024211632 -0.11712676 0.23198199
0.059794515 -0.11244798 0.23198199
0.08622364 -0.11724678 0.23198199
0.14720505 -0.11494778 0.23198199
-0.21554163 -0.10047822 0.23198199
0.047951825 -0.10126079 0.23198199
0.12287992 -0.10606325 0.23198199
0.17546125 -0.10582682 0.23198199
0.11393563 -0.098719366 0.23198199
0.14704701 -0.095632553 0.23198199
0.15023032 -0.094509996 0.23198199
-0.1966719 -0.089698181 0.23198199
-0.17180011 -0.082867861 0.23198199
-0.14917924 -0.085563183 0.23198199
-0.050122455 -0.088998169 0.23198199
0.22652024 -0.088214949 0.23198199
0.1824791 -0.067612365 0.23198199
-0.047016919 -0.052722298 0.23198199
-0.20381838 -0.041616194 0.23198199
-0.15482792 -0.04480473 0.23198199
-0.059340097 -0.047069859 0.23198199
0.120232 -0.046845719 0.23198199
-0.22145951 -0.038018316 0.23198199
-0.19283694 -0.03559342 0.23198199
0.15946376 -0.03784626 0.23198199
-0.087605149 -0.029890418 0.23198199
-0.069689505 -0.02801419 0.23198199
-0.045342699 -0.020961978 0.23198199
-0.001915209 -0.025103509 0.23198199
0.051571667 -0.02869086 0.23198199
0.11996305 -0.020904593 0.23198199
0.16885923 -0.026245017 0.23198199
-0.050094515 -0.019055165 0.23198199
-0.023091553 -0.010757793 0.23198199
0.028624885 -0.017102124 0.23198199
0.22300065 -0.017336117 0.23198199
-0.15968981 -0.0037788451 0.23198199
-0.11036422 -0.006438382 0.23198199
-0.0039944025 -0.0075097056 0.23198199
0.099751242 -0.006274879 0.23198199
0.20565616 -0.0097500384 0.23198199
0.13463524 0.0075398982 0.23198199
0.20850611 0.0039779693 0.23198199
-0.22017008 0.010194361 0.23198199
-0.052266993 0.016504362 0.23198199
0.025008244 0.01749168 0.23198199
0.035760641 0.015171947 0.23198199
0.17752899 0.018990498 0.23198199
0.20641424 0.017155558 0.23198199
0.23332076 0.019425288 0.23198199
0.11268382 0.022874191 0.23198199
-0.096939564 0.033691749 0.23198199
0.071466088 0.03876454 0.23198199
0.21041086 0.031373799 0.23198199
-0.020457864 0.046308383 0.23198199
-0.14779353 0.05461251 0.23198199
0.19001359 0.057031892 0.23198199
-0.22464651 0.068346895 0.23198199
-0.067739561 0.0621804 0.23198199
0.1130145 0.06127606 0.23198199
-0.23824905 0.074998707 0.23198199
-0.19383587 0.070227616 0.23198199
0.052775353 0.076925904 0.23198199
-0.17917487 0.082647756 0.23198199
0.22853349 0.080431148 0.23198199
-0.013302505 0.099400327 0.23198199
0.212377 0.091198735 0.23198199
-0.19911225 0.10050346 0.23198199
-0.060892813 0.1136822 0.23198199
0.023189835 0.11639299 0.23198199
0.067643844 0.11282258 0.23198199
0.12149066 0.11817355 0.23198199
0.16059086 0.11895632 0.23198201
-0.096263506 0.12755956 0.23198199
0.17916933 0.12524255 0.23198199
-0.22850311 0.13776164 0.23198199
-0.20273897 0.13593315 0.23198199
-0.12872431 0.13230507 0.23198199
-0.091008812 0.14584272 0.23198199
-0.035613559 0.14061713 0.23198199
0.11373656 0.14807975 0.23198199
0.14551476 0.14004236 0.23198199
0.19908822 0.14850944 0.23198199
0.22020689 0.14105484 0.23198199
0.030618228 0.15182462 0.23198199
0.22958165 0.15486492 0.23198199
0.24164888 0.15671545 0.23198199
-0.22756529 0.17255522 0.23198199
0.1251435 0.17506419 0.23198198
0.17430863 0.17946345 0.23198199
0.241693 0.17587812 0.23083508
-0.20187844 0.18048833 0.23198199
0.16539815 0.18452229 0.23198199
0.19345829 0.1800928 0.23198199
-0.18404527 0.19245277 0.23198199
0.10015582 0.19622636 0.23198199
0.13763654 0.19439964 0.23198199
-0.16598645 0.20745517 0.23198199
-0.00093379617 0.20084554 0.23198199
0.11836127 0.20415731 0.23198199
0.18861035 0.20702538 0.23198199
-0.12918261 0.2190446 0.23198199
0.08094392 0.21659216 0.23198199
0.18863404 0.21327513 0.23198199
-0.07416749 0.22863656 0.23198199
-0.0015720651 0.22768849 0.23198199
0.19324952 0.22617589 0.23198199
0.12567838 0.23599213 0.23198199
-0.11251733 0.24912466 0.23198199
-0.026637495 0.2434018 0.23198201
0.096309148 0.24387254 0.23198199
-0.23105919 0.25715625 0.23198199
-0.23792709 0.26468068 0.23198199
