# .PCD v0.7 - Point Cloud Data file format
VERSION 0.7
FIELDS x y z
SIZE 4 4 4
TYPE F F F
COUNT 1 1 1
WIDTH 975
HEIGHT 1
VIEWPOINT 0 0 0 1 0 0 0
POINTS 975
DATA ascii
-0.22296169 -0.33469003 -0.28390601
-0.19342653 -0.33693057 -0.28390601
-0.17381464 -0.33089676 -0.28390601
-0.15198924 -0.33650157 -0.28390601
0.034925956 -0.33738777 -0.28313822
0.10284854 -0.33133167 -0.28390601
-0.10502101 -0.32481721 -0.28390601
0.11185877 -0.31289169 -0.28390601
-0.18217713 -0.308698 -0.28390601
0.14403313 -0.30717552 -0.28390601
0.17066747 -0.30235165 -0.28390601
0.10943222 -0.29389098 -0.28390601
-0.13103722 -0.28373379 -0.28390601
-0.050324999 -0.28431728 -0.28390601
-0.040145002 -0.28791201 -0.28390601
-0.056126267 -0.27365401 -0.28390601
-0.19029002 -0.26262707 -0.28390601
-0.012689307 -0.26989943 -0.28390601
0.10144524 -0.26050502 -0.28390601
0.22565193 -0.2643894 -0.28390601
-0.1598572 -0.25243032 -0.28390601
0.019029841 -0.25685123 -0.28390601
0.022504926 -0.25895017 -0.28390601
0.13305691 -0.25101215 -0.28390601
0.21096757 -0.25068572 -0.28390601
-0.10916825 -0.24779385 -0.28390601
0.16551416 -0.24702518 -0.28390601
-0.10250622 -0.23818313 -0.28390601
-0.15578154 -0.22986144 -0.28390601
0.018918537 -0.2224119 -0.28390601
-0.13012318 -0.21775246 -0.28390601
0.15514491 -0.2109157 -0.28390601
0.18081178 -0.20572123 -0.28390601
0.0092588887 -0.1914444 -0.28390601
0.084510356 -0.1935876 -0.28390601
-0.20643346 -0.183461 -0.28390601
-0.05301033 -0.18920615 -0.28390601
0.043981608 -0.1800492 -0.28390601
-0.22613801 -0.17617333 -0.28390601
-0.20948499 -0.17807387 -0.28390601
-0.15041497 -0.17890656 -0.28390601
0.2173911 -0.17022677 -0.28390601
0.22210626 -0.17123762 -0.28390601
-0.19557472 -0.16058172 -0.28390601
-0.0035736449 -0.16718253 -0.28390601
0.097141087 -0.15056847 -0.28390601
0.11559534 -0.15464425 -0.28390601
-0.085622504 -0.14677218 -0.28390601
-0.16709107 -0.13016416 -0.28390601
0.14491896 -0.13281873 -0.28390601
0.17301236 -0.13809553 -0.28390601
0.18142378 -0.13199235 -0.28390601
-0.1220875 -0.12934817 -0.28390601
-0.22750071 -0.11260346 -0.28390601
0.0082991347 -0.11548014 -0.28390601
0.086106166 -0.11491016 -0.28390601
-0.20921031 -0.10912197 -0.28390601
-0.16776352 -0.10528702 -0.28390601
-0.047026053 -0.10313249 -0.28390601
0.046897493 -0.10100953 -0.28390601
0.07567443 -0.10113374 -0.28390601
0.14080539 -0.10187545 -0.28390604
0.17752115 -0.10969649 -0.28390601
-0.18799391 -0.092419326 -0.28390601
0.037481047 -0.094460472 -0.28390601
0.11895669 -0.09875688 -0.28390601
-0.21616659 -0.086207494 -0.28390601
0.096361972 -0.086496495 -0.28390598
0.20272253 -0.084292367 -0.28390604
-0.04918183 -0.078807704 -0.28390601
-0.012943204 -0.075066447 -0.28390601
0.19947714 -0.077497154 -0.28390604
-0.086518645 -0.062675163 -0.28390601
0.021454059 -0.069274381 -0.28390601
-0.1536139 -0.055769213 -0.28390601
0.0019255783 -0.050618943 -0.28390601
0.065566048 -0.05288139 -0.28390601
-0.11326461 -0.049443573 -0.28390601
0.15639965 -0.048206754 -0.28390601
0.21636213 -0.041596606 -0.28390601
-0.21825743 -0.035883196 -0.28390601
0.11317138 -0.036105026 -0.28390601
-0.21478435 -0.025586955 -0.28390601
-0.058315158 -0.021744594 -0.28390601
0.15604781 -0.024144612 -0.28390601
-0.19880481 -0.011737388 -0.28390601
-0.18406248 -0.014846176 -0.28390601
-0.13566983 -0.018400069 -0.28390601
-0.034968354 -0.012742527 -0.28390601
0.028141949 -0.016399648 -0.28390601
-0.22934121 -0.0062242746 -0.28390601
-0.053807385 -0.0019156486 -0.28390601
0.15050302 -0.0052872747 -0.28390601
-0.22880943 0.00044187903 -0.28390601
0.0052369833 0.013611481 -0.28390601
0.18132086 0.011478059 -0.28390601
0.20365767 0.013643697 -0.28390601
-0.070442215 0.021232396 -0.28390601
0.039569933 0.028381199 -0.28390601
0.20136961 0.025675163 -0.28390601
-0.21960199 0.036466341 -0.28390601
0.1623137 0.039154977 -0.28390601
0.067896903 0.042117625 -0.28390601
0.074130923 0.049004819 -0.28390601
0.17214154 0.04758022 -0.28390601
-0.233667 0.050598025 -0.28302154
-0.22389755 0.052306071 -0.28390601
0.018718876 0.052106924 -0.28390601
0.038197175 0.053571127 -0.28390601
-0.17878732 0.065198071 -0.28390601
-0.083785862 0.075565338 -0.28390601
0.049341276 0.076624155 -0.28390601
0.20489755 0.078426853 -0.28390601
0.17780316 0.086724102 -0.28390601
0.048992716 0.091170572 -0.28390601
-0.057670269 0.1073905 -0.28390601
0.097482815 0.10464926 -0.28390601
0.21257778 0.10345988 -0.28390601
0.026058799 0.11132675 -0.28390601
0.1628352 0.11140475 -0.28390601
0.00075035915 0.12418648 -0.28390601
-0.19162259 0.14530005 -0.28390601
-0.233667 0.15251274 -0.28296715
-0.21135414 0.15750787 -0.28390601
0.085486248 0.15617883 -0.28390601
0.072891138 0.16645955 -0.28390601
-0.1068894 0.17755215 -0.28390601
0.074409127 0.17851886 -0.28390601
0.044188268 0.18844096 -0.28390601
-0.036458485 0.19157881 -0.28390601
0.226657 0.19624743 -0.28298271
-0.18335441 0.20406953 -0.28390598
-0.16993025 0.20278546 -0.28390601
0.059538335 0.20532781 -0.28390601
0.093583927 0.20544955 -0.28390601
-0.12882639 0.21582729 -0.28390601
0.0057199523 0.21502456 -0.28390601
0.13071299 0.21883629 -0.28390601
-0.092290848 0.22948879 -0.28390601
-0.013760812 0.22917901 -0.28390601
-0.19889717 0.23157337 -0.28390601
-0.15629134 0.23575494 -0.28390601
0.14643517 0.23215589 -0.28390598
0.19328783 0.23139381 -0.28390601
0.078559309 0.24198864 -0.28390601
0.21188098 0.24103446 -0.28390601
-0.066370465 0.25959852 -0.28390601
0.10365245 0.2583105 -0.28390601
0.21395901 0.25007424 -0.28390601
-0.094928071 0.2677815 -0.28390601
-0.086214483 0.26986519 -0.28390601
0.16057616 0.26323426 -0.28390601
-0.19759338 0.27434379 -0.28390601
0.072368614 0.27080399 -0.28390601
0.13571507 0.27179521 -0.28390601
-0.20890333 0.28262737 -0.28390601
-0.17933753 0.28155982 -0.28390601
0.081785828 0.28931364 -0.28390601
0.20561925 0.2864981 -0.28390601
-0.10758396 0.29181236 -0.28390601
-0.00016009808 0.29442099 -0.28167641
0.15325718 0.29442099 -0.2811026
-0.16394749 0.306104 -0.28087765
-0.033273965 0.30202186 -0.28390601
0.028991695 0.306104 -0.28149778
0.096451402 0.306104 -0.283281
0.20289862 0.30321568 -0.28104833
-0.16705824 -0.338817 -0.27030018
-0.019599043 -0.338817 -0.27939981
0.066207029 -0.338817 -0.2777383
0.226657 -0.11924145 -0.27944055
0.226657 -0.072127841 -0.27139375
0.226657 -0.0042560617 -0.27027145
-0.23366702 0.039474189 -0.27773714
-0.2303943 0.29442099 -0.27357179
-0.014426763 0.29442099 -0.27807194
-0.18310577 0.30021513 -0.27645239
-0.05042557 0.306104 -0.27310902
0.083207466 0.306104 -0.27427295
-0.21920544 -0.338817 -0.26107016
-0.11472967 -0.338817 -0.26235986
-0.023470722 -0.338817 -0.26735011
-0.011022218 -0.338817 -0.26370791
0.048730757 -0.338817 -0.26688585
0.1288857 -0.338817 -0.26726082
0.14548834 -0.338817 -0.26463041
0.226657 -0.2542547 -0.26544026
0.226657 -0.15626799 -0.26473674
-0.23366699 0.020794258 -0.26337722
0.22665702 0.16882497 -0.26929659
-0.1862908 0.29442096 -0.26570034
-0.11483859 0.29442099 -0.26624253
-0.084818214 0.29442099 -0.26825726
-0.048225876 0.29442099 -0.26551667
-0.12473956 0.306104 -0.2606943
0.014296643 0.306104 -0.2615144
0.10132648 -0.338817 -0.25806385
0.1390214 -0.33881703 -0.25214684
0.17715657 -0.338817 -0.25028929
-0.233667 -0.29654834 -0.25089607
-0.233667 -0.22779107 -0.25020522
0.226657 -0.17518897 -0.25045937
-0.23366702 -0.028601333 -0.25549367
0.226657 0.15659291 -0.25129285
-0.233667 0.20623694 -0.25547776
-0.233667 0.2271641 -0.25762326
-0.15362218 0.29442099 -0.25383615
0.011623241 0.29442099 -0.25089461
-0.13116521 0.306104 -0.25292841
0.0427683 0.306104 -0.25923923
0.022898696 -0.338817 -0.24418382
0.08662457 -0.338817 -0.24393514
-0.23366699 -0.22138868 -0.24449369
0.226657 -0.22485352 -0.24198774
-0.23366699 -0.12122986 -0.24187264
0.226657 -0.06007617 -0.24345723
0.226657 -0.025798945 -0.24747501
0.226657 -0.014843948 -0.24414116
-0.23366699 0.1242385 -0.24764805
-0.233667 0.16175273 -0.24655198
-0.233667 0.2689909 -0.24488647
0.069582358 0.29442099 -0.24974781
-0.016759042 0.306104 -0.24830635
0.11356765 0.306104 -0.24314518
0.17557153 0.306104 -0.24751498
-0.19990146 0.31312415 -0.24321584
-0.23016115 -0.338817 -0.23067364
-0.13379747 -0.338817 -0.23215339
0.065880239 -0.338817 -0.23593368
0.084885873 -0.338817 -0.23800248
-0.233667 -0.13796511 -0.23295538
-0.23366699 -0.087947652 -0.23462477
-0.23366699 0.045934945 -0.23494825
0.078301787 0.29442099 -0.23256397
0.081582233 0.29442099 -0.23059909
-0.15018073 0.306104 -0.23089476
0.073419586 0.306104 -0.23095836
-0.19839483 -0.338817 -0.22581932
0.226657 -0.17817949 -0.22771868
-0.233667 -0.16632476 -0.22392872
-0.23366702 0.066710263 -0.22692841
-0.21114111 0.29442099 -0.2201674
0.071758419 0.29442099 -0.22964028
-0.16537757 0.306104 -0.22909911
-0.17405878 -0.338817 -0.2115151
0.14190516 -0.338817 -0.21828108
0.18278824 -0.338817 -0.21014057
-0.23366702 -0.17350248 -0.21930557
-0.233667 -0.10073518 -0.21035175
-0.23366699 -0.077013895 -0.21673527
0.226657 0.11352201 -0.21676029
0.226657 0.25142461 -0.21432531
-0.024572629 0.29442099 -0.21073151
0.16585168 0.29442099 -0.21072435
-0.069625571 0.306104 -0.21851683
-0.026726499 0.306104 -0.21827663
0.1222291 0.306104 -0.21261942
-0.23366699 0.3249324 -0.21713737
-0.14604864 -0.338817 -0.20384622
-0.016114019 -0.338817 -0.20813368
-0.233667 -0.19624296 -0.20837809
-0.064259954 0.29442102 -0.2019559
0.016688133 0.29442099 -0.20933291
0.090172872 0.306104 -0.20672764
-0.1216649 -0.338817 -0.1938177
-0.11049943 -0.338817 -0.19764593
0.084363684 -0.338817 -0.19133976
-0.233667 -0.22493878 -0.19682561
-0.233667 -0.17625375 -0.19101751
0.226657 -0.17773092 -0.19463378
-0.233667 -0.017304525 -0.19790214
0.226657 0.028411731 -0.19699419
-0.23366699 0.096741267 -0.19178444
0.226657 0.19297588 -0.19087574
-0.05855231 0.29442099 -0.19571857
-0.0094599873 0.306104 -0.19003375
0.18091474 -0.338817 -0.18317856
-0.233667 -0.093470201 -0.18327965
0.226657 -0.0042469352 -0.18985881
0.233667 0.023208912 -0.1851683
0.233667 0.040957406 -0.18420815
0.226657 0.14652704 -0.18163554
-0.23366702 0.15665403 -0.18380491
-0.18927275 0.29442099 -0.18383361
-0.14213251 0.29442099 -0.18899696
-0.10169978 0.306104 -0.18958105
0.022640001 -0.338817 -0.1733118
0.11241969 -0.338817 -0.1730375
0.14212829 -0.338817 -0.17649123
0.21867076 -0.338817 -0.17988738
0.226657 -0.20702597 -0.17493686
-0.233667 0.1354488 -0.17400835
0.226657 0.28289077 -0.17672077
-0.233667 0.29400536 -0.17620873
-0.12489897 0.29442099 -0.17429872
-0.14941972 0.306104 -0.17092174
-0.089796275 0.306104 -0.17691097
0.0083529428 0.306104 -0.17978647
0.20984116 0.30064574 -0.17842126
-0.16981244 -0.338817 -0.16665004
0.226657 -0.15987933 -0.16143692
0.226657 -0.11319913 -0.16032432
-0.233667 -0.039567612 -0.16296917
-0.233667 -0.0076150447 -0.16051987
-0.233667 0.040665269 -0.16720086
0.226657 0.094223276 -0.16418804
-0.18024997 0.29442099 -0.16860667
-0.00028287619 0.29442099 -0.16857828
0.10911836 0.29442099 -0.16450587
0.06730102 -0.338817 -0.15382867
0.226657 -0.30413345 -0.15427503
-0.233667 -0.24842829 -0.15836607
-0.23366702 -0.23814727 -0.15725198
0.226657 -0.14925206 -0.15384668
-0.23366699 0.042057067 -0.1584042
-0.233667 0.21909589 -0.15918979
0.226657 0.21921486 -0.15144078
0.19683909 0.29442099 -0.15318374
-0.11525618 0.306104 -0.15425536
-0.15964672 -0.33881697 -0.1463175
-0.052115396 -0.338817 -0.14235714
-0.23366699 -0.2369338 -0.14033526
0.23133001 -0.052682109 -0.1461383
-0.233667 0.16777918 -0.14613794
-0.233667 0.23989637 -0.14057249
-0.21227351 0.29442099 -0.14249347
0.098876484 0.29442099 -0.14679703
-0.16905749 0.306104 -0.14869544
-0.0083801076 0.306104 -0.14536601
0.089704879 -0.338817 -0.13301188
0.226657 -0.30891046 -0.13050598
-0.233667 -0.25009388 -0.13632949
0.226657 -0.16911349 -0.13531712
-0.23366699 -0.13623783 -0.1386427
0.226657 -0.093698494 -0.13353638
0.23133001 0.017055739 -0.13059059
-0.233667 0.069342963 -0.13199899
0.23133001 0.066498823 -0.13449295
-0.233667 0.20947917 -0.13705352
-0.17985854 0.29442096 -0.13352042
-0.14954516 0.29442096 -0.13093935
-0.026099972 0.29442099 -0.13522567
0.01724642 0.29442099 -0.1379679
-0.18522394 0.30195543 -0.13941841
-0.016135404 0.306104 -0.13227172
-0.17123064 -0.338817 -0.12188455
-0.14763391 -0.338817 -0.12368604
0.048468404 -0.338817 -0.12194845
-0.233667 -0.20380743 -0.12268826
0.226657 -0.11530097 -0.12865622
-0.23366699 -0.049502611 -0.12399952
-0.233667 0.095454425 -0.12573478
0.23133001 0.12102501 -0.12314665
-0.233667 0.2497858 -0.12917307
-0.18654945 0.29442099 -0.12150793
0.17606698 0.29442099 -0.12933381
-0.13619408 0.306104 -0.12499051
-0.059531346 0.306104 -0.12905779
-0.021675061 0.306104 -0.12083309
0.19085275 0.306104 -0.12958394
0.099079937 -0.338817 -0.11410269
0.226657 -0.32062751 -0.11023801
-0.233667 -0.12994906 -0.11874893
-0.233667 0.031791896 -0.11129715
0.23133001 0.12780063 -0.11433738
-0.23366702 0.22031191 -0.11268046
0.226657 0.24387906 -0.11713215
-0.013880027 0.29442099 -0.11212777
-0.12105361 0.306104 -0.11108354
-0.16731785 -0.338817 -0.10573557
-0.050182246 -0.338817 -0.10342839
0.10795962 -0.338817 -0.108062
-0.23366699 -0.29489279 -0.10138708
-0.233667 -0.25199971 -0.10595879
0.226657 -0.25932792 -0.10739405
0.226657 -0.17283158 -0.10212542
-0.23366702 -0.07484071 -0.10771438
0.23133001 -0.05007806 -0.10427297
0.23133001 0.11264759 -0.10368557
-0.17244571 0.29442099 -0.10151143
-0.23366699 -0.33721083 -0.09833841
0.076405272 -0.338817 -0.0926736
0.226657 -0.24868377 -0.095580637
0.226657 -0.1825258 -0.091312028
-0.233667 -0.16896321 -0.090959109
0.23133001 0.086239316 -0.094765574
-0.23366699 0.10769096 -0.098466255
0.23133001 0.12157844 -0.094838321
-0.23366699 0.23179328 -0.097618587
-0.021624895 0.29442099 -0.096489511
0.16678429 0.29442099 -0.096527264
-0.11296699 0.306104 -0.091980368
0.17449713 0.306104 -0.095402144
-0.233667 0.31563967 -0.092210993
-0.19606633 0.31020588 -0.098459929
0.23133001 -0.10195505 -0.084779635
-0.233667 -0.072544284 -0.083970249
-0.23366702 0.041493319 -0.080131918
0.23133001 0.059627835 -0.088930763
0.23133001 0.072809897 -0.083403885
0.027794082 0.29442099 -0.084803492
-0.13894644 0.306104 -0.086132668
0.20943618 0.30079564 -0.082421929
0.098196387 -0.338817 -0.070979297
-0.233667 -0.23886493 -0.079823956
-0.23366702 -0.014409903 -0.072653472
-0.233667 0.07138785 -0.076202683
-0.23366702 0.22814703 -0.076908976
-0.233667 0.29430503 -0.076680787
-0.17749107 0.29442099 -0.077320971
-0.13341379 0.29442099 -0.072566956
0.1216451 0.29442099 -0.070221364
-0.23366699 -0.33714268 -0.065992415
0.094129011 -0.338817 -0.06513384
0.11201398 -0.338817 -0.06856972
0.226657 -0.26488692 -0.060415447
-0.233667 -0.25415489 -0.066061288
0.226657 -0.20327245 -0.068402067
-0.23366699 0.049055174 -0.06404902
0.084072948 0.29442099 -0.064032055
0.12986696 -0.338817 -0.05133003
0.226657 -0.24481934 -0.055102222
-0.23366702 -0.14213714 -0.059391923
0.23133001 0.016467186 -0.05147003
-0.233667 0.14551339 -0.058013972
-0.083464071 0.29442099 -0.054417372
0.078256145 0.29442099 -0.052812353
-0.0074218959 0.306104 -0.054560415
0.1638483 0.306104 -0.053558588
-0.21297607 0.3230733 -0.051132157
-0.16848885 -0.338817 -0.042233884
-0.077147938 -0.338817 -0.047377743
0.006890364 -0.338817 -0.04148528
0.226657 -0.17565614 -0.049429908
-0.233667 -0.05811131 -0.049892962
-0.23366699 -0.024050677 -0.046388227
-0.23366702 0.11899656 -0.04956409
-0.233667 0.22998942 -0.042413339
0.226657 0.22007081 -0.041016258
-0.15636884 0.29442099 -0.041404277
-0.099241674 0.29442099 -0.044144485
0.1235595 0.29442099 -0.0405076
0.20097983 0.29442099 -0.04136432
-0.11107427 0.306104 -0.041759267
0.12138502 0.306104 -0.048748042
0.14803299 0.30208087 -0.04904601
-0.23184285 -0.338817 -0.038136251
0.17136447 -0.338817 -0.035686545
-0.23366699 -0.050010607 -0.03982044
-0.23366699 -0.040326603 -0.039455511
0.23133001 -0.040064223 -0.038189467
-0.23366702 0.043693304 -0.031313896
0.23133001 0.063534737 -0.035635963
-0.23366699 0.10593051 -0.036194369
-0.23366699 0.2284815 -0.03966935
-0.23366699 0.27890855 -0.032357097
-0.040767349 0.306104 -0.033120062
0.13413009 0.306104 -0.031612877
-0.08816044 -0.338817 -0.020270597
0.032759503 -0.338817 -0.020015227
0.23133001 -0.10696307 -0.026555637
-0.12154115 0.29442096 -0.027498607
0.10257906 0.29442099 -0.023101486
0.21468462 0.29442099 -0.028522125
-0.16420153 0.306104 -0.023285575
-0.046077337 0.306104 -0.021296259
-0.12352007 -0.338817 -0.012817681
-0.233667 -0.3250728 -0.012824305
-0.23366699 -0.24884515 -0.013879083
0.23133001 0.099074118 -0.012210106
-0.23366699 0.1319968 -0.012487438
0.226657 0.22957104 -0.012534138
-0.23366702 0.29878584 -0.010237455
-0.12667026 0.29442099 -0.0174178
0.2016184 0.29442099 -0.011118934
-0.0052482337 0.306104 -0.015939122
0.079317726 0.306104 -0.010882262
-0.066024169 -0.338817 -0.0062905252
0.23133001 -0.14270289 -0.0057080267
0.23133001 -0.04641597 -0.0070369057
-0.20922713 0.29442099 -0.0022632377
-0.10679097 0.29442099 -0.0056731142
0.13938195 0.306104 -0.0093924925
0.12443729 -0.338817 0.0092514902
-0.23366699 -0.20842931 0.0016970076
-0.23366699 -0.15935901 0.00070081651
0.23133001 -0.068958327 0.0050652251
-0.233667 -0.048172593 0.0064431345
-0.23366699 0.15692565 0.0056957267
0.226657 0.24427064 0.0011441335
0.226657 0.2623117 0.002588585
-0.23256756 0.29442099 0.0030133426
-0.13947001 0.29442099 0.0057005174
-0.071087405 0.29442099 0.0059879208
-0.029992644 0.29442099 0.007116213
-0.175322 0.30247602 0.0034885462
0.17129001 0.306104 0.0097584613
-0.233667 -0.18187115 0.017032042
0.23133001 0.010912298 0.014161363
-0.233667 0.28540641 0.01071918
-0.2001624 0.29442096 0.011322496
-0.14254823 0.29442099 0.012135077
-0.066353619 0.29442099 0.014726983
0.0032814406 0.29442099 0.011354399
0.12940779 0.29442099 0.011768078
0.2231078 0.29573482 0.018151581
-0.088200703 0.306104 0.016947601
-0.21769965 0.32666773 0.011560012
0.13166505 -0.338817 0.025890633
0.17368419 -0.338817 0.020381838
0.18812111 -0.338817 0.021992266
0.226657 -0.19042942 0.02546569
0.23133001 -0.14633365 0.025513882
-0.23366699 -0.10885696 0.023390859
0.226657 0.26549494 0.026057005
0.226657 0.28590924 0.022166483
-0.175322 0.30587429 0.026282806
-0.028340213 0.306104 0.025498569
0.19180676 0.306104 0.0230463
0.226657 -0.20654008 0.036011547
0.226657 -0.18556586 0.035204563
0.23133001 -0.1098781 0.030256474
0.23133001 0.14942746 0.03417556
0.23133001 0.17161343 0.03514519
-0.23366702 0.19358027 0.034918547
-0.23366702 0.28750241 0.037241094
0.226657 0.28658292 0.035745014
-0.15713833 0.29442099 0.03342599
-0.13978232 0.29442099 0.034029983
-0.11476845 0.306104 0.030055042
0.15253079 0.306104 0.039769888
0.20124733 0.30382696 0.03821633
-0.23366702 0.31302667 0.033840083
-0.22323404 0.330879 0.039317984
-0.22103909 -0.338817 0.04202912
0.010492973 -0.338817 0.04562176
0.19098261 -0.338817 0.042050749
0.21424061 -0.338817 0.044992618
-0.23366702 -0.32397547 0.045608766
0.226657 -0.25087279 0.044316731
-0.233667 -0.20000237 0.042869832
0.23133001 -0.1435284 0.042552512
-0.233667 0.026456263 0.041030824
-0.233667 0.11566294 0.041413881
-0.23366699 0.16406977 0.049749255
-0.233667 0.18868466 0.041629933
-0.21125832 0.29442099 0.047994085
-0.19972914 0.29442099 0.041210555
-0.17579341 0.29688162 0.045363236
-0.16096799 0.29442099 0.046303079
0.22288194 0.29442099 0.040273517
0.14205657 -0.338817 0.058627225
0.226657 -0.26771742 0.059520248
-0.233667 -0.10443274 0.059548844
0.23133001 -0.023047408 0.051887929
-0.233667 0.073226295 0.055538803
-0.233667 0.23551938 0.054655723
-0.13171236 0.29442099 0.055149056
0.024118409 0.29442099 0.052685566
0.1000833 0.29442099 0.055873774
0.15677747 0.29442099 0.052317418
0.18435764 0.29442099 0.058360402
-0.084841095 0.306104 0.050654598
-0.0033250675 0.306104 0.05674661
0.032506164 0.306104 0.05100888
-0.17024644 -0.338817 0.068669401
0.014955109 -0.338817 0.063730374
-0.23366702 0.014242886 0.066116363
-0.233667 0.070896938 0.061016656
-0.23366702 0.24568248 0.066406451
-0.23366699 0.26531661 0.060836688
-0.054505758 0.29442096 0.060933709
-0.11801278 0.306104 0.062682085
-0.0060153008 0.306104 0.061451323
-0.23366699 -0.31988549 0.077375941
0.226657 -0.16650847 0.078878462
0.23133001 -0.11561221 0.078986369
0.226657 0.27985692 0.071467511
0.049908962 -0.338817 0.086194344
0.17883791 -0.338817 0.081981301
-0.23366699 -0.28450048 0.080126688
-0.233667 -0.219219 0.089431837
-0.233667 -0.082460098 0.082145557
0.23133001 -0.029675676 0.082862601
0.23133001 0.047147661 0.085982993
-0.23366699 0.14205216 0.085868016
0.23133001 0.17988114 0.081739865
-0.19426446 0.29442099 0.083488598
-0.096564613 0.29442099 0.081633896
0.1084848 0.29442099 0.084683016
0.1158347 0.29442099 0.089359432
0.14638451 0.29442099 0.085822061
-0.18951395 -0.338817 0.099393815
0.14195909 -0.338817 0.09238451
0.226657 -0.33636254 0.099822737
-0.23366699 -0.30334806 0.092717715
0.226657 -0.25700903 0.098122522
-0.233667 0.11659156 0.096958622
0.23133001 0.11623068 0.097255155
0.23133001 0.1422727 0.0920633
0.226657 0.18281913 0.099532619
0.22665702 0.19939104 0.090939745
-0.16329107 0.29442099 0.092811942
-0.072860263 0.29442099 0.096648872
0.015607489 0.29442099 0.096019231
-0.20943481 -0.338817 0.10841741
-0.23366702 -0.27442846 0.10559419
-0.23366699 -0.2350437 0.10218649
-0.233667 -0.18305157 0.10626335
0.23133001 -0.082777984 0.10226422
-0.21463034 0.29442099 0.10288043
-0.19320613 0.29442099 0.10560162
-0.1682846 0.29442099 0.10004857
0.027933091 0.29442099 0.10926905
-0.054072808 0.306104 0.10191733
-0.12323287 -0.338817 0.11978447
-0.11498782 -0.338817 0.11391722
0.138208 -0.338817 0.1122425
-0.233667 -0.16469447 0.11788341
-0.233667 0.24339595 0.11131843
0.226657 0.27521056 0.11349956
0.16333133 0.29442099 0.11968005
-0.20981887 -0.338817 0.12523222
0.036753789 -0.338817 0.12997833
0.10390519 -0.338817 0.12766573
0.226657 -0.30574644 0.12548794
-0.233667 -0.17214946 0.12099891
-0.23366699 -0.044956431 0.12600091
-0.23366699 -0.010249551 0.12899595
0.226657 0.20927781 0.12113088
-0.233667 0.21898165 0.12258586
0.031794682 0.29442099 0.12530266
-0.1017994 0.306104 0.12223122
0.19509602 0.30173263 0.12999259
0.038525756 -0.338817 0.13018376
0.11358942 -0.338817 0.13020536
0.165521 -0.338817 0.1334215
0.17153154 -0.338817 0.13048299
0.23133001 0.058872942 0.13875245
0.226657 0.2163486 0.13432716
0.226657 0.25027037 0.13452281
-0.233667 0.29404885 0.13630685
-0.14592436 0.29442099 0.13124438
-0.053761765 0.29442099 0.13955268
0.16756116 0.29442099 0.13299015
-0.14001478 0.306104 0.13888545
-0.088707492 0.306104 0.13533552
-0.02591753 0.306104 0.13287222
-0.018735029 0.306104 0.13498966
-0.233667 -0.33707538 0.14465901
-0.11696196 -0.338817 0.14159214
-0.02986588 -0.338817 0.14524421
-0.233667 -0.21526822 0.14672787
0.23133001 -0.073499165 0.14293396
-0.2020711 0.29442099 0.14865819
0.036105052 0.29442099 0.14730799
0.11176077 0.306104 0.1496262
0.16967131 0.306104 0.14320202
-0.23366702 -0.33841106 0.15650381
-0.18995494 -0.338817 0.15233214
0.16573337 -0.338817 0.15077929
-0.23366699 -0.16826883 0.15190342
0.23133001 0.017300129 0.15938197
0.23133001 0.060829911 0.15723178
0.226657 0.19886035 0.15399581
0.226657 0.2444452 0.15999433
-0.10416643 0.306104 0.15116039
0.011097401 0.306104 0.15352619
0.20423549 0.30272081 0.15408328
-0.026425883 -0.338817 0.16652051
-0.23366699 -0.29049963 0.1641807
0.226657 -0.20135765 0.1635107
0.22680075 -0.082204051 0.16007936
-0.23366699 -0.05050014 0.1619027
0.23133001 0.004061874 0.16728462
-0.23366699 0.16646221 0.16967213
-0.18142846 0.2990675 0.16718099
-0.17885885 0.29442099 0.16319162
0.16284977 0.29442099 0.16089709
-0.233667 0.30688193 0.16443276
-0.14733568 0.306104 0.16627862
-0.10803818 0.306104 0.1622792
-0.042197142 0.306104 0.16317198
0.15253906 0.306104 0.16161785
0.063206762 -0.338817 0.17683303
0.115786 -0.338817 0.1740714
0.12224998 -0.338817 0.17081425
-0.233667 -0.19617285 0.17269447
-0.233667 -0.13392206 0.17751178
-0.233667 0.11456542 0.17167595
0.226657 0.1855223 0.17042056
0.226657 0.2601555 0.17698398
-0.2032519 0.29442099 0.17871638
0.045258246 0.29442099 0.17660777
-0.19037576 0.30587536 0.17194328
0.07727012 0.306104 0.17151675
0.12527549 0.306104 0.17905395
-0.024611201 -0.338817 0.1851801
0.036555357 -0.338817 0.18582407
0.10255715 -0.338817 0.18204726
0.1309706 -0.338817 0.1810739
0.16583762 -0.338817 0.18195057
0.226657 -0.25871798 0.18495753
-0.23366699 -0.073669896 0.18954565
-0.23366702 -0.04914932 0.18526408
-0.233667 0.062475204 0.18629828
0.226657 0.087514959 0.18516159
-0.23366699 0.19254933 0.18110175
-0.2085872 0.29442096 0.18017787
-0.078997843 0.29442099 0.18205824
0.019119307 0.29442099 0.18938263
0.17407437 0.29442099 0.18423595
0.19204059 0.29442102 0.18828009
0.033233363 0.306104 0.18605699
0.20022815 0.3042042 0.18013415
-0.21767823 0.32665086 0.18633631
0.019180313 -0.338817 0.19227409
0.226657 -0.27459884 0.19604748
-0.233667 -0.23115055 0.19442576
-0.233667 -0.21971393 0.19764681
-0.233667 -0.075741872 0.19197226
-0.233667 0.15336151 0.19353899
0.226657 0.17146121 0.19686335
-0.233667 0.21614508 0.19758096
0.21624693 0.29827452 0.19512366
-0.053332437 0.306104 0.19734988
0.097605303 0.306104 0.19207227
-0.20066574 0.31370556 0.19843026
-0.22996216 0.33599785 0.19939743
0.14886987 -0.338817 0.20559752
0.22039512 -0.338817 0.20758606
0.226657 -0.070743486 0.20577301
-0.23366699 0.012150258 0.20645544
-0.23366699 0.10931478 0.20954174
0.226657 0.14729026 0.20366004
0.226657 0.16373269 0.20827112
0.226657 0.17431915 0.20019385
-0.23366699 0.18885177 0.20404121
-0.233667 0.24587089 0.20685273
0.226657 0.2767638 0.20450228
-0.16109949 0.29442099 0.20262749
0.019388944 0.29442099 0.20262671
0.043236941 0.29442099 0.2019289
0.15544438 0.29442099 0.20966446
-0.15608639 0.306104 0.20635214
-0.06827189 0.306104 0.20698893
-0.038763657 0.306104 0.20803484
0.098449372 0.306104 0.20276517
0.19953713 0.30446002 0.20344368
0.0071028993 -0.338817 0.21498482
0.226657 -0.28915575 0.21812424
0.226657 -0.17913352 0.21399377
-0.23366699 -0.0073265284 0.2109177
0.226657 0.10834759 0.21899837
-0.233667 0.17075174 0.21852238
0.226657 0.28318927 0.21815643
-0.10742337 0.306104 0.21087877
0.10400844 0.306104 0.21538399
0.13350196 0.306104 0.21729811
0.11032675 -0.338817 0.22704701
-0.233667 -0.28247103 0.22494394
0.226657 -0.25335258 0.22500244
0.226657 -0.10479979 0.22531767
-0.233667 -0.060346782 0.22876431
0.226657 0.018295409 0.22314326
-0.233667 0.047607198 0.2299488
0.22665699 0.23647448 0.22759427
-0.233667 0.28064042 0.22418222
-0.0073626116 0.29442099 0.22201768
0.059653886 0.29442099 0.22593592
-0.076830141 0.306104 0.22921601
0.0085791051 0.306104 0.22287379
0.16213059 0.306104 0.22244406
-0.233667 -0.25072706 0.23223852
-0.23366702 -0.24603349 0.23351897
0.226657 0.013818525 0.23847283
-0.18220761 0.29966027 0.23071834
-0.14582798 0.29442099 0.23558991
0.12914039 0.306104 0.2330301
-0.20691174 0.3184588 0.23453024
-0.22292995 0.33358344 0.23849392
-0.081147522 -0.338817 0.24530342
0.026501548 -0.338817 0.24767399
0.047753386 -0.338817 0.24824059
0.095940769 -0.338817 0.24152929
0.15260206 -0.338817 0.24433053
0.226657 -0.31516528 0.24554752
-0.233667 -0.17662668 0.24765936
-0.23366699 -0.10146561 0.24988602
-0.23366699 0.012975186 0.24929491
-0.233667 0.073745891 0.24382794
-0.233667 0.094474785 0.24568263
-0.18561457 0.29442099 0.24337618
-0.14037322 0.29442099 0.24561039
-0.12402023 0.29442099 0.24503803
0.049073711 0.29442099 0.24701434
-0.1865629 0.30591092 0.24316643
-0.023194008 0.306104 0.24595338
0.20706506 0.30167341 0.24805722
-0.19717048 0.31104571 0.24659652
-0.16146737 -0.338817 0.25852704
-0.12947187 -0.338817 0.25811639
-0.074103862 -0.338817 0.25897798
0.20553762 -0.338817 0.25869614
0.226657 -0.0030612871 0.25186005
-0.233667 0.14161824 0.25868815
-0.233667 0.27008507 0.25997517
-0.10549273 0.29442099 0.25353298
0.19184333 0.29442099 0.25604591
-0.14765519 0.306104 0.2578899
-0.042564504 0.306104 0.25064501
-0.2199779 0.33066508 0.25495043
-0.20213795 -0.338817 0.26319906
0.089403659 -0.338817 0.2630989
0.226657 -0.11642775 0.26299751
0.226657 -0.096819192 0.26241079
0.226657 0.0020167828 0.26539224
0.226657 0.070646018 0.26341859
-0.233667 0.088730708 0.26783964
0.226657 0.086980537 0.26495913
-0.23366702 0.19309451 0.26474631
0.226657 0.23900127 0.26649362
-0.15081602 0.29442099 0.26686847
0.049062006 0.29442099 0.26217085
0.088866159 0.29442099 0.26324269
0.226657 0.29028478 0.26359099
-0.23366699 0.30787274 0.26576895
0.053553097 -0.338817 0.27391183
0.17928389 -0.338817 0.27278495
0.226657 -0.20043389 0.27755108
0.226657 -0.1158122 0.27033135
0.226657 -0.076641507 0.27060664
0.226657 0.031776607 0.27522498
0.226657 0.070715822 0.27813524
0.226657 0.11450715 0.27475053
-0.10495179 0.29442096 0.27206257
-0.040616095 0.29442099 0.27711582
0.20791668 0.29442099 0.27308539
0.1015085 0.306104 0.27398571
-0.20046264 0.31355086 0.27230403
-0.062513985 -0.33609772 0.28390601
0.15706274 -0.33611333 0.28390601
0.018181041 -0.32556754 0.28390601
-0.14182584 -0.31380314 0.28390601
-0.11825805 -0.31926912 0.28390601
-0.15733913 -0.30765671 0.28390601
-0.075014226 -0.28998679 0.28390601
-0.16892576 -0.27798563 0.28390604
0.030086875 -0.27882934 0.28390601
-0.012570061 -0.26208845 0.28390601
0.0414747 -0.2600804 0.28390601
-0.10764243 -0.25796571 0.28390601
0.10347793 -0.25009254 0.28390601
-0.11656506 -0.2498908 0.28390601
0.16251971 -0.24354596 0.28390601
-0.23053762 -0.23970354 0.28390601
-0.070139788 -0.23316054 0.28390601
0.0019986257 -0.23742077 0.28390601
-0.17154774 -0.22231311 0.28390601
-0.19967745 -0.21552531 0.28390601
-0.16607109 -0.21872464 0.28390601
0.1148501 -0.21700014 0.28390601
0.19798243 -0.2139757 0.28390601
-0.20706792 -0.20917973 0.28390601
-0.14513656 -0.20592806 0.28390601
-0.095606729 -0.19179764 0.28390601
-0.021147393 -0.19125955 0.28390601
-0.19463013 -0.18029667 0.28390601
-0.088538885 -0.1725201 0.28390601
0.1375546 -0.17811269 0.28390601
-0.011241838 -0.16956314 0.28390601
0.088235207 -0.16354862 0.28390601
-0.22351784 -0.15712376 0.28390601
-0.20952463 -0.1542384 0.28390601
-0.15019827 -0.15390368 0.28390601
0.18523239 -0.15709352 0.28390601
-0.21213974 -0.14514932 0.28390601
-0.021382146 -0.14660443 0.28390601
-0.22156718 -0.13602698 0.28390601
0.20367582 -0.12327211 0.28390601
-0.054140948 -0.10265228 0.28390601
0.13295682 -0.10454944 0.28390601
0.226657 -0.10692155 0.28285438
-0.014163928 -0.096820444 0.28390601
0.22617406 -0.093356743 0.28390601
-0.19495998 -0.08167243 0.28390601
-0.18676127 -0.085488789 0.28390601
-0.059828535 -0.087249272 0.28390601
0.01142025 -0.088893965 0.28390604
0.033551812 -0.087017663 0.28390601
0.17535192 -0.08572562 0.28390601
-0.18420234 -0.076437153 0.28390601
-0.0075572878 -0.071076274 0.28390601
0.0032095462 -0.064876467 0.28390601
0.17622572 -0.062014922 0.28390601
-0.18791458 -0.056125708 0.28390601
-0.13591033 -0.053542223 0.28390601
-0.021095201 -0.056775786 0.28390601
0.1365559 -0.05888008 0.28390601
-0.13081872 -0.046087507 0.28390601
-0.18608385 -0.037248582 0.28390601
-0.082455881 -0.033237286 0.28390601
0.085743353 -0.033314537 0.28390601
0.15866597 -0.034795471 0.28390601
0.13652083 -0.022810161 0.28390601
0.15829328 -0.029735591 0.28390601
0.18606144 -0.027835913 0.28390601
0.014272459 -0.014348585 0.28390601
-0.10967171 -0.0091375113 0.28390601
0.026982263 -0.0065133274 0.28390601
0.226657 -0.0056153983 0.28070787
-0.21622753 0.0038511902 0.28390601
-0.15174687 0.015625373 0.28390601
-0.013909851 0.019336855 0.28390601
-0.0047166124 0.010865271 0.28390604
-0.043159984 0.02855818 0.28390601
0.069346227 0.033777699 0.28390601
0.12797524 0.037514821 0.28390601
-0.21064767 0.041277871 0.28390601
0.11762474 0.042011082 0.28390601
0.075141102 0.055105958 0.28390601
0.19021343 0.062798619 0.28390601
-0.037396807 0.071698532 0.28390601
-0.22822639 0.089822724 0.28390601
-0.0034634043 0.084420323 0.28390601
0.1419535 0.10582547 0.28390601
0.031921633 0.11209746 0.28390601
0.12090605 0.11099066 0.28390601
0.13338572 0.11862192 0.28390601
-0.036386631 0.12204149 0.28390601
-0.024214901 0.12502934 0.28390601
0.020341285 0.12057342 0.28390601
0.051297281 0.12817493 0.28390601
0.097671688 0.12831953 0.28390601
-0.032908782 0.13811679 0.28390601
-0.18662187 0.14351714 0.28390601
-0.12823199 0.14264899 0.28390601
-0.10889982 0.14699645 0.28390601
0.063397512 0.14949258 0.28390601
0.18858795 0.15075938 0.28390598
-0.14785624 0.16361932 0.28390601
-0.089998834 0.16887505 0.28390601
-0.044423502 0.16830951 0.28390601
-0.18157239 0.17062826 0.28390601
-0.11730307 0.17120922 0.28390598
-0.075347051 0.17820621 0.28390601
0.11680327 0.18524419 0.28390601
0.15333468 0.18074195 0.28390601
-0.068726823 0.19575225 0.28390601
-0.22553158 0.20078491 0.28390601
-0.062217273 0.20995477 0.28390601
0.15294087 0.20056997 0.28390601
0.18518034 0.2049123 0.28390601
0.16765161 0.21402289 0.28390601
-0.068346784 0.22948655 0.28390601
0.066928536 0.22596972 0.28390601
-0.12502354 0.23886542 0.28390601
-0.059744615 0.23511918 0.28390601
-0.037924483 0.23260808 0.28390601
-0.077344567 0.24102473 0.28390604
-0.18991955 0.25205106 0.28390601
0.002793096 0.25123191 0.28390601
0.22500184 0.25234985 0.28390598
-0.11247633 0.27263737 0.28390601
-0.01968962 0.2754001 0.28390601
0.18776307 0.27379733 0.28390601
0.22599885 0.27097455 0.28390601
-0.15284023 0.28244522 0.28390601
-0.10947211 0.28788176 0.28390601
-0.15676245 0.29014748 0.28390601
-0.13423252 0.29442099 0.28021005
0.016657673 0.29442102 0.28027129
0.19818157 0.29445124 0.28390601
0.11580312 0.306104 0.28330934
-0.23280081 0.33815792 0.28034049
