# .PCD v0.7 - Point Cloud Data file format
VERSION 0.7
FIELDS x y z
SIZE 4 4 4
TYPE F F F
COUNT 1 1 1
WIDTH 977
HEIGHT 1
VIEWPOINT 0 0 0 1 0 0 0
POINTS 977
DATA ascii
0.043148868 -0.21010128 -0.41185802
0.0081400946 -0.20489678 -0.41185802
-0.18242271 -0.19122373 -0.41185799
0.041829072 -0.19992733 -0.41185799
0.047331646 -0.17639087 -0.41185796
0.087760925 -0.17807887 -0.41185799
-0.10816918 -0.16278724 -0.41185799
-0.09403225 -0.15252122 -0.41185796
0.098027483 -0.15031019 -0.41185799
0.17087156 -0.15279619 -0.41185799
-0.1243417 -0.14940877 -0.41185799
-0.15458372 -0.11357161 -0.41185796
-0.10350621 -0.11665694 -0.41185802
-0.010054126 -0.11516254 -0.41185799
0.0028051212 -0.11315458 -0.41185799
0.070174679 -0.11932533 -0.41185796
0.11816266 -0.11522121 -0.41185796
0.095135458 -0.09640009 -0.41185802
0.1563016 -0.09425015 -0.41185799
0.189768 -0.097634465 -0.41144794
-0.14829969 -0.082617477 -0.41185799
-0.077104874 -0.081428908 -0.41185802
0.036631808 -0.082616247 -0.41185799
-0.022580707 -0.077882595 -0.41185799
0.1258599 -0.073026106 -0.41185799
-0.14968404 -0.067191735 -0.41185796
0.01954909 -0.068715371 -0.41185799
-0.18420452 -0.053916786 -0.41185796
-0.050459266 -0.040445585 -0.41185799
0.10761635 -0.036454663 -0.41185802
0.18209484 -0.036686484 -0.41185799
0.045656748 -0.020482047 -0.41185799
0.17708582 -0.029933821 -0.41185799
-0.14787182 -0.010830097 -0.41185799
-0.030346474 -0.0047708182 -0.41185796
-0.16342968 0.0042061135 -0.41185799
-0.18905945 0.01700452 -0.41185796
-0.12436749 0.013182215 -0.41185799
0.14507565 0.012942984 -0.41185802
-0.1782507 0.029714696 -0.41185799
-0.063318357 0.029802024 -0.41185799
0.10273471 0.021607799 -0.41185799
-0.17491639 0.03431543 -0.41185799
0.14938428 0.055448432 -0.41185799
0.0022082888 0.064214714 -0.41185802
0.012060337 0.063518107 -0.41185802
0.12471665 0.063906059 -0.41185799
0.13057345 0.064175904 -0.41185802
0.11351373 0.079814136 -0.41185799
0.098443717 0.083565213 -0.41185799
-0.11420637 0.090328291 -0.41185799
-0.039066434 0.094854444 -0.41185796
-0.17745803 0.10736571 -0.41185799
-0.1381308 0.10825467 -0.41185799
-0.08597102 0.10010739 -0.41185799
-0.061078288 0.10633103 -0.41185799
0.075401992 0.10280988 -0.41185796
0.054970633 0.11046854 -0.41185796
-0.16320653 0.12650041 -0.41185799
-0.013983786 0.12282387 -0.41185802
-0.15270594 0.14353186 -0.41185799
-0.15611222 0.15021029 -0.41185799
-0.15257579 0.1939512 -0.41185802
-0.16665599 -0.210621 -0.40436211
-0.0656524 -0.210621 -0.40216646
0.032080129 -0.210621 -0.40313339
0.189768 -0.19805615 -0.40696558
-0.189768 -0.17845361 -0.40535188
-0.189768 -0.088172451 -0.40602988
-0.189768 -0.032249734 -0.40867046
-0.189768 -0.011182749 -0.40931964
0.189768 0.036278754 -0.40054569
-0.12763971 0.15187833 -0.40562895
-0.13752981 0.18762988 -0.40440142
-0.12287777 -0.210621 -0.39840665
0.13665156 -0.210621 -0.39453259
0.14480518 -0.210621 -0.39865264
-0.189768 -0.19165419 -0.39938349
0.189768 0.02092988 -0.39467189
-0.189768 0.085762821 -0.39110291
0.0043066954 0.123036 -0.39029065
0.13814044 0.123036 -0.39874083
-0.12396183 0.1385836 -0.39329058
-0.12611508 -0.210621 -0.38983941
0.189768 -0.10043041 -0.38054922
0.18976802 0.085303143 -0.38196123
-0.082007095 0.123036 -0.38273016
-0.060798742 0.123036 -0.38237834
0.044193398 0.123036 -0.38760212
-0.15119146 0.210621 -0.3856599
-0.16966271 -0.210621 -0.37806249
0.189768 -0.19795041 -0.37868685
0.189768 -0.12177014 -0.37057719
-0.189768 -0.070000283 -0.37013921
-0.189768 0.10919895 -0.37092662
-0.10585481 0.123036 -0.37958738
-0.03969866 0.123036 -0.37692904
0.1460644 0.123036 -0.37884897
-0.189768 0.19089586 -0.37260798
-0.13192087 -0.210621 -0.36869723
-0.030689061 -0.210621 -0.36562568
-0.18976802 0.008653935 -0.36338127
-0.10697748 -0.210621 -0.35277578
0.11209247 -0.210621 -0.35661414
-0.189768 -0.18113022 -0.35980496
-0.189768 -0.16184053 -0.35006756
0.189768 -0.034600545 -0.35202134
-0.13675573 0.18483099 -0.35630825
-0.16142261 0.210621 -0.35378683
-0.0003138762 -0.210621 -0.34833091
0.189768 -0.02085337 -0.34622318
0.189768 -0.013391387 -0.34203732
-0.14989847 0.210621 -0.34540442
-0.189768 -0.19692157 -0.33862513
0.189768 -0.17093934 -0.33100829
0.189768 0.0046972558 -0.33784214
0.189768 0.039854579 -0.33627599
0.189768 0.081253059 -0.33911487
0.015634894 0.123036 -0.33852857
-0.12869643 0.15569744 -0.33253807
-0.15248071 -0.210621 -0.32697719
0.067405522 -0.210621 -0.32731098
0.18976799 -0.15163212 -0.32729146
-0.18976799 -0.063099571 -0.32874453
-0.18976802 0.034377791 -0.3296349
-0.189768 0.092258312 -0.32867363
0.08622326 0.123036 -0.32606304
-0.189768 0.1459523 -0.3204006
0.13928375 -0.210621 -0.31912777
-0.18976799 -0.20666918 -0.31390515
-0.189768 -0.093333475 -0.31780037
-0.189768 -0.080630206 -0.31845319
-0.189768 -0.076364882 -0.31579417
-0.10959218 -0.072473362 -0.31265593
-0.18150453 -0.065547571 -0.31358892
0.071247227 -0.067716658 -0.31330335
0.12417861 -0.059212171 -0.31442299
0.14169994 -0.052377477 -0.31532279
-0.11164831 -0.045132045 -0.31627664
0.046387069 -0.048290446 -0.31586087
0.06257268 -0.036704578 -0.31551987
0.15164423 -0.039792322 -0.31592637
-0.00011947379 -0.0211289 -0.31346929
0.13813648 -0.027843844 -0.31435335
-0.16377264 -0.017544229 -0.31299737
-0.064377978 -0.016416728 -0.31284893
0.0019359663 -0.010932025 -0.31092465
0.044976965 -0.01595212 -0.31278777
-0.18699867 0.123036 -0.3134174
-0.14143749 0.123036 -0.31371009
-0.1130281 0.123036 -0.31266019
0.039803542 0.123036 -0.31517917
0.054907601 0.123036 -0.31307983
-0.15441562 -0.21062101 -0.30079979
-0.038686022 -0.210621 -0.30928543
-0.18976799 -0.13215113 -0.30881876
0.189768 -0.12549394 -0.30673715
-0.12441746 -0.1001124 -0.30083421
0.189768 -0.10699679 -0.30869281
-0.090283319 -0.083288655 -0.30817622
0.038373277 -0.08545962 -0.30727699
-0.165806 -0.0050778254 -0.30849987
-0.0052381009 -0.0063945199 -0.30904526
-0.12556158 0.0055238144 -0.30410865
-0.012132853 0.0084717656 -0.30288762
0.10119717 0.0084255636 -0.30290675
0.15674171 0.0028709271 -0.30520749
0.06099657 0.010923576 -0.30187207
-0.18976799 0.085070431 -0.30087113
-0.11535981 0.123036 -0.30082411
-0.067768984 0.123036 -0.30803758
-0.189768 0.14489058 -0.30177522
-0.16576943 -0.210621 -0.29405776
0.048842803 -0.210621 -0.29175586
0.18976802 -0.17118852 -0.29539365
-0.050630186 -0.1120869 -0.29164559
0.15423124 -0.11275856 -0.29113021
0.084062748 -0.10522417 -0.29691172
0.18191488 -0.10682279 -0.29568502
-0.189768 -0.090374403 -0.2912119
-0.189768 0.0018057777 -0.29707071
0.18923014 0.017689638 -0.29687288
0.031126887 0.025980532 -0.2905108
-0.18760382 0.123036 -0.2958861
0.011384521 0.123036 -0.29565242
0.15370201 0.123036 -0.29046765
0.16297908 0.123036 -0.29740116
-0.12293739 0.13487926 -0.29056165
-0.16626553 -0.210621 -0.28968307
-0.0068496391 -0.210621 -0.28980201
0.055657197 -0.210621 -0.28960544
-0.01836158 -0.1245815 -0.28064501
0.12850334 -0.12112956 -0.28470674
0.016839283 -0.11451425 -0.289783
0.10464667 -0.11496924 -0.28943387
-0.18976802 -0.037200145 -0.28163466
-0.18976799 0.009347585 -0.28176516
0.13914001 0.03737488 -0.28015164
0.18976802 0.1130546 -0.28838575
-0.16965239 0.123036 -0.28460404
0.0011343099 0.123036 -0.28950217
0.13799863 0.123036 -0.28444716
0.17902896 0.123036 -0.28973052
-0.189768 0.16128796 -0.28932503
-0.15441309 -0.210621 -0.27003583
-0.10079169 -0.210621 -0.27418929
0.017543346 -0.210621 -0.27605209
-0.01638528 -0.13165802 -0.27142268
0.189768 -0.13961902 -0.27339628
-0.1659534 -0.12596077 -0.27884752
-0.071831204 0.041592784 -0.2746549
0.0744396 0.04076669 -0.27573144
0.15867248 0.041967586 -0.27416644
0.189768 0.054987438 -0.27106115
-0.076355368 -0.13897119 -0.2618919
0.17102279 -0.1332045 -0.26940727
0.049970821 0.051749386 -0.26141882
0.14098126 0.123036 -0.26854283
-0.13926221 0.19389255 -0.26465735
0.0068428963 -0.210621 -0.25384706
0.091609091 -0.210621 -0.25009343
0.18976802 -0.20737636 -0.25447458
-0.189768 -0.17200933 -0.25062543
-0.189768 -0.15550159 -0.25989366
-0.092232406 -0.14306939 -0.25259525
-0.079861112 -0.14203338 -0.25509647
-0.189768 -0.11538167 -0.25915986
-0.18976799 -0.081162199 -0.25218773
-0.189768 0.041583091 -0.25477472
-0.051058859 0.053626068 -0.25708234
-0.011030773 0.054368429 -0.25529012
0.18878582 0.053032231 -0.25851598
0.189768 0.097058609 -0.2516689
-0.17735705 -0.210621 -0.24023721
-0.11405541 -0.210621 -0.24753875
0.17105736 -0.14418596 -0.24989954
-0.18976802 0.039455611 -0.24077824
-0.189768 0.054606367 -0.24273309
-0.030070063 0.057009488 -0.24891406
0.11341511 0.057477772 -0.24778354
0.189768 0.059530776 -0.24579194
-0.189768 0.10737814 -0.24839447
-0.077344865 0.123036 -0.24353434
-0.031100612 -0.15034114 -0.23503925
-0.189768 -0.14475618 -0.23512641
0.189768 -0.13302621 -0.23081222
-0.189768 0.075266987 -0.23826784
0.189768 0.11895162 -0.2337378
-0.13857591 0.123036 -0.23340811
-0.1274472 0.15118133 -0.23015758
-0.15824315 0.210621 -0.23016143
-0.189768 -0.16597889 -0.22238116
-0.026670478 -0.15156658 -0.22681314
0.11322426 -0.15120541 -0.22955659
-0.189768 -0.14870365 -0.22004552
0.189768 -0.019934908 -0.2237633
0.189768 0.0070208632 -0.22533453
-0.10823466 0.123036 -0.22622572
-0.037541308 0.123036 -0.22244537
-0.10222507 -0.210621 -0.21246396
0.021628074 -0.210621 -0.21930954
-0.189768 -0.18174332 -0.21951389
-0.11894415 -0.1537219 -0.21044165
0.189768 0.052913874 -0.21591753
-0.18241508 0.06528537 -0.21691501
0.189768 0.070206448 -0.21932214
0.189768 0.080044881 -0.21948385
-0.026993446 0.123036 -0.21845303
0.1170482 0.123036 -0.21033122
0.1202561 0.123036 -0.21054029
-0.18976802 0.13958471 -0.21310881
-0.18200368 -0.210621 -0.20374313
-0.13560414 -0.210621 -0.20737714
-0.017172266 -0.210621 -0.20757046
0.13228142 -0.210621 -0.20274614
-0.189768 -0.054616965 -0.2056212
-0.189768 0.048891053 -0.20189571
0.069507822 0.123036 -0.20009279
0.10124384 0.123036 -0.2078166
-0.17113791 0.210621 -0.20997936
-0.10461466 -0.210621 -0.19788516
-0.094847858 -0.210621 -0.19748542
-0.007164903 -0.210621 -0.19229069
0.189768 -0.19971114 -0.19451867
0.189768 -0.16745111 -0.19879892
0.093852282 -0.15277664 -0.19423635
0.189768 -0.10252242 -0.19961745
-0.18976802 -0.01530643 -0.19027254
-0.18976802 -0.0096334834 -0.19923136
-0.0094258264 0.065364368 -0.19554304
0.067098819 0.123036 -0.19851288
-0.1344828 -0.210621 -0.18155834
0.18269941 -0.210621 -0.18977553
0.1487155 -0.15140247 -0.18379825
0.189768 -0.024299111 -0.18834139
-0.079628952 0.063613243 -0.18224281
0.18976802 0.11291588 -0.18393834
-0.097699389 0.123036 -0.18704484
-0.1366829 0.1845676 -0.18608344
-0.024892643 -0.210621 -0.17441644
0.070335612 -0.210621 -0.17234068
0.083952777 -0.210621 -0.17007403
0.10770808 -0.210621 -0.17099383
-0.189768 -0.19756752 -0.17688116
-0.189768 -0.18026401 -0.17754079
-0.011726506 -0.15053689 -0.17729139
0.13520534 -0.15080638 -0.17927058
0.10901867 -0.14966656 -0.17519014
0.189768 -0.029584642 -0.17911717
-0.14550672 0.060412858 -0.1711604
0.0077389106 0.063267447 -0.17961638
-0.189768 0.12356085 -0.17291701
0.0026874617 0.123036 -0.17413841
0.098075621 0.123036 -0.17985703
0.16702841 0.123036 -0.1790493
-0.189768 0.20063367 -0.17348251
-0.15287566 0.210621 -0.17344201
0.11176012 -0.210621 -0.16504256
-0.189768 -0.1621317 -0.16996294
0.189768 -0.16159521 -0.16818082
0.028017104 -0.14515334 -0.164294
0.16226684 -0.14406393 -0.16166383
-0.189768 -0.11419438 -0.1638768
0.189768 0.024753068 -0.16458479
-0.015445314 0.056262136 -0.16113968
0.16323745 0.056292452 -0.16121286
0.017416768 0.123036 -0.16254979
0.051719498 0.123036 -0.16211785
0.061974231 0.123036 -0.16174577
0.08823055 -0.210621 -0.1552825
0.189768 -0.159894 -0.15659095
-0.12345415 -0.14151122 -0.15550087
0.084347486 -0.14132787 -0.15505825
-0.189768 -0.087255917 -0.15713036
-0.189768 -0.053574212 -0.15884522
0.189768 -0.02786601 -0.15120833
-0.18976802 -0.00048747403 -0.15009284
-0.13845526 0.054019716 -0.15572603
-0.025130145 0.123036 -0.15360135
-0.040664367 -0.210621 -0.1428719
0.15168312 -0.210621 -0.14810289
-0.18976802 0.042561825 -0.14665736
-0.055039369 0.048764795 -0.14654967
0.045847982 0.049551185 -0.14757448
0.18976802 0.11158362 -0.1411328
-0.12500417 0.14235026 -0.14887737
-0.13003179 0.16052508 -0.1459595
-0.189768 0.20145144 -0.14087836
-0.1785692 -0.210621 -0.13754047
-0.189768 -0.19719706 -0.13390782
0.023377337 -0.13019584 -0.13852975
-0.189768 -0.047883943 -0.1329713
-0.189768 -0.0064276466 -0.13118082
-0.058449812 0.036823016 -0.13098718
0.021551386 0.043474115 -0.13965486
0.092933297 0.042775452 -0.13874438
-0.1469079 0.123036 -0.13419759
-0.1339788 0.123036 -0.13189445
0.023939412 0.123036 -0.13018645
0.16554008 0.123036 -0.13177963
-0.03653289 -0.210621 -0.12797508
0.12819225 -0.210621 -0.12857071
0.15682752 -0.210621 -0.12741947
-0.189768 -0.20465907 -0.12780119
0.18976799 -0.13397329 -0.12453184
-0.01968053 -0.11810331 -0.12482908
0.18976802 -0.10415812 -0.12063318
-0.18976799 -0.018609846 -0.12239406
0.030141562 0.028829526 -0.12353338
-0.026518095 0.035602205 -0.12939622
-0.18976802 0.053606614 -0.12848333
-0.18976799 0.09970656 -0.12958246
-0.189768 0.10051139 -0.12434936
0.0017562881 0.123036 -0.12501487
-0.12900512 0.15681377 -0.12999067
-0.023340199 -0.210621 -0.1150141
0.1655325 -0.210621 -0.11068648
0.189768 -0.18150246 -0.11338989
-0.03075324 -0.1046183 -0.11448138
0.078463927 -0.10935787 -0.11811827
0.15443011 -0.10820381 -0.11723271
0.18976802 -0.043591835 -0.11432524
0.189768 -0.0083414409 -0.11105204
-0.10799463 0.018063515 -0.11527203
-0.034094036 0.015569923 -0.11335856
-0.13199256 0.022438111 -0.1186289
-0.049627975 0.024178237 -0.1199642
0.088211469 0.021874242 -0.1181962
0.077316821 0.123036 -0.11399436
0.10974139 0.123036 -0.11826724
-0.189768 0.1803219 -0.11493521
-0.16388647 -0.210621 -0.10794123
-0.027826212 -0.210621 -0.10696194
0.024192989 -0.210621 -0.10958789
0.11631039 -0.210621 -0.10339531
0.12917839 -0.09698195 -0.10935355
0.18413827 -0.084318832 -0.10410854
0.055119738 -0.079623833 -0.1021639
-0.189768 -0.059423827 -0.10461044
0.18976802 -0.010107053 -0.10741656
-0.18746254 -0.0013247281 -0.10576414
0.06166124 -0.0077035837 -0.10227061
-0.14056459 0.123036 -0.10770988
-0.11097058 0.123036 -0.10310142
0.096692763 0.123036 -0.10213425
-0.189768 0.17806454 -0.10257243
-0.1542058 -0.210621 -0.098361738
0.05356165 -0.210621 -0.099547684
-0.189768 -0.17136657 -0.096267551
0.026878983 -0.060062021 -0.097547099
0.15095136 -0.068678603 -0.09868142
-0.096777245 -0.051967256 -0.096481457
0.11481424 -0.040279895 -0.095867731
0.18820111 -0.047515254 -0.095895372
-0.010624886 -0.033932421 -0.096703336
0.11752065 -0.038345542 -0.096122384
0.16513158 -0.035246875 -0.096530311
-0.189768 -0.015134716 -0.099256836
-0.12154552 -0.018077355 -0.098790586
0.09533748 -0.019293841 -0.098630428
-0.045087982 0.123036 -0.097213916
0.0068579465 0.123036 -0.095971152
0.17970498 -0.210621 -0.081303209
0.189768 -0.022712961 -0.085654154
-0.189768 0.043017831 -0.087950133
0.18976802 0.10395014 -0.088831216
-0.13956898 0.123036 -0.08621569
-0.074863389 0.123036 -0.086430758
-0.097585864 -0.210621 -0.078677125
0.044654574 -0.210621 -0.07486771
0.189768 -0.16336042 -0.079954721
-0.189768 -0.15956655 -0.07589291
0.189768 -0.1063245 -0.074747242
-0.189768 -0.088273883 -0.075672455
-0.189768 0.033552963 -0.078649826
-0.087518796 0.123036 -0.078107826
-0.18976799 0.14928421 -0.075828373
-0.189768 0.16451335 -0.078594327
-0.13654172 0.18405783 -0.073195361
-0.081938647 -0.210621 -0.06794633
-0.020251334 -0.210621 -0.064121157
0.14658789 -0.210621 -0.060662936
-0.189768 -0.14098902 -0.067914985
0.18976802 -0.11150762 -0.064395145
-0.1168267 0.123036 -0.064597733
0.048562922 -0.210621 -0.057763759
0.189768 -0.16057168 -0.050774023
0.18976799 -0.083845899 -0.053488299
0.189768 0.023113832 -0.055328839
-0.189768 0.087973021 -0.056164254
-0.012026779 0.123036 -0.056742977
0.1161444 0.123036 -0.057131279
-0.15067391 0.210621 -0.053621802
0.071800508 -0.210621 -0.04652445
0.16533291 -0.210621 -0.04777706
-0.18976799 -0.16969836 -0.048393205
0.02046521 0.123036 -0.049904011
-0.189768 0.19744413 -0.049321234
-0.14984751 -0.210621 -0.034357052
0.0095739737 -0.210621 -0.033150345
0.013569392 -0.210621 -0.037225559
0.031006753 -0.210621 -0.032442108
0.12767962 -0.210621 -0.038354948
-0.189768 -0.090794064 -0.031619977
0.15274176 0.123036 -0.031558219
-0.13979952 0.1958344 -0.037578881
0.086341657 -0.210621 -0.029030463
0.092671342 -0.210621 -0.026391646
0.189768 -0.19492033 -0.023596127
0.18976799 -0.17524545 -0.028688453
-0.189768 -0.095578931 -0.025536854
0.189768 -0.060017582 -0.02872484
0.189768 0.09742602 -0.026865169
-0.15943952 0.123036 -0.021750219
-0.1131786 0.123036 -0.028209204
-0.1759124 -0.210621 -0.015108636
-0.13206674 -0.210621 -0.011704303
-0.189768 -0.16934679 -0.011444257
-0.189768 -0.13630936 -0.017367831
-0.189768 0.099834345 -0.013976657
-0.14657959 0.123036 -0.014729951
-0.027425755 -0.210621 -0.0018830692
0.14512444 -0.210621 -0.0039336118
0.18976799 -0.15649205 -0.0028810559
0.189768 0.056279399 -0.0019106478
-0.0049132928 0.123036 -0.0017683499
-0.189768 0.18637845 -0.0094521288
-0.189768 0.20865329 -0.0027861635
-0.07494548 -0.210621 0.008688827
0.031726323 -0.210621 0.0077459165
-0.13370883 -0.20919643 2.7993201e-07
0.11160952 -0.19420244 2.7993201e-07
-0.13059132 -0.18026021 2.7993201e-07
0.035098508 -0.18489206 2.7993201e-07
0.074648112 -0.18816021 2.7993201e-07
0.17899972 -0.17321095 2.7993201e-07
-0.13156198 -0.16387154 2.7993201e-07
0.049764343 -0.16376525 2.7993201e-07
0.13712096 -0.16214763 2.7993201e-07
-0.10773236 -0.15993346 2.7993201e-07
-0.054084551 -0.1571947 2.7993201e-07
0.0033116415 -0.15494996 2.7993201e-07
0.062801018 -0.15326487 2.7993201e-07
-0.15710875 -0.14643495 2.7993201e-07
-0.011150025 -0.12299814 2.7993201e-07
-0.064907752 -0.113063 2.7993201e-07
-0.18311068 -0.10162187 2.7993201e-07
-0.17966308 -0.10592472 2.7993201e-07
0.077383943 -0.1085763 2.7993201e-07
-0.13205263 -0.090876445 2.7993201e-07
0.01210738 -0.096344322 2.7993201e-07
-0.18607748 -0.089936361 2.7993201e-07
-0.1535939 -0.07794638 2.7993201e-07
-0.076488882 -0.078068405 2.7993201e-07
-0.0247842 -0.068983622 2.7993201e-07
0.15218586 -0.06124308 2.7993201e-07
0.0031757131 -0.051722746 2.7993201e-07
0.050318282 -0.055870753 2.7993201e-07
0.1428706 -0.05222638 2.7993201e-07
0.189768 -0.053767588 0.0094756261
0.15271947 -0.031786125 2.7993201e-07
-0.068353578 0.0031135529 2.7993201e-07
0.14305222 0.00087469444 2.7993201e-07
-0.14161012 0.013993002 2.7993201e-07
-0.18976802 0.037274804 0.0084276255
-0.17199391 0.039409705 2.7993201e-07
0.18303265 0.035112344 2.7993201e-07
-0.1324292 0.043066397 2.7993201e-07
-0.11097809 0.048611719 2.7993201e-07
-0.12649609 0.054115798 2.7993201e-07
-0.1021221 0.057808854 2.7993201e-07
-0.14861335 0.065401196 2.7993201e-07
-0.031341411 0.075783998 2.7993201e-07
0.18976802 0.073164769 0.0032926123
-0.056366868 0.081361443 2.7993201e-07
0.059757702 0.085339308 2.7993201e-07
0.14068784 0.080200724 2.7993201e-07
-0.189768 0.10733131 0.0095103774
-0.1502521 0.1029008 2.7993201e-07
-0.1460246 0.11716323 2.7993201e-07
-0.1801782 0.12914051 2.7993201e-07
-0.14981687 0.123036 0.0017970902
-0.091766223 0.12200415 2.7993201e-07
-0.043189786 0.123036 0.0047955411
0.027981959 0.123036 0.001114125
0.11432986 0.123036 0.0045659291
-0.189768 0.15064076 0.0020566355
-0.18766315 0.210621 0.00061031344
-0.0044577932 -0.210621 0.016598912
0.189768 -0.055123195 0.015797837
0.189768 -0.039879579 0.016950548
-0.11999738 0.123036 0.015182145
0.024414606 0.123036 0.012669251
-0.11488236 -0.21062098 0.026347939
-0.189768 -0.13994926 0.024388988
0.189768 -0.036301453 0.02096488
-0.16898173 0.123036 0.021990729
0.064016066 0.123036 0.028000353
0.13303153 0.12303599 0.023593191
-0.13084225 0.16345575 0.026684308
-0.068139941 -0.210621 0.038376249
0.189768 0.085764311 0.037869561
-0.12217742 0.13213255 0.034442291
-0.189768 0.19350418 0.036584388
-0.18882979 -0.210621 0.049234282
-0.12605064 -0.210621 0.043197889
-0.189768 -0.027631585 0.040502004
-0.18976799 0.12284793 0.04083908
0.086596295 0.123036 0.043690942
-0.12385807 0.13820797 0.045770414
-0.18976799 0.16997239 0.047395714
-0.019436736 -0.210621 0.055863421
0.16707948 -0.210621 0.052969292
0.189768 -0.1773712 0.051050227
-0.189768 -0.1447355 0.054336067
0.189768 -0.14889015 0.050989326
0.189768 -0.10853165 0.051170569
-0.189768 0.11417755 0.055812292
0.18484008 0.123036 0.052926611
-0.189768 0.21044575 0.053332519
-0.189768 0.061748601 0.064055212
0.015303738 0.123036 0.068682097
0.16074128 0.123036 0.060077194
-0.13858458 0.19144447 0.068428829
-0.189768 -0.12960097 0.075616129
0.189768 -0.086703882 0.072211988
0.189768 -0.03646262 0.078189723
-0.189768 0.12231241 0.07902202
0.18832736 0.123036 0.072895892
-0.189768 0.20629923 0.078393549
-0.083831228 -0.210621 0.089427188
-0.189768 -0.14075561 0.080570564
-0.097856775 -0.08414223 0.088370554
-0.077248037 -0.084306784 0.088438727
0.17105858 -0.066030927 0.083735228
0.1868431 -0.063685372 0.083426446
0.035087444 -0.049315542 0.081534758
0.10536249 -0.024225697 0.083383545
-0.12222489 -0.010329137 0.085518025
-0.055549003 -0.013134598 0.084843606
-0.021891125 -0.014565354 0.084655255
0.18976802 -0.018486761 0.085644305
-0.080082811 -0.00045298389 0.089609019
0.019064713 3.8572238e-05 0.089812629
0.189768 0.006673838 0.081699245
-0.10368468 0.123036 0.082030445
0.018898211 0.123036 0.085144885
-0.14754364 -0.210621 0.093824096
0.189768 -0.1947293 0.091185227
0.18976799 -0.15005866 0.098389581
-0.189768 -0.14405201 0.099794306
0.12169917 -0.10512698 0.097063139
0.14544196 -0.10714996 0.098182507
-0.072664171 -0.092844248 0.091975212
-0.061774202 0.0017799912 0.090533987
-0.080144502 0.013203613 0.095265985
0.087567911 0.019659404 0.09825483
-0.048656106 0.02190394 0.099977091
-0.12701969 0.1496374 0.098853104
0.028271332 -0.11135019 0.10140538
0.14545509 -0.11911037 0.10735983
-0.14467776 0.025145315 0.10246423
-0.014621392 0.029551506 0.10584514
0.11173241 0.023621006 0.10129461
-0.189768 0.10846902 0.10672107
-0.14651614 0.123036 0.10020998
-0.057543173 0.123036 0.10895678
-0.18976802 0.18671679 0.10549558
-0.14502932 -0.13077436 0.11630969
-0.053462107 -0.13387549 0.11955118
-0.10233821 -0.12442081 0.11143456
0.0063566789 0.041681409 0.11515254
0.02896148 0.040838294 0.1145056
0.189768 0.065953553 0.11710524
-0.034252658 0.123036 0.11765772
-0.12418404 -0.210621 0.12504564
-0.10806126 -0.210621 0.12648444
-0.057155259 -0.13989213 0.12739214
0.12805118 -0.13590094 0.1221908
-0.189768 -0.047042895 0.12856546
0.18976799 -0.029959638 0.12233661
-0.0098550618 0.053508833 0.12895808
-0.189768 0.063497707 0.12117582
-0.189768 0.11151356 0.12522486
0.18514591 -0.210621 0.13516025
-0.054333147 -0.1474788 0.13727915
-0.042136133 -0.14894059 0.13918419
0.017320534 -0.1450953 0.13417295
0.078736126 -0.14432642 0.13317095
0.1158596 -0.14664114 0.13618749
0.12351366 -0.14565453 0.13490175
-0.189768 -0.033949479 0.1360966
-0.073861383 0.058577336 0.1355634
0.189768 0.077833645 0.13504684
-0.189768 0.11014369 0.13079822
-0.038485285 0.123036 0.13090822
0.15336393 0.123036 0.13383466
-0.18976799 0.18904984 0.13207491
-0.16439608 -0.210621 0.14890586
-0.12385559 -0.210621 0.14093553
-0.11867964 -0.210621 0.1480509
-0.050935272 -0.210621 0.14506094
-0.13636136 -0.15216339 0.1433979
0.080567911 -0.15352686 0.14668982
0.18976802 0.069803908 0.14685722
0.027991705 0.123036 0.14456557
-0.16788623 0.210621 0.14644669
-0.012450326 -0.15648854 0.15384033
-0.189768 -0.14365925 0.1579186
-0.189768 0.042910919 0.15256128
0.12902577 0.070963278 0.15881218
-0.10588028 -0.210621 0.16413765
-0.069186233 -0.210621 0.16856962
0.18798947 -0.210621 0.16775006
0.18976802 -0.2079148 0.1616343
-0.095937736 -0.16149704 0.16593267
0.12414649 -0.16007467 0.16249856
-0.18976799 -0.12809764 0.16539532
0.189768 0.062988982 0.1629284
-0.11550901 0.074581631 0.16754767
-0.10632955 0.074376069 0.16705139
0.189768 0.10859774 0.16563965
0.189768 -0.19017071 0.17158303
0.046205696 -0.16531017 0.17855886
-0.12844172 0.077609107 0.17767218
-0.0095221922 0.076707348 0.17267962
0.18182683 -0.210621 0.18652636
-0.189768 -0.16754794 0.18788376
-0.062535226 -0.16653453 0.18785757
0.18976799 -0.14625081 0.18264388
-0.18976799 -0.020421984 0.18093833
-0.189768 0.057046119 0.1898897
0.059255455 0.078225143 0.18235177
0.17674297 0.078924671 0.18766563
0.189768 0.087363906 0.18600002
0.010452825 0.123036 0.18806997
0.049705915 0.123036 0.18130395
0.070671022 0.123036 0.18838757
-0.18015793 -0.210621 0.19024935
-0.14744753 -0.210621 0.19058833
-0.05798766 -0.210621 0.19120917
-0.033765756 -0.210621 0.19810896
-0.14976129 -0.16767743 0.19653751
0.10911387 -0.16694868 0.19100292
-0.189768 -0.14955628 0.19089982
-0.082572058 0.07923682 0.19003682
-0.022619326 0.079542302 0.19235739
-0.13948266 0.19469084 0.19910593
-0.13887882 -0.210621 0.20566535
0.022060141 -0.210621 0.20484535
-0.016446935 -0.1687232 0.20737812
0.024466373 -0.16851985 0.20892248
0.189768 -0.055380136 0.20337796
-0.189768 0.055193346 0.20452622
0.091360956 0.081165947 0.20469114
0.098073617 0.123036 0.20573212
-0.11579525 -0.16790006 0.21362966
0.12881115 -0.16788085 0.21377562
-0.189768 -0.10781889 0.21165697
-0.18976799 -0.099944517 0.21931064
0.189768 -0.050438203 0.21668571
0.189768 0.013268614 0.2100774
0.11436752 0.079885282 0.21689524
0.189768 0.077458255 0.21172126
0.189768 0.10358431 0.2125344
-0.12353615 0.123036 0.21523
0.051546901 0.123036 0.21049191
0.13876937 0.123036 0.21963017
0.15706868 0.123036 0.21201308
-0.1661627 -0.210621 0.2204829
0.057023909 -0.16697915 0.2206237
0.15368131 -0.16675664 0.22231357
-0.189768 -0.14628328 0.22146213
0.189768 0.044628635 0.22342476
-0.10990988 0.078262359 0.22922356
0.189768 0.10773705 0.22351091
-0.189768 0.12558974 0.22379273
-0.0034800321 0.123036 0.22527713
-0.13019149 -0.210621 0.23933136
-0.065546691 -0.210621 0.23267858
-0.074391454 -0.16506991 0.23512393
-0.189768 -0.0082505103 0.23736063
-0.078840978 0.077993497 0.23126587
-0.11986697 0.12378054 0.23152955
0.090983585 0.123036 0.2359007
0.16035455 0.123036 0.2364303
-0.051521488 -0.210621 0.24212949
0.15809521 -0.210621 0.24272414
0.18976802 -0.21012157 0.24415529
-0.189768 -0.16121338 0.24436739
-0.18976799 0.055169515 0.24304798
-0.14721499 0.07556612 0.24193354
0.0047337916 0.074939966 0.24344525
-0.12885082 0.123036 0.24345873
0.060718421 0.123036 0.24029417
-0.14974767 0.210621 0.24651659
-0.16945595 -0.210621 0.25967354
-0.045742586 -0.210621 0.25531402
0.13798675 -0.15606388 0.25904292
0.16907844 0.069350086 0.25694036
-0.189768 0.10128026 0.25127935
-0.045406789 0.123036 0.25243038
0.033793114 0.123036 0.2526651
0.020034308 -0.210621 0.26068574
0.096680991 -0.210621 0.26201564
0.189768 -0.20509723 0.2664648
0.16104239 -0.15435559 0.26316735
-0.189768 -0.0088104261 0.26469395
-0.11260357 0.067027852 0.26254678
0.057698473 0.065538086 0.26614338
-0.189768 0.10165969 0.26010638
-0.12569177 0.14483637 0.26114497
0.189768 -0.17426026 0.27229875
-0.189768 -0.157765 0.27828836
-0.18976799 0.053274117 0.27680838
0.044949092 0.057393737 0.27783707
0.14568925 0.057864793 0.27722317
-0.038326234 0.123036 0.27742589
-0.15726268 0.210621 0.27020767
-0.086093962 -0.210621 0.28750804
0.189768 -0.16006176 0.2814742
0.101161 -0.14101869 0.2829977
-0.18548506 -0.13994199 0.28440088
0.17935008 -0.13663729 0.28870758
-0.14967807 -0.210621 0.29966912
0.15551461 -0.210621 0.29801857
-0.189768 -0.16181681 0.29139829
0.043107294 -0.12743592 0.29810989
0.071070328 -0.12946686 0.29655156
0.189768 -0.039925914 0.2915276
0.027402028 0.039533243 0.29835373
0.11443561 0.038543407 0.29911327
-0.091098376 0.042606272 0.2959958
-0.045973726 0.046542209 0.2919789
-0.002470389 0.041766938 0.2966398
-0.038720839 0.123036 0.29328352
-0.0079532508 0.123036 0.29771316
-0.12818301 0.15384284 0.29814979
-0.0078279115 -0.210621 0.30091783
0.13313393 -0.210621 0.30764252
-0.189768 -0.20790341 0.30037794
-0.10980503 0.035402555 0.30152327
-0.063572399 0.031226467 0.30472764
0.11686091 0.035004944 0.30182838
-0.189768 0.040915068 0.30943578
-0.14731118 0.123036 0.30918667
-0.090332419 0.123036 0.3027178
-0.0039238408 0.123036 0.30565795
0.035161868 0.123036 0.30964842
-0.18976799 0.18440023 0.30567423
0.014318354 -0.210621 0.31983835
0.18976799 -0.19553885 0.31418842
-0.18976799 -0.13480678 0.31453401
0.18976802 -0.11434913 0.31013906
0.016010664 -0.1089674 0.31228095
0.054004602 -0.10724513 0.31360248
-0.07497631 -0.095385544 0.31883001
-0.025746992 -0.093237557 0.31971979
-0.189768 -0.016087562 0.31774649
0.042825904 0.006509725 0.31936473
0.15359168 0.009247453 0.31823072
-0.088788085 0.010887822 0.31755126
0.189768 0.037927106 0.31489715
-0.189768 0.15251651 0.31380185
0.0097215101 -0.210621 0.32694307
0.0594377 -0.210621 0.32853833
0.15549554 -0.210621 0.3243759
-0.189768 -0.18761033 0.32014987
0.18976802 -0.12521818 0.3232412
-0.18976799 -0.089280903 0.32432827
-0.10241343 -0.085391358 0.32296988
-0.189768 -0.071126506 0.32911563
0.10429312 -0.072550058 0.32726446
-0.048059866 -0.064060412 0.32838228
0.0074320994 -0.069483876 0.32766819
0.117126 -0.058425449 0.32912427
0.14904214 -0.056096833 0.32943088
-0.1643891 -0.035168596 0.32991546
-0.0066610277 -0.030458612 0.32929531
-0.18976802 -0.020359011 0.3222625
-0.16605319 -0.028127925 0.3289884
-0.091981299 -0.029270928 0.3291389
-0.034943443 -0.029237956 0.32913458
-0.096592873 -0.014990336 0.32725859
-0.037765503 -0.012250115 0.3268978
0.018477172 -0.0077992948 0.32529187
0.049848229 -0.00060196104 0.32231057
0.05374261 -0.006671214 0.3248246
-0.12082797 0.0014440776 0.32146305
0.18976802 0.0049249781 0.32827175
-0.189768 0.062699191 0.32713377
-0.057376228 0.123036 0.32686752
-0.016777363 0.123036 0.32525873
0.1472491 0.123036 0.32415456
0.18234597 0.123036 0.32729143
-0.189768 0.13101885 0.32250348
-0.12733035 0.15076067 0.32011855
-0.022669718 -0.210621 0.33856302
0.189768 -0.13730669 0.33757472
0.189768 -0.10388284 0.33576635
0.0014821365 -0.049905635 0.33024609
-0.027292948 -0.03924042 0.33045161
0.18976799 0.082869612 0.33008868
0.18976799 0.09668947 0.33131659
-0.17689434 0.123036 0.33394557
-0.099039011 0.123036 0.33272153
-0.085124627 0.123036 0.33607772
-0.066648237 0.123036 0.33616489
0.10731958 0.123036 0.33540761
0.11234041 0.123036 0.33923537
0.090272643 -0.210621 0.34997669
0.189768 -0.19097279 0.34301069
-0.18976802 -0.14056054 0.34272957
-0.189768 0.016264927 0.34651911
-0.189768 0.082245678 0.3451739
-0.14172468 0.123036 0.34697336
-0.189768 -0.15431917 0.35608491
0.189768 -0.15817316 0.35196871
0.189768 0.074255303 0.355683
-0.16627368 0.123036 0.35836977
-0.053408314 0.123036 0.35469744
0.07411252 0.123036 0.35777026
0.18976802 0.12246865 0.35930127
-0.189768 0.20167804 0.3573488
0.189768 -0.095206343 0.3604711
-0.189768 -0.060002595 0.36866
0.189768 0.033987384 0.36883447
-0.081784561 0.123036 0.36075765
-0.049048904 0.123036 0.36907366
-0.189768 0.17184426 0.36238706
-0.17597485 -0.210621 0.37653717
-0.189768 -0.19542944 0.37457266
0.189768 -0.14002064 0.37583086
-0.18976799 0.12922484 0.37361085
-0.049392998 0.123036 0.3724649
-0.0087039135 0.123036 0.37737945
0.025289968 0.123036 0.37891412
-0.12685333 0.14903493 0.37007353
-0.18976802 0.17665046 0.37506083
-0.13559453 0.1806334 0.37550837
-0.17791466 -0.210621 0.38474572
0.035711944 -0.210621 0.38972542
0.11397055 -0.210621 0.38475329
0.189768 -0.1238577 0.38061136
-0.18976802 -0.10621291 0.38851109
0.189768 -0.089212045 0.38582504
-0.18976799 0.055958949 0.38977262
0.18976802 0.10750683 0.38477111
-0.16844116 0.123036 0.38286543
-0.049748179 0.123036 0.38860705
-0.189768 0.14609325 0.3815248
-0.12280611 -0.210621 0.39068833
-0.11748709 -0.210621 0.39469692
-0.038044743 -0.210621 0.39126232
-0.015612774 -0.210621 0.39625469
0.036460776 -0.210621 0.39041665
0.046853077 -0.210621 0.4080826
0.1303636 -0.210621 0.40905809
-0.18976802 -0.13550532 0.40771115
0.18976802 -0.1075629 0.40777043
-0.189768 -0.025388151 0.40918136
-0.189768 0.017912284 0.4068031
0.189768 0.014387526 0.40711239
0.040311173 -0.2016212 0.41185799
-0.189768 -0.18108769 0.4111149
-0.17973477 -0.17232735 0.41185799
-0.12648498 -0.17474157 0.41185796
-0.084725544 -0.17746562 0.41185799
0.10561001 -0.16111059 0.41185799
0.13958786 -0.16630776 0.41185796
0.17176454 -0.16653724 0.41185799
-0.13524689 -0.15423851 0.41185799
-0.063556746 -0.15587255 0.41185796
0.12443314 -0.15320222 0.41185802
-0.09628424 -0.1471 0.41185799
-0.1410657 -0.12630124 0.41185799
-0.069159932 -0.11977758 0.41185799
-0.10652527 -0.092147231 0.41185802
0.0039058886 -0.092915356 0.41185799
-0.076963037 -0.072973311 0.41185799
0.1206298 -0.079026476 0.41185799
0.024419159 -0.065028965 0.41185799
0.052366719 -0.062743202 0.41185799
-0.1427376 -0.054170322 0.41185799
0.01799012 -0.035235412 0.41185799
0.061043724 -0.034653101 0.41185799
0.020048689 -0.010622697 0.41185799
-0.11603086 -0.0047007576 0.41185799
-0.035246566 -0.0058792513 0.41185802
0.027518965 -0.007040475 0.41185799
-0.18900648 0.0067369184 0.41185796
-0.15551527 0.0071979538 0.41185799
-0.13037781 0.0073797228 0.41185799
-0.053591028 0.01799088 0.41185799
0.071626276 0.015231917 0.41185799
0.12901264 0.013773602 0.41185799
0.0051165968 0.029154984 0.41185796
0.069923483 0.020067388 0.41185799
-0.12841046 0.038059022 0.41185799
0.1061063 0.036826566 0.41185799
0.14587446 0.033760346 0.41185799
0.15707479 0.048119809 0.41185799
-0.071142852 0.056815833 0.41185799
-0.086281523 0.063439235 0.41185802
-0.0490207 0.067991048 0.41185796
0.089353412 0.060676564 0.41185802
0.10351595 0.06938383 0.41185799
0.038628235 0.079350255 0.41185799
0.048142262 0.075792871 0.41185799
0.091965452 0.077780209 0.41185799
-0.14034948 0.095206834 0.41185796
-0.090294927 0.10656145 0.41185799
0.1287179 0.10572866 0.41185796
0.10524057 0.11894166 0.41185799
0.17512111 0.1125538 0.41185802
0.055558022 0.1217138 0.41185799
-0.18145938 0.14124207 0.41185799
