# .PCD v0.7 - Point Cloud Data file format
VERSION 0.7
FIELDS x y z
SIZE 4 4 4
TYPE F F F
COUNT 1 1 1
WIDTH 966
HEIGHT 1
VIEWPOINT 0 0 0 1 0 0 0
POINTS 966
DATA ascii
-0.084802754 -0.35290015 -0.25066599
0.20648409 -0.35299221 -0.25066599
0.18102051 -0.34011877 -0.25066599
-0.21435905 -0.33791006 -0.25066599
-0.022103205 -0.33373517 -0.25066599
-0.18561615 -0.32045284 -0.25066599
0.045214504 -0.32871625 -0.25066599
0.10468891 -0.32697499 -0.25066599
0.11505666 -0.32643574 -0.25066599
0.14824632 -0.32270247 -0.25066599
0.061918832 -0.31503943 -0.25066599
0.22066067 -0.30626664 -0.25066599
0.15162984 -0.28947982 -0.25066599
0.10073705 -0.27215096 -0.25066599
-0.18528804 -0.26042235 -0.25066599
-0.018814974 -0.26367509 -0.25066599
0.13401598 -0.26454759 -0.25066599
-0.094044745 -0.25536722 -0.25066599
-0.17988595 -0.23391597 -0.25066599
0.050994154 -0.2311648 -0.25066599
0.12543513 -0.23275957 -0.25066599
-0.15530971 -0.21331783 -0.25066599
0.092914797 -0.2058153 -0.25066599
-0.10532455 -0.19556257 -0.25066599
0.10512064 -0.19795743 -0.25066599
0.031376891 -0.18393359 -0.25066599
-0.1427152 -0.16877392 -0.25066599
0.086140729 -0.1688617 -0.25066599
0.1011679 -0.1603041 -0.25066599
0.11120313 -0.16561604 -0.25066599
0.13671406 -0.15423679 -0.25066599
0.013372064 -0.14916345 -0.25066599
0.15998399 -0.14345446 -0.25066599
-0.034802299 -0.13093781 -0.25066599
0.018885527 -0.13870594 -0.25066599
0.13174319 -0.1350944 -0.25066599
0.14060111 -0.13505669 -0.25066599
0.17881665 -0.13482937 -0.25066599
0.042980805 -0.12332305 -0.25066599
0.19127974 -0.12987915 -0.25066599
0.0029305443 -0.11388633 -0.25066599
0.14422031 -0.11844155 -0.25066599
0.00085689873 -0.10226454 -0.25066599
0.048990719 -0.10023129 -0.25066599
0.14070211 -0.10068554 -0.25066599
-0.037228167 -0.097698063 -0.25066599
0.19542724 -0.097410835 -0.25066599
-0.21061435 -0.08502093 -0.25066599
-0.15971237 -0.080423199 -0.25066599
0.02022671 -0.08780092 -0.25066599
-0.23577356 -0.075206608 -0.25066599
0.17347613 -0.070610002 -0.25066599
0.18843633 -0.076311931 -0.25066599
0.21040207 -0.075313956 -0.25066599
0.045370206 -0.060178034 -0.25066599
0.066176713 -0.06899257 -0.25066599
0.12993394 -0.064404011 -0.25066599
-0.10672388 -0.044792593 -0.25066599
0.021050572 -0.04803491 -0.25066599
0.22018541 -0.042017721 -0.25066599
-0.0023458079 -0.036750942 -0.25066599
0.0065418854 -0.03037563 -0.25066599
0.073501736 -0.039571665 -0.25066599
-0.12770484 -0.0029481351 -0.25066599
-0.11391384 -0.0065557882 -0.25066599
-0.037496231 -0.0089201629 -0.25066599
0.0048504691 -0.0032143474 -0.25066599
-0.24439695 0.0088701993 -0.25066599
-0.18681759 0.016540095 -0.25066599
-0.16453689 0.019215219 -0.25066599
-0.13640732 0.029788569 -0.25066599
0.00063665211 0.039349318 -0.25066599
0.025282256 0.030777387 -0.25066599
0.18261556 0.048960201 -0.25066599
0.17943229 0.06909316 -0.25066599
-0.10173021 0.078721732 -0.25066599
0.10536929 0.078761391 -0.25066599
-0.22263691 0.083037771 -0.25066599
0.028824512 0.084480435 -0.25066599
-0.22352949 0.097925827 -0.25066599
-0.094874501 0.097341374 -0.25066599
0.09189789 0.091934241 -0.25066599
-0.23221824 0.10075378 -0.25066599
-0.087891281 0.10935661 -0.25066599
0.043721743 0.10964575 -0.25066599
0.14327991 0.10456125 -0.25066599
-0.058504634 0.11852295 -0.25066599
0.089027219 0.11515614 -0.25066599
-0.20334353 0.12272463 -0.25066599
-0.1768696 0.1241819 -0.25066599
-0.11876673 0.12902835 -0.25066599
0.22009328 0.1208097 -0.25066599
0.18807957 0.13366129 -0.25066599
0.0028027445 0.14777236 -0.25066599
0.10999101 0.14371669 -0.25066599
-0.20123976 0.15806837 -0.25066599
-0.081048682 0.16799442 -0.25066599
0.013616174 0.16323665 -0.25066599
-0.15782793 0.17963287 -0.25066599
0.080918081 0.17025846 -0.25066599
0.13657704 0.17050619 -0.25066596
-0.20318116 0.19457279 -0.25066599
-0.19575162 0.19080147 -0.25066599
-0.14044861 0.20943251 -0.25066599
0.097849168 0.20674148 -0.25066599
0.045368433 0.2217505 -0.25066599
0.061764691 0.22089864 -0.25066599
0.070321262 0.22812374 -0.25066599
0.082154401 0.22502795 -0.25066599
-0.19734536 0.23597692 -0.25066599
0.12705387 0.23509835 -0.25066599
-0.19515847 0.26908734 -0.25066599
0.062103316 0.26340559 -0.25066599
-0.22181569 0.27388576 -0.25066599
-0.14515057 0.27321324 -0.25066599
-0.030824911 0.27804515 -0.25066599
0.025032826 0.27818835 -0.25066599
-0.19490235 0.28425488 -0.25066599
-0.11225277 0.28547931 -0.25066599
-0.085345358 0.28859577 -0.25066599
-0.043595955 0.28584224 -0.25066599
0.068449765 0.2839725 -0.25066599
-0.058911383 0.29264224 -0.25066599
0.09103737 0.2984935 -0.25066599
0.12807068 0.29442233 -0.25066599
0.14173645 0.29566461 -0.25066599
0.072671212 0.30460048 -0.25066599
0.096167751 0.30798072 -0.25066599
-0.11443221 0.32973292 -0.25066599
-0.13257824 0.33203158 -0.25066599
-0.0028541535 0.33764684 -0.25066599
0.14425829 0.33597058 -0.25066599
-0.1609326 0.34446734 -0.25066599
0.043993603 0.34005585 -0.25066599
0.054649748 0.34519118 -0.25066599
0.14085764 0.34229997 -0.25066599
-0.2018798 0.35290596 -0.25066599
-0.20200497 -0.35404104 -0.24936862
0.034083068 -0.35404098 -0.24831672
0.071828239 -0.35404101 -0.24456066
0.228369 -0.19723059 -0.24533515
-0.24864 0.1843307 -0.24533641
-0.24864 0.20777956 -0.24056607
-0.20392039 0.35404101 -0.24684782
-0.04217311 0.35404101 -0.24867935
0.17545566 0.35404098 -0.24192019
-0.16375037 -0.35404101 -0.23272948
0.228369 -0.25553194 -0.23727679
0.228369 -0.10940444 -0.23945609
-0.24864 -0.072480872 -0.23970655
0.228369 0.015225429 -0.23158218
0.228369 0.1749813 -0.23552698
-0.22945599 0.35404101 -0.23491612
0.026305821 0.35404104 -0.23568451
0.054900303 0.35404101 -0.23459834
0.16702086 -0.35404101 -0.22069655
-0.24864 -0.21782632 -0.22534066
-0.24864 -0.13887836 -0.22013362
-0.24864 -0.094842263 -0.22463208
0.094907708 0.35404098 -0.22298712
0.13774914 0.35404098 -0.22264077
0.21748613 0.35404104 -0.22841144
-0.24864 -0.26709059 -0.2132211
-0.24864 0.028815567 -0.21736652
-0.24864 0.039090544 -0.21278869
-0.24864 0.19609889 -0.21854058
0.228369 0.19670828 -0.21655068
0.228369 0.2204936 -0.21858148
0.228369 0.24201548 -0.21750921
-0.24864 0.25224608 -0.21272598
0.19681124 0.35404101 -0.21034992
-0.14731921 -0.35404101 -0.20539525
-0.11679246 -0.35404101 -0.20542046
-0.052751042 -0.35404101 -0.20882916
0.228369 -0.30739191 -0.20666848
-0.24864 -0.03056924 -0.20244849
-0.24864 0.0070864856 -0.20499578
0.228369 0.055287443 -0.20683062
-0.24864 0.21561691 -0.20939526
0.13809407 0.35404101 -0.20177025
-0.033358 -0.35404101 -0.1907011
-0.018124707 -0.35404101 -0.19261445
0.090034582 -0.35404104 -0.19782083
0.18857679 -0.35404101 -0.19793473
-0.24863999 -0.27745131 -0.19141087
0.228369 -0.1370278 -0.197328
0.228369 -0.098452881 -0.19946986
0.228369 -0.02149244 -0.19359188
0.228369 0.12948327 -0.19025627
-0.24864 0.15736303 -0.19400375
-0.23203987 0.35404101 -0.19445601
-0.10823727 0.35404098 -0.19920877
0.017181523 0.35404101 -0.19044772
0.15660453 0.35404101 -0.19062968
0.17879032 0.35404101 -0.1998533
0.21157752 0.35404101 -0.19556502
0.1643233 -0.35404101 -0.18542428
-0.24864 -0.25482997 -0.18675628
0.228369 -0.25540552 -0.18452701
-0.079494148 0.033557326 -0.18008602
0.045713019 0.037636138 -0.1802468
-0.085999355 0.042026255 -0.18041989
0.087060429 0.041479804 -0.18039834
0.086235017 0.055942021 -0.18096851
-0.1125286 0.35404101 -0.18266749
0.17966345 0.35404098 -0.18431497
-0.24864 -0.35101783 -0.17701241
-0.12793881 -0.35404098 -0.17585763
-0.046534918 -0.35404101 -0.17630348
0.16626458 -0.35404098 -0.17653467
0.2148129 -0.35404101 -0.17444797
-0.24864 -0.083442256 -0.17997921
0.228369 -0.002148889 -0.17739174
0.0090899002 0.0092720492 -0.17816924
0.13581598 0.0038517425 -0.17648518
0.14760156 0.018872961 -0.17950709
0.15636644 0.019756747 -0.17954193
0.0079313051 0.025749141 -0.17977817
-0.24864 0.049757838 -0.17055815
0.18055475 0.088933639 -0.1746912
0.13712858 0.091113739 -0.17419831
-0.044224869 0.1014297 -0.17186593
-0.13305429 0.35404101 -0.17005162
-0.077793218 0.35404101 -0.17248976
-0.045615442 0.35404101 -0.17968145
-0.054234151 -0.35404101 -0.16516541
0.228369 -0.15294629 -0.16549568
-0.0044284277 -0.037770439 -0.1619187
0.063050114 -0.039629608 -0.16074522
0.076057069 -0.026931221 -0.16692102
0.10909972 -0.02803641 -0.16657765
0.19323599 0.0058600414 -0.16518721
0.19323599 0.078840889 -0.16897714
0.228369 0.09252587 -0.16101277
-0.10051249 0.35404101 -0.16668856
-0.060598522 0.35404101 -0.16336893
0.18336338 0.35404101 -0.16004674
0.090591818 -0.35404101 -0.15822126
-0.24864 -0.23232064 -0.15321514
-0.24864 -0.10997105 -0.15877047
-0.030520592 -0.052818727 -0.15242049
0.064667068 -0.052447908 -0.15265456
-0.24864 0.032180645 -0.15693113
0.19323599 0.082816817 -0.15694609
0.13748284 0.1450464 -0.15055054
0.228369 0.18436641 -0.15485853
-0.24864 0.29114416 -0.15269026
-0.11404199 0.35404101 -0.15696865
-0.10568586 0.35404098 -0.15836401
-0.10467509 -0.35404101 -0.14981087
0.228369 -0.32666612 -0.14143033
-0.049692001 -0.068896838 -0.14227229
0.17890419 -0.062876537 -0.14607219
-0.0891864 -0.032054219 -0.14065209
-0.24864 0.099543348 -0.14960974
0.19323599 0.098921746 -0.14452069
-0.056495085 0.15533441 -0.14261498
0.228369 0.2675702 -0.14076643
-0.24864 0.27471551 -0.14390936
-0.24864 0.34019411 -0.1477277
0.17296866 0.35404101 -0.14441498
0.228369 -0.11204085 -0.13980971
0.15367074 -0.081243284 -0.13073586
-0.24864 -0.072739825 -0.13782406
0.021765403 -0.075337455 -0.13712686
0.1424699 -0.076207951 -0.13618484
0.19323599 -0.070446856 -0.13890652
0.19323599 -0.051718965 -0.13131022
-0.0891864 -0.014620081 -0.13026609
0.23647699 0.013817146 -0.13994406
-0.0891864 0.057947919 -0.13004722
0.228369 0.12426266 -0.13793097
0.19323599 0.13993131 -0.13643304
-0.24864 0.14250787 -0.13344
0.18428162 0.16049224 -0.13784865
-0.047655091 0.35404101 -0.13863455
-0.020903416 0.35404104 -0.13070662
0.19038782 0.35404101 -0.13633522
0.20670359 0.35404101 -0.13718864
-0.07509426 -0.35404101 -0.12770665
0.10465385 -0.35404104 -0.12034789
0.228369 -0.28058413 -0.12362283
0.228369 -0.26814884 -0.12380569
0.228369 -0.23201962 -0.12567547
0.228369 -0.1523343 -0.12538224
0.228369 -0.12143613 -0.12635313
-0.026599679 -0.09042988 -0.12079458
0.094006673 -0.088929072 -0.12241868
0.19323599 -0.079650864 -0.12564483
-0.24864 0.085536405 -0.1282924
0.19323599 0.10482219 -0.12829635
0.023476735 0.17257972 -0.12667874
0.04592124 0.17394045 -0.1254213
0.228369 0.26521793 -0.1231655
0.228369 0.275639 -0.12882569
0.245937 0.29866755 -0.12805508
0.051058672 0.35404101 -0.12581
0.085564367 0.35404101 -0.12141427
-0.1769698 -0.35404101 -0.11924182
0.228369 -0.34023696 -0.11194104
-0.24864 -0.17338116 -0.11744898
0.228369 -0.14289019 -0.11470819
-0.24864 -0.13401203 -0.11156674
-0.035425313 -0.099107713 -0.11140388
0.058528762 -0.098238848 -0.1123441
0.085399352 -0.092470385 -0.11858645
0.14243546 -0.093789004 -0.11715952
0.19323599 -0.083240114 -0.11723335
0.228369 -0.084514014 -0.11971361
0.19323599 -0.020573445 -0.11809897
-0.24864 0.042293802 -0.1191626
0.22136825 0.070376799 -0.11082824
0.19323599 0.15250018 -0.11056576
-0.24864 0.26618728 -0.11300454
0.24593702 0.27295807 -0.11832564
-0.21674325 0.35404104 -0.1171582
-0.20561174 0.35404101 -0.11551071
0.063352853 0.35404101 -0.11076146
0.010518625 -0.10205431 -0.1082152
0.10841108 -0.1035396 -0.10660788
0.13406631 -0.1031358 -0.10704486
-0.0891864 -0.091425829 -0.10760567
0.19323599 -0.061524171 -0.10445122
0.2209475 0.090372987 -0.10414646
0.19323599 0.11005068 -0.10294021
-0.0891864 0.13468936 -0.10277276
0.228369 0.199866 -0.10931578
-0.24864 0.20473921 -0.10670558
0.2454614 0.28943172 -0.10683978
-0.24864 0.2949824 -0.10272367
-0.24864 0.31406704 -0.10267982
0.11614657 0.35404101 -0.10824879
0.228369 -0.33998477 -0.093952954
-0.018918246 -0.10844459 -0.098692387
0.23399529 -0.085936345 -0.092186078
-0.24864 -0.026713066 -0.093097292
-0.0891864 0.0039206818 -0.099352807
-0.24864 0.04073998 -0.097044945
0.19323599 0.078787208 -0.09735322
-0.24864 0.08551123 -0.092194721
-0.24864 0.11374125 -0.090903625
-0.0891864 0.12796044 -0.090938985
-0.088851631 0.19589266 -0.09726242
-0.052629456 0.19687727 -0.09570244
0.039620455 0.19489545 -0.098842382
0.228369 0.21026024 -0.091488175
-0.037819147 -0.35404101 -0.082603261
0.07988593 -0.35404101 -0.088686377
-0.24864 -0.28696328 -0.084076382
-0.24864 -0.24066052 -0.086268902
0.228369 -0.20982075 -0.084042117
-0.24864 -0.18297221 -0.081304893
-0.24864 -0.17509569 -0.080948263
-0.043946642 -0.1160406 -0.084248781
-0.020639326 -0.11375325 -0.088598125
0.16083182 -0.11318077 -0.089686669
0.19323599 -0.11285271 -0.087357223
-0.24864 -0.064755023 -0.085562602
0.21927449 -0.041327931 -0.080641448
-0.24864 -0.03504888 -0.081650227
0.19323599 0.088025764 -0.084799707
0.017253723 0.2022402 -0.087205537
0.11392457 0.20101833 -0.089141421
0.14475444 0.20599639 -0.081254326
-0.24864 0.24446431 -0.083317891
0.228369 0.33924732 -0.083233654
-0.15214011 -0.35404104 -0.078511707
-0.24863999 -0.33509699 -0.07282304
0.228369 -0.17273745 -0.078061275
0.228369 -0.14375442 -0.074673347
0.11932367 -0.11839908 -0.07976421
-0.24864 -0.053460225 -0.072048396
0.20995292 -0.049462765 -0.07297232
0.19323599 0.032257434 -0.077649444
-0.24864 0.049473543 -0.07049185
0.19323599 0.057768859 -0.07567402
-0.24864 0.070978224 -0.075323582
-0.0891864 0.072757587 -0.075374708
-0.0891864 0.085624039 -0.07634636
0.19323599 0.16373345 -0.077530108
0.228369 0.19561429 -0.07690376
0.073815599 0.20742485 -0.078991085
0.16323961 0.21004106 -0.073777199
-0.24864 0.28631482 -0.07800357
0.20742738 0.35404101 -0.076888151
0.228369 0.35403001 -0.079768173
-0.24426737 -0.35404101 -0.061888583
-0.019488258 -0.35404101 -0.067444026
0.013825439 -0.35404101 -0.060490228
0.228369 -0.2168325 -0.065221302
0.19323599 0.13135415 -0.060404509
0.19323599 0.17342347 -0.061140507
0.10547819 0.21319571 -0.063623711
-0.071995579 0.35404101 -0.0696254
0.062896259 -0.35404101 -0.053713888
0.20950095 -0.35404101 -0.053872764
0.228369 -0.28621179 -0.052960441
0.22868502 -0.10435203 -0.059876747
0.19323599 -0.092601262 -0.050459526
0.23647699 -0.060114436 -0.057233781
0.0085343644 0.2158455 -0.055095136
-0.24864 0.2557683 -0.057981648
-0.053082164 0.35404101 -0.056682907
-0.22380687 -0.35404101 -0.04816132
0.0091143623 -0.35404098 -0.047172181
0.080149569 -0.35404101 -0.048256598
0.22551057 -0.35404101 -0.04018347
-0.24864 -0.27441335 -0.04035113
0.228369 -0.2537598 -0.04735272
-0.24864 -0.22719657 -0.04477258
-0.24864 -0.17859046 -0.041568715
0.057365749 -0.13208409 -0.042006742
0.12814926 -0.13146266 -0.04475512
0.19323599 0.098760553 -0.045122314
0.19323599 0.14759628 -0.045173716
0.23647702 0.14895533 -0.049264237
0.19323599 0.15156506 -0.043743595
-0.24864 0.16640286 -0.040198084
-0.049350373 0.2182245 -0.047438141
0.04885681 0.21749507 -0.049785856
-0.23368454 -0.35404101 -0.030879311
-0.19203864 -0.35404101 -0.039719775
-0.087774634 -0.35404098 -0.031559948
0.026361778 -0.35404101 -0.032880865
0.095160812 -0.35404101 -0.030830249
0.10448672 -0.35404098 -0.036755845
0.15931143 -0.35404101 -0.036565095
0.22618772 -0.35404101 -0.036226884
-0.24864 -0.33922556 -0.034107499
-0.24864 -0.16808905 -0.03904745
-0.049578357 -0.134298 -0.032215711
0.032517493 -0.13344988 -0.035966538
0.19323599 -0.043762729 -0.035092026
-0.24864 -0.016829446 -0.039906614
-0.24864 0.029128015 -0.039616108
-0.0891864 0.15633784 -0.033977441
0.19323599 0.15786555 -0.034272384
-0.24863999 0.18297493 -0.031735763
-0.0891864 0.2039787 -0.038348734
-0.24864 0.31161684 -0.032718956
-0.074051328 0.35404101 -0.033448957
0.1739756 0.35404101 -0.039495122
-0.16004197 -0.35404101 -0.026463462
-0.0088802874 -0.35404101 -0.029139414
0.001886256 -0.13523287 -0.028081194
-0.0891864 -0.053143628 -0.024857845
0.19323599 -0.047790647 -0.021685353
-0.24864 -0.037937686 -0.022967868
0.19323599 0.044212364 -0.025189748
0.19323599 0.16804825 -0.023856238
0.049168937 0.22361088 -0.028022729
0.063026421 0.22384137 -0.022176385
-0.21423043 0.35404101 -0.020104624
-0.054053172 0.35404101 -0.025346272
-0.022024484 0.35404101 -0.026994569
0.11188164 0.35404101 -0.02870924
-0.15029249 -0.35404104 -0.012841221
-0.10186803 -0.35404101 -0.014570631
0.228369 -0.25098273 -0.015187066
-0.24864 -0.23589674 -0.01107686
-0.24864 -0.1382567 -0.014549736
0.228369 -0.13204961 -0.0199876
-0.24864 -0.1115247 -0.015724212
0.19323599 -0.089711711 -0.010977315
-0.24864 -0.060649812 -0.010930277
-0.0891864 -0.023717169 -0.016107386
-0.0891864 0.016355796 -0.013574117
0.19323599 0.034826081 -0.015715718
-0.24864 0.064522393 -0.014129115
-0.0891864 0.12962785 -0.014019532
-0.0891864 0.16744429 -0.011110714
0.228369 0.32891101 -0.015481336
-0.24237569 0.35404101 -0.018148027
-0.17634401 0.35404101 -0.012672231
0.032199282 0.35404101 -0.019311063
0.089976497 0.35404101 -0.012372855
0.0056600422 -0.35404101 -0.0094641745
0.228369 -0.18963337 -0.0065673944
-0.24864 -0.1500605 -0.001770135
0.097908489 -0.13740478 -0.0027856259
-0.24864 -0.070771299 -0.00097724795
0.22533603 -0.074658968 -0.001440285
0.19323599 0.063697658 -0.00018686242
-0.0891864 0.094768271 -0.0077545312
-0.24864 0.18997233 -0.00049006939
-0.24864 0.29303551 -0.0074056834
0.228369 0.31348732 -0.0083482582
0.228369 0.3240796 -0.0020416379
0.071889877 0.35404101 -0.00036516413
0.10432673 0.35404098 -0.0096627958
0.13824072 -0.35404101 0.0087397546
-0.085755304 -0.13695799 0.0085353525
0.19323601 -0.12460368 0.0066607231
0.23647702 -0.088176131 0.0069889845
-0.24864 -0.069872722 0.00253007
0.19323599 -0.049339645 0.00046433162
-0.24864 0.10821122 0.005726248
0.19323599 0.16736768 0.0074877581
-0.24864 0.21837118 0.0053587183
-0.24864 0.22435601 0.0056132451
-0.070359573 0.22506323 0.0088168308
-0.0055827051 0.2250672 0.0089171398
-0.14846343 -0.35404101 0.010339949
-0.24864 -0.30454427 0.01728037
-0.24864 -0.23815536 0.012062326
0.057967421 -0.13654377 0.019031053
0.21055382 -0.075050622 0.011369711
0.236477 0.18202795 0.01252766
0.0060991496 0.22538601 0.017004151
0.17158279 0.22513843 0.010723817
0.228369 0.31286699 0.018673476
-0.19152679 0.35404101 0.018040024
-0.025632858 -0.35404101 0.028568693
0.15242776 -0.35404101 0.027647631
0.18409427 -0.35404101 0.027375095
0.228369 -0.28378651 0.02947218
0.228369 -0.18775946 0.022791982
0.228369 -0.13958205 0.027252041
-0.24863999 -0.099920876 0.027743205
0.19323599 -0.067918569 0.028147925
0.19323599 -0.013929442 0.02262539
-0.0891864 0.0056178495 0.021742392
-0.24864 0.092733912 0.029974919
-0.24864 0.13184753 0.021352388
-0.24864 0.15088998 0.025117792
-0.10146139 0.35404101 0.026242107
-0.24765116 -0.35404101 0.034465395
0.020555019 -0.35404101 0.031908564
0.10144538 -0.35404104 0.031956699
0.20887913 -0.35404101 0.034836009
-0.24864 -0.29943943 0.039220959
0.228369 -0.21120909 0.03186433
0.228369 -0.15684745 0.036111027
0.228369 -0.12806566 0.036650881
-0.24864 -0.058022927 0.03159748
-0.0891864 -0.05251598 0.0372825
-0.0891864 -0.0030944124 0.035038576
-0.0891864 0.11256303 0.034580961
-0.24864 0.14700486 0.033770613
0.014349586 0.22087018 0.037185483
-0.24864 0.29740262 0.033367656
0.228369 0.29621685 0.036352701
-0.063960016 -0.35404101 0.047015339
-0.014826749 -0.35404101 0.047085658
0.080371246 -0.35404101 0.043761082
0.19079463 -0.35404101 0.040957056
0.228369 -0.1972969 0.043587252
0.228369 -0.14874431 0.048905566
-0.0891864 -0.1046195 0.044193342
0.19323599 0.050609481 0.04805268
-0.0891864 0.065030336 0.044948015
0.2361045 0.14701633 0.046563413
0.094583765 0.21911478 0.044949509
0.228369 0.31197336 0.048522491
0.05205714 0.35404101 0.04789352
0.099057049 0.35404101 0.043845244
-0.24496391 -0.35404101 0.057293877
0.14147462 -0.35404101 0.052940343
-0.24864002 -0.2546044 0.05272951
-0.24864 -0.19610542 0.054034635
-0.0891864 -0.091824971 0.058949292
-0.24864 -0.082294941 0.059591524
0.23377514 -0.060709875 0.055484086
0.21561539 -0.059676427 0.057407465
0.19323599 0.027155459 0.057587586
0.11457803 0.21772161 0.051111467
0.228369 0.22049126 0.050621159
0.228369 0.25322855 0.054897659
-0.1747869 -0.35404101 0.06103345
0.16146743 -0.35404101 0.064147122
-0.24864 -0.32359648 0.06348218
-0.24864 -0.21123706 0.062310155
0.11977846 -0.12563536 0.064976394
0.19323599 -0.12194105 0.067940965
-0.24864 -0.093228161 0.061017338
-0.0891864 -0.096490234 0.064294927
-0.0891864 -0.018023975 0.060007263
-0.24864 -0.0088751353 0.062527783
-0.040557396 0.21537636 0.061484393
0.095843159 0.21273032 0.067739487
0.19323599 0.21448478 0.061846685
-0.0052264966 -0.35404101 0.073808894
0.19575217 -0.35404101 0.074138917
0.228369 -0.27784887 0.07813362
-0.24864 -0.22190839 0.078027964
-0.24864 -0.13748324 0.07389503
0.097413898 -0.12140453 0.077743918
0.19323599 -0.033247761 0.076594442
-0.24864 -0.01531684 0.075552806
0.19499278 0.12657978 0.07777667
-0.0891864 0.15054107 0.074846983
0.228369 0.1893324 0.07532981
-0.24864 0.24101929 0.077463709
-0.24864 0.26302195 0.076216452
0.13841885 0.35404104 0.072654784
-0.044966646 -0.35404101 0.0861893
0.228369 -0.32046261 0.083164968
0.228369 -0.2007519 0.089748502
0.22836898 -0.15237744 0.084239475
-0.24864 -0.14245252 0.085507534
-0.24864 -0.12263157 0.08809647
0.228369 -0.12681448 0.080300674
0.11599537 -0.11878205 0.08189895
0.12732817 -0.11902257 0.081517875
-0.0891864 0.086203106 0.08063636
0.236477 0.1639061 0.08491116
0.228369 0.20864263 0.08776556
0.228369 0.2698769 0.081266679
0.17448466 -0.35404101 0.094841838
0.228369 -0.25038385 0.094861992
-0.24864 -0.22376724 0.090777181
0.228369 -0.18042335 0.091039598
0.228369 -0.15467209 0.091897801
0.1966998 -0.026271867 0.094659679
0.19323599 0.021571839 0.098149888
0.19323599 0.045979969 0.097882807
-0.0891864 0.054036327 0.094241112
0.22429952 0.1037614 0.097351417
-0.0891864 0.14207633 0.09152218
0.23220365 0.16802838 0.091785371
-0.24864 0.35050565 0.092657834
-0.17794508 0.35404101 0.092196971
-0.22919783 -0.35404101 0.10740026
-0.19225356 -0.35404104 0.10518248
-0.10125609 -0.35404101 0.1068202
-0.084582195 -0.35404101 0.10453586
-0.24864 -0.20339088 0.10389008
-0.0891864 -0.10573056 0.10249159
0.01897344 -0.10259708 0.10754226
0.19323599 -0.058395561 0.10940086
0.19323599 0.013782087 0.10890308
0.15792827 0.18910106 0.10970069
-0.24864 0.33400571 0.10200709
0.031391092 -0.35404101 0.11089386
0.1093437 -0.35404101 0.1166684
-0.24864 -0.21617714 0.11603895
-0.24864 -0.20908158 0.11906403
-0.24864 -0.10735552 0.11803916
0.228369 -0.10020711 0.11388548
-0.024614338 -0.098102078 0.11466409
0.11649021 -0.096457638 0.11723681
0.19323599 -0.078766078 0.1149919
0.228369 -0.075875178 0.1160677
0.236477 0.118619 0.119436
0.017506996 0.18764214 0.11127948
0.216208 0.24425583 0.11881992
-0.24864 0.30406222 0.11134408
-0.23825692 0.35404101 0.11855745
-0.18843754 0.35404104 0.11806627
0.086951502 0.35404101 0.11559247
0.19051191 0.35404101 0.11057849
0.19780222 -0.35404101 0.12241028
-0.24864 -0.3208856 0.12400259
-0.24864 -0.12643334 0.1242912
-0.24864 -0.082380794 0.1253534
0.23050933 -0.056945749 0.12371576
-0.0891864 -0.026960799 0.12500517
0.19323599 0.09736526 0.12560913
-0.041957945 0.17661574 0.12321201
0.01706709 0.1719467 0.12826473
0.039494261 0.17089576 0.12940204
0.12109642 0.17115353 0.12912309
0.228369 0.21305768 0.1208988
0.228369 0.23528036 0.12562554
0.22254679 0.259545 0.12378956
0.228369 0.28336349 0.12903601
-0.24864 0.30637506 0.12611753
0.18060274 0.35404101 0.12397245
0.046893962 -0.35404101 0.13985807
0.17931293 -0.081691593 0.13088174
-0.011909636 -0.076851815 0.13535406
0.035193179 -0.076189369 0.1359662
0.045556411 -0.079210512 0.13317445
0.19323599 0.0072419792 0.13358168
-0.0891864 0.010920987 0.13360432
0.19323599 0.040996473 0.13808683
-0.24864 0.10243846 0.13042888
0.054126196 0.16838369 0.13212056
0.18708694 0.16814424 0.13237965
0.228369 0.28894761 0.13430309
-0.038690474 0.35404101 0.13362435
-0.023943596 0.35404101 0.13039383
-0.24864 -0.35204685 0.14334923
0.10454572 -0.35404101 0.14388856
0.228369 -0.3506794 0.14019735
-0.24864 -0.31919777 0.14286897
0.228369 -0.29097304 0.14410408
0.228369 -0.15965185 0.14499712
-0.025996435 -0.070816994 0.14093068
0.0072917491 0.15679425 0.14303431
0.065688103 0.15435885 0.14457145
0.228369 0.15600152 0.14148438
-0.24864 0.16086259 0.14623258
-0.24864002 0.26105124 0.14403772
0.228369 0.26187688 0.14948675
0.14198153 0.35404101 0.14645536
-0.17767155 -0.35404101 0.15518957
-0.15785232 -0.35404101 0.15557803
-0.24864 -0.32881683 0.15188193
0.228369 -0.25880003 0.15574126
-0.0891864 -0.041782174 0.15183054
0.19323599 0.026807856 0.15386884
0.19323599 0.043543089 0.15366301
0.23402208 0.058244668 0.15666331
0.228369 0.071550295 0.15827563
-0.075416774 0.13248746 0.15837574
0.1270934 0.13290805 0.15811029
0.21620801 0.24004807 0.15809596
-0.13248688 0.35404101 0.15753949
-0.045667507 0.35404101 0.15399034
0.13029218 0.35404101 0.15678333
0.20483163 0.35404101 0.15524213
-0.22412156 -0.35404101 0.16221552
-0.090015002 -0.35404101 0.16840443
0.14625475 -0.35404101 0.16439214
0.18394646 -0.35404101 0.16865298
0.228369 -0.26029611 0.1681779
-0.24864002 -0.24321306 0.16879009
-0.24864 -0.13213444 0.16228592
0.228369 -0.13475439 0.16814598
0.063613936 -0.034743637 0.16359907
0.048502259 -0.026550286 0.16790803
-0.24864 0.028551459 0.16706336
0.10213519 0.11617453 0.16740356
0.11667887 0.12852192 0.16087863
0.15136451 0.1273946 0.16159014
0.19314136 0.12019719 0.16613285
-0.24864 0.15841909 0.16748838
0.1625834 0.35404101 0.1659492
0.12259743 -0.35404098 0.17627481
0.21574092 -0.35404101 0.17378104
-0.24864 -0.29568732 0.17501332
0.228369 -0.27257049 0.17898245
0.228369 -0.18833616 0.17713813
-0.24864 -0.13119756 0.17168546
0.228369 -0.13936445 0.17008995
0.12242178 -0.012732317 0.17318156
0.16705918 -0.012382038 0.17326075
0.16271888 -0.0048548635 0.17496276
-0.041534469 0.016839987 0.17986827
0.084007479 0.012537388 0.1788954
0.19285128 0.011970581 0.17876723
0.19323599 0.029476177 0.17459515
0.013457544 0.088408314 0.17603034
0.10699269 0.085120589 0.17705183
-0.020137142 0.090708748 0.17531562
0.1647431 0.099311069 0.17264292
0.010029361 0.10334595 0.17138931
0.228369 0.1139503 0.17755121
-0.24864 0.12048726 0.17227839
0.228369 0.12249105 0.17535733
-0.24864 0.29988724 0.17753762
-0.0045133829 0.35404098 0.17043112
-0.05714342 -0.35404101 0.18665636
0.095785677 -0.35404098 0.18833055
0.228369 -0.21060927 0.18214384
0.228369 -0.17480046 0.18234919
0.065621048 0.018177737 0.18017076
0.085929215 0.022083825 0.18105398
-0.027097721 0.06441357 0.18070792
-0.24864 0.11674801 0.18555768
0.228369 0.15348881 0.18202248
-0.21064669 0.35404104 0.18804845
-0.01816684 0.35404104 0.18159561
0.024166867 0.35404101 0.18019387
0.091469117 0.35404101 0.18630442
0.21930654 0.35404101 0.18439738
0.22741455 0.35404101 0.18574755
0.14881897 -0.35404101 0.1977109
0.15810964 -0.35404098 0.19362906
0.228369 -0.13578182 0.19120051
0.228369 -0.05788384 0.19463429
-0.24864 0.16155852 0.19748372
-0.071287543 0.35404101 0.19000179
-0.025944687 0.35404101 0.19402534
-0.01324033 0.35404098 0.19426909
0.21902643 0.35404098 0.19907263
-0.13572875 -0.35404101 0.20250604
0.080793075 -0.35404104 0.20715466
0.11987293 -0.35404098 0.20568073
0.228369 -0.27670315 0.20103694
0.228369 0.13458259 0.20796303
-0.24864 0.21408607 0.20736513
0.228369 0.30915493 0.20240107
0.22836898 0.31892765 0.20791259
-0.24864 0.35084811 0.20208544
0.20607223 0.35404098 0.20975398
0.099775262 -0.35404101 0.21355394
0.17302154 -0.35404101 0.21586813
-0.24864 -0.28828499 0.21524134
0.228369 -0.18172434 0.21361014
-0.24864 -0.15299664 0.21521032
-0.24864 -0.11342929 0.21478209
-0.24864 0.033263832 0.21614045
0.228369 0.071126267 0.21661747
0.228369 0.10100938 0.21560033
0.228369 0.21164684 0.21531069
0.2244779 0.23792499 0.21047887
-0.24864 0.27250528 0.21048597
-0.16450493 0.35404101 0.21272211
0.17830157 0.35404101 0.21632817
0.17304625 -0.35404104 0.22091091
-0.24864 -0.14899305 0.22011212
-0.24864 0.008034803 0.22441328
-0.24864 0.082449481 0.22114071
0.228369 0.19062038 0.22358431
-0.24864 0.24819052 0.22194761
-0.19241147 0.35404101 0.22178935
-0.13462739 -0.35404101 0.2308626
-0.025275066 -0.35404101 0.23254073
-0.24864 -0.22387332 0.23218594
0.228369 -0.069015935 0.23142201
-0.24864 0.045549154 0.23524474
0.228369 0.13944656 0.23537549
0.228369 0.1687465 0.236157
-0.24864 0.2226045 0.23122752
-0.24864 0.25772196 0.23469922
0.228369 0.31943437 0.23638345
-0.14379865 0.35404098 0.23690487
-0.13058412 0.35404101 0.23290133
-0.14095387 -0.35404104 0.24983707
-0.051409937 -0.35404104 0.24521941
0.228369 -0.2952283 0.24745283
-0.24864 -0.080577105 0.24482897
0.228369 0.068063423 0.24859878
-0.24864002 0.21329971 0.24510849
-0.24864 0.25117153 0.24050361
-0.074687816 0.35404098 0.24095346
-0.22853613 -0.35189161 0.25066599
0.0050901207 -0.34851435 0.25066599
0.096341856 -0.34019864 0.25066599
-0.13278349 -0.32404014 0.25066599
-0.23374246 -0.31147239 0.25066599
0.040105589 -0.31186005 0.25066599
0.15245324 -0.3172366 0.25066599
-0.12802872 -0.30083498 0.25066599
0.026683785 -0.30428672 0.25066599
0.1649193 -0.30073175 0.25066599
-0.23130447 -0.29802176 0.25066599
0.082326122 -0.28006878 0.25066599
-0.13496631 -0.27529076 0.25066599
0.16589688 -0.26068369 0.25066599
0.20718391 -0.24011981 0.25066599
-0.054264501 -0.23300983 0.25066599
-0.22389677 -0.22937518 0.25066599
-0.0095467418 -0.22800082 0.25066599
0.042724248 -0.22449052 0.25066599
0.053825736 -0.21553674 0.25066599
0.083578043 -0.21789853 0.25066599
0.2001707 -0.2172194 0.25066599
0.095715672 -0.2048517 0.25066599
-0.15452214 -0.19458064 0.25066596
0.078263804 -0.19962868 0.25066599
-0.16855864 -0.18263745 0.25066599
-0.03558781 -0.18569547 0.25066599
-0.22836673 -0.17944509 0.25066599
-0.21350844 -0.17717072 0.25066599
0.11721612 -0.17739154 0.25066599
-0.2427866 -0.16417018 0.25066599
-0.10288033 -0.16666049 0.25066599
-0.13607655 -0.15674531 0.25066599
-0.06490887 -0.15790892 0.25066599
0.11179294 -0.15486498 0.25066599
-0.13507248 -0.14653307 0.25066599
0.12523434 -0.14076261 0.25066599
0.15611865 -0.14790797 0.25066599
-0.067625761 -0.13404033 0.25066599
0.10075455 -0.13589203 0.25066599
0.19929281 -0.1321484 0.25066599
0.13032703 -0.12622465 0.25066599
0.17057048 -0.12345532 0.25066599
-0.0054567978 -0.11683726 0.25066599
-0.074888811 -0.10940142 0.25066599
0.045987334 -0.1018443 0.25066599
-0.22311138 -0.099329218 0.25066599
-0.062677614 -0.095780939 0.25066599
0.0044080466 -0.096534774 0.25066599
0.079134494 -0.098784626 0.25066599
-0.12448563 -0.08522974 0.25066599
-0.09251599 -0.088368215 0.25066599
-0.05755635 -0.081798911 0.25066599
0.11762145 -0.083309069 0.25066599
-0.17376298 -0.077751622 0.25066599
0.21948504 -0.052824497 0.25066599
-0.1853645 -0.043546308 0.25066599
-0.15761271 -0.043425962 0.25066599
0.089076474 -0.049315132 0.25066599
0.15097927 -0.049936563 0.25066599
0.1805031 -0.041564748 0.25066599
-0.21897233 -0.033074617 0.25066599
-0.13339651 -0.030943856 0.25066599
-0.052573018 -0.039777145 0.25066599
-0.02327284 -0.030471224 0.25066599
0.13604589 -0.032682702 0.25066599
-0.18468137 -0.01690793 0.25066599
-0.14594921 -0.012023315 0.25066599
-0.11442406 -0.013066486 0.25066599
-0.083015636 -0.019651204 0.25066599
0.13494211 -0.019102365 0.25066599
-0.042390466 -0.0057234578 0.25066599
0.029738814 -0.0030584186 0.25066599
0.10500078 -0.0026969165 0.25066599
0.12826568 -0.0081419609 0.25066599
-0.034564018 0.0016694963 0.25066599
0.22632059 0.0069445074 0.25066599
-0.19545072 0.011936411 0.25066599
-0.23656185 0.023678705 0.25066599
-0.097090237 0.023092091 0.25066599
0.010567792 0.02555497 0.25066599
0.075610206 0.024057008 0.25066599
0.098380551 0.026101679 0.25066599
0.13790518 0.029863913 0.25066599
0.10895793 0.030648639 0.25066599
0.1979093 0.032112956 0.25066599
-0.06433776 0.048857566 0.25066599
-0.045316078 0.050306838 0.25066599
-0.20602193 0.067837119 0.25066599
-0.19768338 0.075942427 0.25066599
-0.15929464 0.075253963 0.25066599
0.032913987 0.075332522 0.25066599
0.09514571 0.076404333 0.25066599
-0.21675202 0.089380741 0.25066599
-0.16579986 0.089252815 0.25066599
0.18685681 0.088092394 0.25066599
0.075401641 0.09168826 0.25066599
0.12134062 0.094364569 0.25066599
0.21572158 0.094997831 0.25066599
-0.16621268 0.11668339 0.25066599
-0.098463424 0.11157673 0.25066599
-0.073664233 0.1125994 0.25066599
-0.026168842 0.11608725 0.25066599
-0.013294157 0.11698327 0.25066599
-0.069693334 0.12091577 0.25066599
-0.1699456 0.14456303 0.25066599
-0.23769234 0.15508009 0.25066599
0.17225999 0.15097275 0.25066599
-0.24330099 0.16599131 0.25066599
-0.11549639 0.1641532 0.25066599
-0.19557148 0.17833009 0.25066599
-0.15396909 0.18547621 0.25066599
0.20224437 0.1938426 0.25066599
-0.24682936 0.2282245 0.25066599
-0.16343816 0.22587381 0.25066599
-0.085476175 0.23561916 0.25066599
-0.066022567 0.23474434 0.25066599
0.17589027 0.23498508 0.25066599
-0.095775254 0.24656875 0.25066599
0.084938467 0.24070598 0.25066599
0.0047010183 0.25287494 0.25066599
-0.24495366 0.26522133 0.25066599
-0.015738148 0.2622833 0.25066599
-0.22508734 0.2725265 0.25066599
0.18427581 0.27501142 0.25066599
0.072748326 0.2804243 0.25066599
-0.11834023 0.29830375 0.25066599
-0.16474058 0.30734116 0.25066599
-0.12715361 0.30022687 0.25066599
-0.0019774362 0.30401933 0.25066599
0.049888808 0.3127996 0.25066599
0.11493991 0.31898093 0.25066599
0.14445847 0.31250754 0.25066599
0.15977074 0.32333028 0.25066599
-0.24541277 0.33725709 0.25066599
-0.13306099 0.33183032 0.25066599
0.1868422 0.33788556 0.25066599
0.13370754 0.35116097 0.25066599
