# .PCD v0.7 - Point Cloud Data file format
VERSION 0.7
FIELDS x y z
SIZE 4 4 4
TYPE F F F
COUNT 1 1 1
WIDTH 982
HEIGHT 1
VIEWPOINT 0 0 0 1 0 0 0
POINTS 982
DATA ascii
-0.077961549 -0.31375301 -0.26438943
-0.24451762 -0.30361268 -0.265019
-0.0094541535 -0.30298752 -0.265019
0.17265041 -0.30280608 -0.265019
-0.042315274 -0.29042432 -0.265019
0.042507149 -0.29364151 -0.265019
-0.17270932 -0.28475246 -0.265019
-0.10306866 -0.28031194 -0.265019
-0.063632451 -0.27571392 -0.265019
0.13194506 -0.27867445 -0.265019
-0.094632939 -0.26496205 -0.265019
0.048917994 -0.2623412 -0.265019
0.054645807 -0.26828393 -0.265019
0.13914172 -0.2607522 -0.265019
0.19570442 -0.26329029 -0.265019
-0.057402395 -0.25258797 -0.265019
0.13231742 -0.25255132 -0.265019
0.18924345 -0.25034487 -0.265019
0.079587832 -0.24937668 -0.265019
-0.26866341 -0.23941369 -0.265019
0.096143372 -0.23703629 -0.265019
0.2100656 -0.2300472 -0.265019
-0.26351207 -0.22593287 -0.265019
-0.11427537 -0.22379243 -0.265019
-0.08312007 -0.22365965 -0.265019
-0.16033082 -0.2034516 -0.265019
-0.082177415 -0.20448524 -0.265019
-0.043307438 -0.20477438 -0.265019
0.041273341 -0.20525764 -0.265019
0.18118705 -0.20032693 -0.265019
-0.11938434 -0.19863167 -0.265019
0.13626447 -0.19313684 -0.265019
0.15949097 -0.19300056 -0.265019
-0.24885687 -0.18532808 -0.265019
-0.11365758 -0.18664162 -0.265019
-0.0075713545 -0.18040346 -0.265019
-0.1829647 -0.1651043 -0.265019
0.19605166 -0.15249249 -0.265019
0.18238388 -0.14205399 -0.265019
0.22514676 -0.14462143 -0.265019
-0.22848991 -0.13320695 -0.265019
0.078769095 -0.13422507 -0.265019
0.098742783 -0.1304487 -0.265019
-0.23446378 -0.12299515 -0.265019
0.19486696 -0.12140749 -0.265019
-0.23609076 -0.11577684 -0.265019
-0.17946497 -0.11144494 -0.265019
-0.042713787 -0.11002491 -0.265019
-0.25606772 -0.092020854 -0.265019
-0.0097516403 -0.090999372 -0.265019
-0.16417554 -0.08983171 -0.265019
-0.13501044 -0.080754295 -0.265019
-0.18625528 -0.079420283 -0.265019
-0.074063271 -0.070948713 -0.265019
-0.067849353 -0.073017843 -0.265019
0.18306313 -0.073015511 -0.265019
-0.20203273 -0.069665805 -0.265019
0.11525248 -0.065397941 -0.265019
-0.27426565 -0.053039715 -0.265019
0.056897715 -0.051251948 -0.265019
-0.19163769 -0.046487939 -0.265019
0.0082468893 -0.046592101 -0.265019
0.18598278 -0.046322092 -0.265019
-0.15249917 -0.032364249 -0.265019
-0.040535528 -0.033788484 -0.265019
0.21026981 -0.035632011 -0.265019
-0.22130141 -0.029005282 -0.265019
-0.027984194 -0.026063904 -0.265019
-0.25299826 -0.010216134 -0.265019
-0.2345462 -0.011313699 -0.265019
-0.11395462 -0.012075633 -0.265019
-0.056583658 -0.016293883 -0.265019
-0.025898483 -0.013364226 -0.265019
0.039969303 -0.013060957 -0.265019
0.10694028 -0.017020278 -0.265019
-0.22505124 0.0048338845 -0.265019
-0.10670301 0.00051892921 -0.265019
-0.20187341 0.015584208 -0.265019
-0.17101406 0.011324845 -0.265019
-0.011180341 0.01938802 -0.265019
-0.26213115 0.027192552 -0.265019
-0.02975351 0.028391788 -0.265019
-0.15302804 0.031302866 -0.265019
-0.0081477985 0.033135191 -0.265019
0.1967826 0.043509036 -0.265019
0.21861154 0.04401727 -0.265019
-0.22736979 0.050739773 -0.265019
-0.047538981 0.05263488 -0.265019
-0.018663473 0.055378176 -0.265019
-0.15692766 0.063961551 -0.265019
-0.023997068 0.06293951 -0.265019
0.22096348 0.064164758 -0.265019
-0.17668203 0.089048475 -0.265019
-0.13635558 0.085935786 -0.265019
-0.095333964 0.089033648 -0.265019
-0.0038921535 0.094280496 -0.265019
0.1046804 0.093286373 -0.265019
0.12382048 0.096638016 -0.265019
0.21097609 0.098938674 -0.265019
0.2043875 0.11716377 -0.265019
-0.082536876 0.13017841 -0.265019
0.18890411 0.13840863 -0.265019
-0.14816672 0.14988697 -0.265019
-0.16704337 0.15681677 -0.265019
-0.063076101 0.16664398 -0.265019
-0.035871848 0.16901387 -0.265019
0.11766027 0.1634728 -0.265019
-0.28517401 0.17312929 -0.2641426
-0.22780958 0.17088099 -0.265019
-0.017643984 0.17296469 -0.265019
0.04357319 0.17687124 -0.265019
-0.078401387 0.18857357 -0.265019
0.0094774589 0.1890732 -0.265019
-0.14248195 0.19155651 -0.265019
0.22974057 0.19426452 -0.265019
-0.26835582 0.20316 -0.265019
-0.11693168 0.20421138 -0.265019
-0.087421812 0.20843923 -0.265019
0.11587932 0.20851243 -0.265019
0.229772 0.20191711 -0.2613301
-0.1006178 0.21523879 -0.265019
-0.25706276 0.22891505 -0.265019
-0.02951178 0.22420116 -0.265019
0.0027694255 0.2223472 -0.265019
0.21773306 0.23148111 -0.265019
0.050668724 0.2405736 -0.265019
0.18064539 0.2430611 -0.265019
-0.21044207 0.25495622 -0.265019
-0.17904761 0.25210401 -0.265019
-0.14631802 0.25530314 -0.265019
-0.10785389 0.25529894 -0.265019
-0.030762933 0.25408906 -0.265019
0.19601803 0.25223991 -0.265019
-0.2430051 0.26496357 -0.265019
-0.15130126 0.26348683 -0.265019
-0.27580193 0.27554077 -0.265019
-0.13241881 0.27489519 -0.265019
0.094812825 0.27096179 -0.265019
0.16023906 0.28051192 -0.265019
-0.28307772 0.29438338 -0.265019
-0.22503343 0.29445478 -0.265019
-0.12914811 0.29370916 -0.265019
-0.078940406 0.29745072 -0.265019
-0.001644209 0.29323334 -0.265019
0.058312185 0.29676574 -0.265019
0.091109209 0.29217249 -0.265019
-0.024968199 0.30091584 -0.265019
-0.28517401 0.31273723 -0.26484138
-0.089763522 0.31375301 -0.26469314
0.1692006 -0.31375301 -0.2599563
0.229772 -0.27644268 -0.25804466
0.229772 -0.23609258 -0.25971732
0.229772 0.15219438 -0.25002262
0.229772 0.19341406 -0.25515088
-0.12938537 0.31375301 -0.25383732
0.085953318 0.31375301 -0.25495648
-0.086830549 -0.31375301 -0.2405335
0.229772 -0.30037862 -0.24028835
0.229772 -0.10182781 -0.24252108
0.229772 -0.015253272 -0.24120183
-0.28517401 0.042603105 -0.2458559
0.229772 0.10510042 -0.24870363
-0.26909164 0.31375301 -0.24668066
0.229772 -0.28554848 -0.23949096
-0.28517401 -0.27523816 -0.23160592
-0.28517401 -0.20373209 -0.23356016
-0.28517401 -0.15543471 -0.23881736
0.085921466 -0.052300852 -0.23026228
0.22977202 -0.057395272 -0.23364627
0.14334199 -0.046321638 -0.23104939
0.18975724 -0.049532115 -0.23062675
0.15759076 -0.03315248 -0.232783
-0.046516038 -0.029039012 -0.23332453
0.13469501 -0.02528879 -0.2338182
-0.067797691 -0.012084141 -0.23257551
0.20587799 -0.016615609 -0.23317203
0.18321869 -0.0053085294 -0.23168352
-0.28517401 0.14511098 -0.23117313
-0.26645976 0.31375301 -0.2388258
-0.18357085 0.31375301 -0.23111102
-0.097604208 0.31375301 -0.2396549
-0.105985 -0.31375301 -0.22380275
0.044835202 -0.31375301 -0.22214246
-0.28517401 -0.19738765 -0.22822861
-0.28517401 -0.098135449 -0.22578195
-0.010279059 -0.077601507 -0.22693163
0.064301684 -0.063678652 -0.22876447
0.19175842 -0.049210358 -0.22893308
0.136222 0.0091693681 -0.22977763
0.20779872 0.0063851634 -0.22813979
-0.046684954 0.01959412 -0.22840527
0.06252227 0.016292602 -0.2288399
-0.035467356 0.029735152 -0.22707032
0.20044845 0.027692281 -0.22733924
0.229772 0.030015221 -0.22024894
0.03252269 0.31375301 -0.22422349
0.15989275 0.31375301 -0.22438121
-0.022650197 -0.31375301 -0.21209674
0.034675118 -0.31375301 -0.215435
0.17383103 -0.31375301 -0.21094806
0.229772 -0.23808371 -0.21780801
-0.28517401 -0.11471922 -0.21745789
0.063188635 -0.11569083 -0.21295866
0.12260173 -0.11337799 -0.2139167
0.018054459 -0.10576205 -0.2170714
0.20834288 -0.10940328 -0.21556309
-0.28517401 -0.065154478 -0.21901622
-0.28517401 -0.026471227 -0.21154475
0.18763782 0.059741464 -0.21674302
0.092990428 0.062283702 -0.21568994
0.13950136 0.068194464 -0.21324152
0.0092159994 0.071950614 -0.21168561
-0.28517401 0.088103466 -0.21183187
0.229772 0.22406299 -0.21306273
-0.16365828 0.31375301 -0.21953736
-0.066165462 0.31375301 -0.21108797
-0.0053511634 0.31375301 -0.21622525
0.22817948 0.31375301 -0.21723652
-0.089519575 -0.31375301 -0.20814362
-0.28517401 -0.14993484 -0.20471615
0.13983282 -0.14057651 -0.20260224
0.22511752 -0.14485516 -0.2036539
-0.092795208 -0.13309343 -0.20575011
0.059053071 -0.12790409 -0.20789964
0.1536219 -0.12475961 -0.20920217
0.20401521 -0.038417287 -0.20461766
0.060408775 0.079223 -0.20867318
0.080855727 0.083513431 -0.20689595
-0.080855861 0.091036111 -0.20377983
0.028337449 0.094152763 -0.20230287
-0.28517401 0.19998153 -0.20366538
-0.26133829 0.31375301 -0.2087231
-0.12989038 0.31375301 -0.20298764
-0.1166333 0.31375301 -0.20790534
-0.073513627 0.31375301 -0.20779955
0.045816269 0.31375301 -0.20420426
-0.2019679 -0.31375301 -0.1974684
-0.28517401 -0.25681245 -0.19840576
-0.28517401 -0.17246953 -0.1945156
-0.28517401 -0.14213431 -0.19947916
-0.094019197 0.00074095372 -0.19437274
-0.094019197 0.027444487 -0.19043285
0.22524123 0.043829471 -0.19385234
0.20246398 0.075674638 -0.19839409
0.025597934 0.10953036 -0.19050342
0.043609247 0.10155989 -0.19661929
0.229772 0.15537079 -0.19843492
0.229772 0.26927096 -0.19559756
-0.054072343 0.31375301 -0.19312623
-0.03173798 0.31375301 -0.19641054
0.097510964 0.31375301 -0.19076467
-0.055177569 -0.31375301 -0.1824984
0.18584038 -0.31375301 -0.18491113
-0.28517401 -0.20090561 -0.18373169
0.229772 -0.19243661 -0.18285432
0.12474928 -0.16024481 -0.18751021
0.14970128 -0.16757347 -0.18188672
0.21052255 -0.12254717 -0.18063736
-0.28517401 0.0048491806 -0.18473659
0.20246401 0.077669032 -0.18786663
0.16461176 0.1183497 -0.18373623
0.028413851 0.12290879 -0.18023798
-0.28517401 0.20058931 -0.1864364
-0.2151269 -0.31375301 -0.17603791
-0.021278303 -0.31375301 -0.17487478
-0.071997605 -0.17860234 -0.17342396
0.018477328 -0.17666522 -0.17491037
-0.28517401 -0.15266125 -0.17830996
-0.28517401 0.11786266 -0.17902587
0.202464 0.11152731 -0.17770852
-0.025823873 0.12585676 -0.17797597
0.059426993 0.13550827 -0.17057022
-0.22587793 -0.31375301 -0.16150436
-0.16010334 -0.31375301 -0.1637657
-0.052491307 -0.31375301 -0.16357142
0.12507702 -0.31375301 -0.16063073
0.21611872 -0.31375301 -0.16038609
-0.28517401 -0.24273852 -0.161401
-0.28517401 -0.21743859 -0.16980767
0.090027072 -0.1912645 -0.1624494
0.1189036 -0.18367259 -0.16953342
0.21167736 -0.18873563 -0.1656484
-0.094019197 0.11447747 -0.16329131
0.10966072 0.14207451 -0.16553186
-0.28517401 0.15621981 -0.16243236
-0.28517401 0.25499827 -0.16038395
0.229772 0.28436038 -0.16999443
-0.28517401 0.31334117 -0.16448635
-0.10637737 0.31375301 -0.165093
-0.28517401 -0.31025797 -0.15421437
-0.07533963 -0.31375301 -0.159908
0.11656454 -0.31375301 -0.15096334
-0.28517401 -0.27086604 -0.15077633
-0.28517401 -0.19677718 -0.15553433
0.229772 -0.17933118 -0.15460536
0.20720087 -0.15664987 -0.15593652
-0.28517401 -0.017212376 -0.15212755
-0.094019189 0.054329731 -0.15430452
-0.28517401 0.062294241 -0.15607773
-0.094019204 0.060463067 -0.15909693
-0.28517401 0.1376265 -0.15349376
0.12389746 0.14786193 -0.15800467
0.15315251 0.14948466 -0.15588984
0.061539594 0.15289479 -0.15144558
-0.2512978 0.31375301 -0.15397191
-0.28517401 -0.31240147 -0.14285491
-0.19475557 -0.31375301 -0.14705724
-0.14951076 -0.31375301 -0.14886093
0.07385762 -0.31375301 -0.14291963
0.14288734 -0.31375301 -0.1483064
-0.28517401 -0.21399452 -0.14679071
-0.06067805 -0.20632587 -0.14282119
0.0053780181 -0.20833555 -0.14020215
0.15623128 -0.20223893 -0.14814734
-0.094019197 0.072994642 -0.14876394
-0.28517401 0.11468061 -0.1408855
-0.094019204 0.12046185 -0.14921488
0.066896588 0.15864375 -0.14395326
-0.070303954 0.16120107 -0.14062043
-0.080313601 0.31375301 -0.14037916
-0.022535577 0.31375301 -0.14993152
0.14781858 0.31375301 -0.14694825
-0.14924046 -0.31375301 -0.13666111
0.229772 -0.19654723 -0.13141374
0.229772 -0.18427305 -0.13906111
-0.28517401 -0.17002574 -0.13798156
-0.28517401 -0.092221349 -0.13543038
-0.28517401 -0.073435836 -0.13802658
-0.28517401 -0.0046690404 -0.13415474
0.20690206 0.31375301 -0.13711882
0.036313184 -0.31375301 -0.12287945
0.052695479 -0.31375301 -0.12087628
0.15722762 -0.31375301 -0.12180854
-0.28517401 -0.225833 -0.12726009
0.11823975 -0.2173627 -0.12843783
0.16131593 -0.21697976 -0.12893689
0.21499711 -0.21708219 -0.12335639
-0.28517401 -0.11300755 -0.12941942
-0.28517401 0.01320374 -0.12678979
-0.094019197 0.067040905 -0.12397222
-0.28517401 0.090712354 -0.12321768
0.202464 0.14658895 -0.12942219
-0.28517401 0.15053988 -0.12582807
-0.065661356 0.17004687 -0.12909213
-0.057233691 0.17370115 -0.12432969
0.027206039 0.17695883 -0.12008411
-0.28517401 0.18302396 -0.12133995
0.229772 0.21279298 -0.12699254
-0.28517401 0.22958007 -0.12793595
-0.28517401 0.26952183 -0.12057976
0.229772 0.27385628 -0.12887825
-0.20434195 0.31375301 -0.12618789
-0.12157134 0.31375301 -0.12031791
-0.075406559 0.31375301 -0.12630358
-0.031110872 0.31375301 -0.12612012
0.074934289 0.31375301 -0.12269983
0.229772 -0.29939389 -0.11445162
0.17303471 -0.22657375 -0.11592304
0.229772 -0.22011276 -0.1154561
-0.094019189 -0.10865983 -0.11380697
-0.28517401 0.12032135 -0.1172436
0.050506264 0.18192331 -0.11069968
-0.016572289 0.31375301 -0.11304285
0.060230322 0.31375301 -0.11617079
0.15684614 0.31375301 -0.11373153
0.1623314 0.31375301 -0.11007989
0.072512478 -0.31375301 -0.10537946
-0.094019197 -0.12919627 -0.10609679
-0.28517401 -0.047826465 -0.10027243
0.22768351 0.15071985 -0.10953812
-0.28517401 0.16932529 -0.10316135
-0.038985007 0.18454707 -0.1043653
0.11581083 0.1843884 -0.10474835
-0.11699958 0.31375301 -0.10872072
0.18327188 0.31375301 -0.10457148
-0.28517401 -0.31216136 -0.091796406
-0.27528661 -0.31375301 -0.092037007
0.15951636 -0.31375301 -0.099087901
0.17412958 -0.31375301 -0.099252693
0.18630189 -0.23506334 -0.095427133
-0.094019197 -0.19641799 -0.098124675
-0.094019197 -0.18170384 -0.096934631
-0.094019197 -0.091980547 -0.094347641
-0.094019197 0.10377397 -0.09536992
0.21921048 0.15703477 -0.099613301
0.229772 0.16155082 -0.095307395
-0.024261383 0.19000779 -0.091181807
-0.25761506 0.31375301 -0.097532727
0.024351202 0.31375301 -0.092421956
-0.2488274 -0.31375301 -0.080307722
0.12747031 -0.31375301 -0.085531496
0.0015531816 -0.24102001 -0.081046313
0.020483714 -0.24073866 -0.081725582
-0.091381945 -0.23809843 -0.088099718
0.229772 -0.23396359 -0.087386847
-0.070384502 0.19379914 -0.08202856
-0.28517401 0.25750697 -0.083953023
0.079309478 0.31375301 -0.084366933
0.033284936 -0.31375301 -0.073828883
0.19666609 -0.24515304 -0.071068153
0.22292484 -0.24474573 -0.072051443
-0.28517401 -0.23186786 -0.077990651
0.202464 -0.22537845 -0.077271208
-0.28517401 -0.21470568 -0.074513622
0.20246401 -0.21998216 -0.073613286
0.22329794 -0.21290241 -0.077753812
-0.094019197 -0.17506301 -0.076808631
-0.28517401 -0.049890548 -0.078384079
-0.094019197 -0.028101418 -0.07033015
-0.094019197 0.0029786248 -0.075449273
-0.28517401 0.063114792 -0.074801102
-0.28517401 0.077671506 -0.07572224
-0.28517401 0.082143515 -0.078815207
0.229772 0.18584597 -0.074713819
0.092217311 0.19862525 -0.070377171
0.2009837 0.19519648 -0.078655079
0.229772 0.19120418 -0.07701984
-0.21612868 0.31375301 -0.070729434
-0.091995537 0.31375301 -0.071967319
-0.024945118 0.31375301 -0.078789771
0.022666864 0.31375301 -0.079872824
0.18329778 0.31375301 -0.07067769
-0.21846801 -0.31375301 -0.065737829
0.049845982 -0.31375301 -0.06175983
0.009271238 -0.24753664 -0.065313555
-0.094019197 -0.039827775 -0.065824747
-0.28517401 0.0077175945 -0.067820162
-0.28517401 0.16145027 -0.061983418
0.20246401 0.17156984 -0.068452053
-0.28517401 0.19968437 -0.062361997
0.2011271 0.20031168 -0.066305742
-0.28437188 0.31375301 -0.060932316
-0.1403861 0.31375301 -0.065256834
0.035868209 0.31375301 -0.060573552
-0.25736001 -0.31375301 -0.050149441
-0.19391645 -0.31375301 -0.059656829
-0.093950428 -0.31375301 -0.058491156
0.029362734 -0.31375301 -0.059941307
0.229772 0.18084866 -0.053949576
-0.035615962 0.203484 -0.054496802
0.1977503 0.20357727 -0.053788573
-0.25314683 0.31375301 -0.051695697
-0.085786767 0.31375301 -0.059640914
0.15293215 0.31375301 -0.051807605
-0.22425719 -0.31375301 -0.045882441
0.067728788 -0.31375301 -0.043226063
0.10392454 -0.31375301 -0.046976265
0.11843492 -0.31375301 -0.044959366
-0.28517401 -0.27054739 -0.048400901
-0.0009838827 -0.25132164 -0.04672021
0.202464 -0.2314513 -0.043772392
-0.094019197 -0.21012895 -0.048509844
-0.094019197 -0.090524226 -0.042079106
-0.28517401 -0.001835905 -0.043302231
-0.28517401 0.13991649 -0.046266817
0.21723858 0.17681234 -0.048417021
0.229772 0.20908526 -0.048034195
0.09477891 0.31375301 -0.046431761
-0.087661624 -0.31375301 -0.030502044
-0.072948694 -0.31375301 -0.030060448
0.21209992 -0.31375301 -0.033902794
0.084145859 -0.25336671 -0.031185301
-0.28517401 -0.043342724 -0.038827091
-0.28517401 -0.017964497 -0.036830701
-0.28517401 0.05077526 -0.031588838
-0.28517401 0.12696873 -0.033786524
-0.094019197 0.14748809 -0.031161359
0.14324895 0.2063494 -0.032733157
-0.28517401 0.298381 -0.030204535
-0.22775455 0.31375301 -0.03935954
-0.20057774 -0.31375301 -0.029695839
-0.092069313 -0.31375301 -0.025381595
0.22018149 -0.31375301 -0.020788416
0.229772 -0.2828635 -0.029337242
0.14590821 -0.25396132 -0.026668247
-0.28517401 -0.16529107 -0.029962279
-0.28517401 -0.15979105 -0.029004656
-0.094019197 -0.14870743 -0.025318436
-0.094019197 -0.092360921 -0.02909863
-0.28517401 -0.048791975 -0.023634486
-0.28517401 0.0055804551 -0.023726471
-0.094019197 0.069872789 -0.025824949
-0.094019197 0.093402393 -0.028928243
-0.094019189 0.18367195 -0.021192703
0.229772 0.18906051 -0.025357349
0.061585475 0.20721206 -0.02618072
-0.18872291 0.31375301 -0.024791807
0.021768171 0.31375301 -0.023325205
0.15953246 0.31375301 -0.028750457
0.19838336 0.31375301 -0.029440939
-0.21898127 -0.31375301 -0.012447827
-0.17608671 -0.31375301 -0.01179561
-0.14468682 -0.31375301 -0.010001186
-0.28517401 -0.30013317 -0.011971169
-0.28517401 -0.22459555 -0.012955766
-0.094019204 -0.082220927 -0.019380048
-0.094019189 0.16703093 -0.012759235
0.20250119 0.20807745 -0.019607937
-0.28517401 0.25703585 -0.018950224
-0.28517401 0.26324481 -0.013370462
-0.17327572 0.31375301 -0.012206346
-0.033749241 0.31375301 -0.01513603
-0.032714438 -0.25701517 -0.0034703244
0.018027246 -0.25662598 -0.0064265341
0.15889002 -0.25717801 -0.0022331304
0.20789185 -0.22992197 -0.00059275219
-0.094019197 0.17336273 -0.008931689
-0.28517401 0.2082423 -0.0035481639
0.15564449 0.2104819 -0.0013451375
0.229772 0.21898493 -0.0086594038
-0.19574553 0.31375301 -0.008406274
0.18679908 0.31375301 -0.0031207353
0.056483671 -0.25654581 0.0070357583
-0.094019197 -0.24003932 0.0031014918
-0.094019197 -0.2059091 0.0045993105
-0.094019197 0.0024577659 0.007166855
-0.094019197 0.056764767 0.0067184679
-0.28517401 0.20881748 0.00084847584
-0.27213526 0.31375301 0.0067581236
-0.25940698 0.31375301 0.005359754
-0.14144136 0.31375301 0.0019863695
-0.011264475 -0.31375301 0.011855432
-0.28517401 -0.24888846 0.012597755
-0.28517401 -0.089898676 0.019333951
-0.094019197 0.12435767 0.013531715
-0.044355709 0.20818219 0.018812396
0.18613377 0.20852423 0.013177097
-0.28517401 0.30482003 0.010006078
-0.19619115 0.31375301 0.012501799
0.086568609 0.31375301 0.019049436
-0.033544235 -0.31375301 0.02174145
-0.085553214 -0.25399753 0.026393386
0.15019003 -0.25370091 0.028646417
-0.094019197 -0.23395014 0.027112611
-0.094019197 -0.17991224 0.02438217
-0.28517401 -0.063985676 0.021123558
-0.094019189 0.17273812 0.02241247
0.22412851 0.20682719 0.029104102
-0.14015558 0.31375301 0.022854716
-0.063813984 0.31375301 0.023279935
-0.046341848 0.31375301 0.026147902
0.052942738 0.31375301 0.024220515
0.072114184 -0.31375301 0.034976717
0.229772 -0.24617565 0.037063941
-0.28517401 -0.12857741 0.033407528
-0.28517401 -0.11361345 0.033861928
-0.094019197 -0.049230471 0.03664735
-0.094019197 -0.038131375 0.039870471
-0.094019204 0.031363554 0.035016082
-0.28517401 0.04821384 0.038301218
-0.28517401 0.20897377 0.03886047
-0.084432691 0.20604271 0.03506244
-0.28517401 0.21382508 0.03259556
-0.28517401 0.30689704 0.034763604
-0.25074998 0.31375301 0.037952848
-0.12863587 -0.31375301 0.045191057
0.229772 -0.29289412 0.042848244
0.069553956 -0.25200978 0.041492939
0.11096279 -0.25133139 0.04664626
0.22442901 -0.25108194 0.048541062
0.20605028 -0.22445813 0.042097785
-0.28517401 -0.17619491 0.040017888
-0.094019197 0.01710202 0.042885344
-0.094019197 0.18719929 0.041413102
-0.28517401 0.23457015 0.045102723
-0.12290338 0.31375301 0.046750825
0.14419703 0.31375301 0.043083407
0.17159322 0.31375301 0.042317189
-0.24254192 -0.31375301 0.057587299
-0.10219842 -0.31375301 0.050441053
0.047809042 -0.25052637 0.05276148
0.099531852 -0.25080684 0.050630704
-0.28517401 -0.077447854 0.056250818
-0.28517401 0.019609571 0.055013292
-0.28517401 0.05051522 0.05425588
-0.28517401 0.092252269 0.05695748
0.229772 0.19474396 0.056766421
0.10915653 0.20393661 0.051059145
0.229772 0.24420469 0.057173681
-0.28517401 0.25538453 0.051019728
-0.28517401 0.28491205 0.05678951
0.10347362 0.31375301 0.057819713
0.22735894 0.31375301 0.051618129
-0.25432146 -0.31375301 0.066349208
0.223961 -0.31375301 0.060430624
-0.063969031 -0.24706665 0.066448249
0.17826901 -0.248404 0.06321954
0.229772 -0.23651385 0.065559685
-0.28517401 -0.21843307 0.066541545
-0.28517401 -0.20602757 0.064562634
-0.094019197 -0.18596369 0.067189395
-0.094019197 -0.11158824 0.067012593
-0.094019197 -0.10937794 0.061783485
-0.28517401 -0.014530098 0.062461089
-0.28517401 0.1691387 0.061459135
-0.039504986 0.20135094 0.063796699
0.0587481 0.20112538 0.064341277
0.026303556 0.31375301 0.068832785
-0.021814674 -0.31375301 0.074662805
0.06137472 -0.31375301 0.079213887
0.19721124 -0.31375301 0.079901814
-0.28517401 -0.25992817 0.074796222
-0.28517401 0.12396213 0.07238134
-0.010602837 0.19863123 0.070362777
0.22475223 0.19650874 0.071137585
0.229772 0.23979984 0.072160348
-0.23406664 0.31375301 0.077896975
0.14293171 -0.31375301 0.08837422
0.19115175 -0.23839062 0.087394297
-0.28517401 -0.19523759 0.083482325
-0.28517401 0.083418883 0.081790343
0.2277481 0.16361681 0.083722241
0.14861785 0.19346771 0.08282873
0.229772 0.25810203 0.082284786
-0.2278849 0.31375301 0.085304826
-0.19086181 -0.31375301 0.091141641
-0.1865094 -0.31375301 0.095890723
-0.14185226 -0.31375301 0.095324486
-0.28517401 -0.24994731 0.098569483
0.18962032 -0.23901592 0.090530805
-0.094019197 -0.20350572 0.094288737
-0.094019189 0.079385772 0.09681569
-0.094019189 0.17368685 0.097068682
0.229772 0.20301253 0.097737074
-0.26884735 0.31375301 0.090755545
-0.13539384 0.31375301 0.090190656
-0.014511064 0.31375301 0.095704287
0.22350088 0.31375301 0.097530559
0.19933107 -0.31375301 0.10834754
-0.28517401 -0.28440741 0.10291369
-0.0081629381 -0.23146021 0.10412595
0.1495772 -0.23189688 0.10307175
-0.28517401 -0.1771597 0.10759758
-0.094019204 -0.015760703 0.10924099
0.229772 0.16989681 0.1070517
0.21723992 0.18448183 0.10452281
-0.28517401 0.2498194 0.10711573
-0.14451137 0.31375301 0.10498754
-0.11128917 0.31375301 0.10824291
-0.081563272 0.31375301 0.10039243
-0.10997859 -0.31375301 0.11253225
0.17808779 -0.31375301 0.11157103
0.1945761 -0.31375301 0.11956173
0.229772 -0.25996512 0.11153027
-0.0073362733 -0.22618181 0.11623657
0.10184735 -0.22534432 0.11803605
-0.28517401 -0.14120662 0.11004114
-0.094019197 -0.011577757 0.11633384
0.07900615 0.17973974 0.11597132
0.22966835 0.17899786 0.11029307
0.15984114 0.18089199 0.11318956
-0.28517401 0.23899657 0.11443079
-0.27941036 0.31375301 0.11940583
-0.027065434 0.31375301 0.11480763
-0.0033412352 0.31375301 0.11634589
-0.1658566 -0.31375301 0.12333248
-0.13743433 -0.31375301 0.1255136
-0.039025795 -0.31375301 0.12906539
0.054789379 -0.31375301 0.1228466
0.1512863 -0.31375301 0.12868761
-0.083457492 -0.22010951 0.12485815
0.024965772 -0.22263108 0.121572
-0.0036674868 -0.21777134 0.12790529
0.14143901 -0.2167158 0.12928089
0.21556118 -0.18394384 0.12724833
-0.28517401 -0.11591677 0.12582383
-0.28517401 0.066801913 0.12461583
-0.094019189 0.16541165 0.12090053
0.22475746 0.17035013 0.12323529
0.10966438 0.31375301 0.1211983
0.050172277 -0.31375301 0.13748202
0.229772 -0.28589359 0.13084854
0.014433157 -0.21301247 0.13410711
0.18057218 -0.21612489 0.13005096
-0.094019197 -0.086007051 0.13027821
-0.094019197 0.050598107 0.13239878
-0.094019189 0.15529829 0.13945711
-0.067946956 0.16341592 0.13773392
-0.012254734 0.31375301 0.1336509
0.068668731 0.31375301 0.13463894
-0.1943928 -0.31375301 0.14970419
0.229772 -0.29909918 0.14856112
0.22977199 -0.23692551 0.14696172
0.040254962 -0.20498428 0.14456958
-0.094019197 -0.058209516 0.14228675
-0.094019189 0.013138935 0.14321965
-0.094019189 0.024718409 0.14006528
0.11689454 0.15620811 0.14712752
0.17127529 0.15918775 0.14324428
0.202464 0.1543403 0.14531009
0.12891477 0.31375301 0.14562184
-0.1602328 -0.31375301 0.15901625
0.017416369 -0.31375301 0.15591136
0.083564393 -0.31375301 0.1520122
0.229772 -0.30972114 0.15666078
0.229772 -0.29161707 0.15302388
0.229772 -0.26650438 0.1526632
-0.28517401 -0.028045952 0.15113203
-0.28517401 0.070010021 0.15309884
-0.28517401 0.10184153 0.15846147
-0.042660981 0.14797091 0.15786263
-0.28517401 0.18695249 0.15838459
0.23757398 0.25593871 0.15892893
-0.19460198 0.31375301 0.15388294
-0.026161995 0.31375301 0.15588081
-0.16076784 -0.31375301 0.16160519
0.2088508 -0.31375301 0.169958
-0.28517401 -0.22907308 0.16750197
0.21499464 -0.19032526 0.16367343
0.22418147 -0.19106542 0.16270883
0.007355337 -0.18843354 0.1658802
0.017695226 -0.18631098 0.1675089
-0.094019197 0.037230205 0.16243878
-0.28517401 0.13552547 0.16025512
-0.030244485 0.13749966 0.16904221
-0.0089587271 0.1395511 0.16746812
0.020528629 0.14445335 0.16244692
-0.28517401 0.1613397 0.1630549
0.249277 0.26132244 0.16400349
-0.20402481 -0.31375301 0.17489915
0.13653928 -0.31375301 0.17974958
-0.28517401 -0.3055802 0.17887293
0.229772 -0.1419978 0.17107996
-0.28517401 -0.090835437 0.17658156
-0.28517401 -0.053059191 0.17920119
-0.094019197 -0.051522333 0.17832893
-0.28517401 -0.026707351 0.17293929
-0.094019197 -0.0008824924 0.17445408
-0.28517401 0.08390674 0.17390469
0.18146388 0.12250218 0.17860679
0.20933551 0.12846306 0.1759761
0.13640246 0.13235068 0.17299308
0.2052862 0.1333878 0.17133328
0.229772 0.15333059 0.17877793
0.229772 0.24836671 0.1774254
0.239447 0.28275001 0.17407212
0.066605657 0.31375301 0.17545909
-0.28517401 -0.19572803 0.18449824
-0.074780449 -0.16973752 0.18022618
-0.0084968191 -0.16895352 0.18082777
0.20924672 -0.16640347 0.18055245
0.202464 -0.13295284 0.18291369
-0.28517401 -0.075068712 0.18113807
-0.28517401 0.0075024515 0.1801475
-0.076731928 0.11246651 0.1882505
0.14589703 0.11565226 0.18580601
-0.28517401 0.20986952 0.18801557
-0.28517401 0.2193263 0.18531033
-0.28517401 0.23618567 0.18443675
0.229772 0.30094111 0.18954752
-0.17132245 0.31375301 0.1893611
-0.037893958 0.31375301 0.18023379
0.041235633 0.31375301 0.18499696
0.063337184 0.31375301 0.18085659
0.18407623 0.31375301 0.18735659
-0.25939256 -0.31375301 0.19120649
0.03220965 -0.31375301 0.19415443
0.068392515 -0.31375301 0.19235048
-0.28517401 -0.15412161 0.19058529
0.066652238 -0.15486223 0.19164042
0.20399356 -0.15676239 0.19018237
-0.029273942 -0.14505975 0.19916213
0.22710222 -0.077005848 0.19950059
0.21242249 0.031029209 0.19915417
0.20246401 0.056794073 0.19611484
0.202464 0.096029922 0.19552509
-0.28517401 0.10726979 0.19508535
-0.083933838 0.1080803 0.19161609
0.196491 0.10150899 0.19665833
-0.28517401 0.14583734 0.19075415
-0.1943216 0.31375301 0.19874804
-0.17206946 -0.31375301 0.20196977
-0.097449385 -0.31375301 0.20954585
-0.063676953 -0.31375301 0.20982578
0.075251237 -0.13368763 0.20550397
-0.28517401 -0.12400331 0.20133087
-0.056718379 -0.12819232 0.20778027
0.21919937 -0.055156205 0.2024138
0.20372483 -0.0025610169 0.20384946
-0.28517401 0.078055568 0.20096323
0.21341282 0.089639589 0.20056479
-0.28517401 0.17683667 0.20525302
0.24774919 0.28275001 0.20911235
-0.28517401 0.3000972 0.20926838
-0.28390107 0.31375301 0.20034733
-0.054633155 0.31375301 0.20064247
-0.15518552 -0.31375301 0.21938038
-0.28517401 -0.22646044 0.21678871
0.229772 -0.18286677 0.2180253
0.17977071 -0.12124499 0.210658
0.10075251 -0.1150246 0.21323463
-0.091499671 -0.099041194 0.21985532
-0.094019197 -0.086257681 0.21241404
-0.28517401 -0.037803441 0.21354562
0.10260624 0.055600408 0.21845835
0.20957163 0.056366343 0.21814102
0.13018137 0.062445242 0.21562304
0.21410397 0.065744296 0.21425632
0.09590172 0.07394933 0.2108577
-0.045493327 0.31375301 0.21402523
0.17629957 0.31375301 0.21785584
-0.17659569 -0.31375301 0.224576
0.064246461 -0.31375301 0.22825322
0.073253155 -0.31375301 0.22230962
-0.28517401 -0.27282578 0.2215174
-0.28517401 -0.09748017 0.22414675
-0.086588375 -0.097853564 0.22034729
0.229772 -0.087807469 0.22917631
0.11721949 -0.075471468 0.22721204
-0.039129455 -0.067854263 0.2282148
-0.082594447 -0.056759737 0.22967531
0.229772 -0.0085445512 0.22105762
0.19360882 0.01121557 0.2271793
0.067007013 0.023031024 0.22795287
0.10790874 0.020384558 0.22830124
0.18865031 0.026492124 0.22749722
0.13671663 0.035511412 0.2263099
0.14856099 0.032589175 0.2266946
-0.041993164 0.040425915 0.22474408
0.08976046 0.04904414 0.22117415
-0.28517401 0.11561669 0.22933844
-0.25523746 0.31375301 0.22963893
0.15564896 0.31375301 0.22463149
0.19898871 0.31375301 0.22853628
-0.071627028 -0.31375301 0.23943472
-0.28517401 -0.20970413 0.23893693
0.229772 -0.20998484 0.23621386
-0.28517401 -0.048825115 0.23503599
-0.0038357154 -0.046856958 0.23097894
0.21792701 -0.04456548 0.23128057
-0.063695379 -0.035046808 0.23253365
-0.051827338 -0.034553144 0.23259862
-0.025752004 -0.035907887 0.2324203
0.014422424 -0.030221488 0.23316886
0.025002519 -0.039027635 0.23200959
0.063060798 -0.034659877 0.23258458
-0.024735425 -0.029699717 0.23323753
0.0098919608 -0.028478006 0.23339836
0.10333525 -0.025553176 0.23378339
-0.014782306 -0.003608169 0.23145971
0.13933641 -0.0086664986 0.23212558
0.229772 0.028711289 0.23151019
-0.28517401 0.051922202 0.23381692
0.229772 0.18129092 0.23824103
0.0022296906 0.31375301 0.23560584
-0.24978738 -0.31375301 0.2437333
-0.28517401 -0.1412195 0.24666464
0.22977199 -0.099135727 0.24171451
0.229772 0.15507261 0.24220443
0.229772 0.1846514 0.24957052
-0.28517401 0.21334372 0.24713391
-0.28517401 0.2230919 0.24456552
-0.28517401 0.28963736 0.24268016
0.042470861 0.31375301 0.24917279
0.14967251 -0.31375301 0.25620282
0.229772 -0.16880581 0.25949028
0.229772 0.024548054 0.25305966
-0.28517401 0.14032337 0.25293952
0.229772 0.19103365 0.2510215
0.229772 0.20419285 0.25546673
0.229772 0.23403366 0.25730354
0.229772 0.25723657 0.25735071
0.013661356 0.31375301 0.25259626
-0.095477216 -0.31240568 0.26497048
-0.068935059 -0.31375301 0.2643311
0.032147206 -0.31375301 0.26361755
-0.15607065 -0.2943821 0.265019
-0.18243499 -0.28896555 0.265019
-0.26639497 -0.27077314 0.265019
0.17709348 -0.2656706 0.265019
0.18686318 -0.24917479 0.265019
-0.20349571 -0.23319307 0.265019
-0.14419538 -0.23363358 0.265019
-0.03784173 -0.237719 0.265019
0.12443908 -0.23537602 0.265019
0.16412105 -0.23249605 0.265019
-0.089976966 -0.22729915 0.265019
0.068190068 -0.22330698 0.265019
0.12343314 -0.22670755 0.265019
0.21743296 -0.22295305 0.265019
-0.26215795 -0.21533169 0.265019
-0.20955718 -0.19474772 0.265019
0.15716615 -0.19431309 0.265019
-0.18613856 -0.18206695 0.265019
0.21598941 -0.1833149 0.265019
0.15850827 -0.17285874 0.265019
-0.13353226 -0.16563776 0.265019
-0.047436841 -0.16753124 0.265019
-0.24150501 -0.15666756 0.265019
-0.15611026 -0.15466264 0.265019
0.2102319 -0.15161958 0.265019
-0.036355905 -0.1460312 0.265019
0.074925095 -0.14007112 0.265019
0.082867101 -0.1483957 0.265019
0.15154314 -0.14585304 0.265019
-0.27382055 -0.13370444 0.265019
-0.25816688 -0.1308452 0.265019
-0.19180089 -0.13051349 0.265019
-0.047699451 -0.1232803 0.265019
-0.27163845 -0.11279861 0.265019
-0.0093176998 -0.11540088 0.265019
0.19146422 -0.11252425 0.265019
0.22368579 -0.11100674 0.265019
0.14357455 -0.10826412 0.265019
-0.084345408 -0.079726025 0.265019
-0.011004731 -0.066092223 0.265019
-0.24187407 -0.058936074 0.265019
-0.032234147 -0.048435837 0.265019
-0.020189717 -0.04229214 0.265019
-0.19563994 -0.028771609 0.265019
-0.070826575 -0.022580309 0.265019
0.22568537 -0.021939114 0.265019
-0.11602019 -0.010939352 0.265019
0.16105443 -0.017188407 0.265019
0.21145444 -0.010247365 0.265019
-0.11876313 0.015861537 0.265019
-0.069075167 0.019081788 0.265019
-0.085497789 0.025164507 0.265019
0.084122613 0.021091878 0.265019
-0.25409856 0.039941534 0.265019
-0.20207345 0.030924246 0.265019
0.068561852 0.03593472 0.265019
0.12947464 0.035640433 0.265019
0.16386557 0.039939258 0.265019
0.19374815 0.035993077 0.265019
-0.25053218 0.041867316 0.265019
-0.0095492844 0.049435165 0.265019
0.15839884 0.042431451 0.265019
-0.19622394 0.054609619 0.265019
-0.14576402 0.057295628 0.265019
-0.072061449 0.050296754 0.265019
0.011726193 0.066264234 0.265019
0.229772 0.063879244 0.2609663
-0.27611035 0.077780649 0.265019
-0.037325546 0.073519528 0.265019
0.044762321 0.083572134 0.265019
-0.084070005 0.096239194 0.265019
-0.055122234 0.09911076 0.265019
0.11180548 0.096521586 0.265019
0.14865935 0.092384957 0.265019
0.023630105 0.1161955 0.265019
0.18814231 0.12049298 0.265019
0.036669783 0.13863763 0.265019
-0.19279881 0.14458215 0.265019
0.20633587 0.14290452 0.265019
-0.20232309 0.15508868 0.265019
0.0017496571 0.15197152 0.265019
0.03448455 0.15747353 0.265019
-0.23254651 0.16421512 0.265019
-0.18556555 0.16261551 0.265019
0.10714025 0.16360255 0.265019
0.17904435 0.16435476 0.265019
-0.14522663 0.17171596 0.265019
0.084177397 0.1940065 0.265019
0.17025708 0.1982207 0.265019
0.20096976 0.19428959 0.265019
-0.11090264 0.20598288 0.265019
-0.10492226 0.20554906 0.265019
-0.28517401 0.21888329 0.26275596
0.14302683 0.21078806 0.265019
-0.27607325 0.22096451 0.265019
-0.094578974 0.22063921 0.265019
0.15268056 0.22864081 0.265019
-0.19271111 0.23084503 0.265019
-0.16444202 0.23070294 0.265019
-0.14736786 0.23451015 0.265019
0.0046629533 0.23837915 0.265019
-0.24535796 0.24339624 0.265019
-0.037979417 0.24671951 0.265019
0.19928516 0.24627484 0.265019
-0.03944052 0.25768888 0.265019
0.13842274 0.25139794 0.265019
0.13213511 0.26753739 0.265019
-0.11459556 0.28124362 0.265019
0.12068228 0.28708351 0.265019
-0.13082436 0.29935133 0.265019
-0.068504572 0.29682717 0.265019
-0.051690668 0.29653883 0.265019
-0.27012125 0.30950758 0.265019
-0.21595983 0.30521688 0.265019
0.18541767 0.30897388 0.265019
0.11423156 0.31375301 0.26467919
