# .PCD v0.7 - Point Cloud Data file format
VERSION 0.7
FIELDS x y z
SIZE 4 4 4
TYPE F F F
COUNT 1 1 1
WIDTH 975
HEIGHT 1
VIEWPOINT 0 0 0 1 0 0 0
POINTS 975
DATA ascii
-0.024154164 -0.36247844 -0.255312
0.022535849 -0.367495 -0.25393102
0.069748342 -0.36317828 -0.255312
0.092206314 -0.36659223 -0.255312
-0.019123901 -0.35355711 -0.255312
-0.00223694 -0.35348731 -0.255312
0.010997243 -0.35238731 -0.255312
0.20502301 -0.35785291 -0.25404978
-0.17360418 -0.34443787 -0.255312
-0.036830775 -0.34109548 -0.255312
0.029806256 -0.34186897 -0.255312
0.11206961 -0.34498131 -0.255312
-0.16316313 -0.33277342 -0.255312
-0.06035883 -0.3368867 -0.255312
0.15880823 -0.33434141 -0.255312
-0.14436166 -0.32093081 -0.255312
-0.04521139 -0.3221828 -0.255312
0.0031985026 -0.32811287 -0.255312
0.10032403 -0.3276996 -0.255312
-0.14888382 -0.3194977 -0.255312
-0.1354616 -0.31170058 -0.255312
9.0885442e-05 -0.31163397 -0.255312
0.0087548979 -0.30098397 -0.255312
-0.0024917424 -0.28882694 -0.255312
0.12957393 -0.28285807 -0.255312
0.17895372 -0.28160936 -0.255312
-0.072668612 -0.27876285 -0.255312
-0.016744971 -0.27385202 -0.255312
-0.19067812 -0.26183173 -0.255312
0.025589339 -0.25811246 -0.255312
0.19810504 -0.25316033 -0.255312
-0.10262915 -0.24827567 -0.255312
0.02275971 -0.24092811 -0.255312
0.063768037 -0.23299208 -0.255312
0.11830471 -0.23047335 -0.255312
-0.085056797 -0.22713745 -0.255312
-0.10067318 -0.21552429 -0.255312
-0.22307602 -0.2015689 -0.25446773
-0.0013004281 -0.20221481 -0.255312
0.12950249 -0.19449916 -0.255312
0.025938755 -0.18356338 -0.255312
0.034609534 -0.18021066 -0.255312
-0.064118922 -0.17510287 -0.255312
0.16296466 -0.17995577 -0.255312
-0.1746908 -0.16334303 -0.255312
-0.076524742 -0.16951938 -0.255312
0.0025851317 -0.16421725 -0.255312
-0.19698532 -0.15465498 -0.255312
-0.14944917 -0.15420538 -0.255312
-0.11818674 -0.15745679 -0.255312
-0.122974 -0.14792332 -0.255312
0.16514717 -0.1441386 -0.255312
-0.1556327 -0.1361832 -0.255312
0.17173669 -0.13029867 -0.255312
-0.052801155 -0.12337575 -0.255312
0.17851332 -0.1265845 -0.255312
0.19134864 -0.12062801 -0.255312
-0.086651213 -0.11806356 -0.255312
-0.039056093 -0.10544483 -0.255312
0.16514429 -0.10252974 -0.255312
-0.16523854 -0.08878687 -0.255312
-0.12742499 -0.089479603 -0.255312
-0.087753713 -0.088760749 -0.255312
-0.061250225 -0.083997086 -0.255312
0.12727331 -0.081948876 -0.255312
0.17907186 -0.08583644 -0.255312
0.082544923 -0.075580791 -0.255312
-0.21491785 -0.068927974 -0.255312
-0.15467006 -0.051648691 -0.255312
-0.069221124 -0.051353596 -0.255312
-0.039344735 -0.050528854 -0.255312
-0.1907317 -0.040576056 -0.255312
-0.091895431 -0.042288147 -0.255312
0.010343017 -0.047209382 -0.255312
0.18889832 -0.047203179 -0.255312
-0.14303362 -0.033403523 -0.255312
0.10627864 -0.035752594 -0.255312
-0.054883279 -0.029910609 -0.255312
0.14392868 -0.021778747 -0.255312
0.10897399 -0.015526369 -0.255312
-0.18407714 -0.0073557645 -0.255312
0.19626519 -0.0070028156 -0.255312
0.029983057 0.015594248 -0.255312
0.1286585 0.0186968 -0.25531203
0.14266387 0.012903839 -0.255312
-0.12830703 0.021361634 -0.255312
0.011084467 0.027828678 -0.255312
-0.18190196 0.03173092 -0.255312
0.073800474 0.036984548 -0.255312
-0.1264478 0.046269242 -0.255312
0.0039200559 0.045271382 -0.255312
-0.0259066 0.058232166 -0.255312
-0.082090385 0.0672158 -0.255312
0.017955322 0.060227878 -0.255312
0.061558135 0.069140561 -0.255312
-0.0068660043 0.07252799 -0.255312
0.12264292 0.071473405 -0.255312
0.20475085 0.0799198 -0.255312
-0.19292609 0.088683188 -0.255312
0.1934339 0.082554094 -0.255312
-0.21881536 0.09677095 -0.255312
-0.20084503 0.098446392 -0.255312
-0.15709019 0.098877974 -0.255312
-0.14460428 0.11415008 -0.255312
0.091578946 0.11628798 -0.255312
0.16886464 0.11831381 -0.255312
0.17582984 0.11872266 -0.255312
-0.156139 0.12506591 -0.255312
-0.12769407 0.12110253 -0.255312
-0.046784319 0.13910463 -0.255312
-0.021450866 0.14351062 -0.255312
0.048865616 0.14415592 -0.25531197
0.063990355 0.14786591 -0.255312
-0.010538064 0.155763 -0.255312
0.20502302 0.15555526 -0.25316584
-0.10931889 0.17996988 -0.255312
-0.078302369 0.18583745 -0.255312
-0.044522982 0.18537711 -0.255312
0.037114933 0.20355769 -0.255312
0.14880237 0.20715939 -0.255312
-0.18882215 0.21111999 -0.255312
-0.010303013 0.21963388 -0.255312
0.044181589 0.21926433 -0.255312
-0.17836647 0.23196416 -0.255312
-0.04725885 0.23583031 -0.255312
0.057603382 0.23034117 -0.255312
-0.21445143 0.24797738 -0.255312
-0.042460427 0.24214476 -0.255312
0.001273796 0.24720554 -0.255312
0.14560834 0.24160069 -0.255312
-0.075174555 0.25017834 -0.255312
-0.039859161 0.25847402 -0.255312
-0.22130863 0.27184579 -0.255312
-0.19110096 0.27724037 -0.255312
-0.039390519 0.27958199 -0.255312
-0.051428013 0.28238714 -0.255312
-0.043483268 0.28484139 -0.255312
0.10811836 0.2879948 -0.255312
-0.14405139 0.29002005 -0.255312
0.14042142 0.30692381 -0.255312
-0.053707831 0.31611729 -0.255312
0.045182414 0.33589351 -0.255312
0.096862182 0.33307964 -0.255312
-0.0712118 0.34783107 -0.255312
0.1135211 0.34119874 -0.255312
0.12066901 0.34131226 -0.255312
0.20502299 0.34742039 -0.25310403
-0.17507818 0.367495 -0.25129917
-0.16283579 0.367495 -0.25480631
0.044856064 0.367495 -0.25492224
0.11338273 0.36542505 -0.255312
0.16206183 0.36559296 -0.255312
-0.027594524 -0.367495 -0.24042353
0.20502301 -0.33023626 -0.24238271
-0.22307602 -0.063596889 -0.24976446
-0.223076 0.028826773 -0.24580199
0.20502301 0.14469305 -0.24154289
0.20502302 0.15738955 -0.24698064
0.20502301 0.1694382 -0.24209793
-0.223076 0.22240323 -0.24177331
0.20357484 0.3645345 -0.24218267
-0.20343505 -0.367495 -0.23264118
-0.016017474 -0.367495 -0.23714818
0.088466242 -0.367495 -0.23207258
0.20502301 -0.36350903 -0.23675482
0.20502301 -0.29214573 -0.23936462
-0.22307599 -0.037191272 -0.23861441
-0.22307599 -0.023327515 -0.23685077
0.20502301 0.30635083 -0.23641619
-0.22307599 0.36450291 -0.23955023
0.063180655 -0.367495 -0.22059733
0.12352233 -0.367495 -0.22675151
0.15898785 -0.367495 -0.22508104
0.20502302 -0.33833304 -0.22117686
-0.223076 -0.26824966 -0.22826251
-0.223076 -0.16579318 -0.22041151
-0.223076 -0.15024272 -0.22512656
-0.22307599 -0.12303348 -0.2227058
-0.22307599 -0.11079776 -0.22302452
0.20502301 0.08435189 -0.22837991
-0.223076 0.28225201 -0.22500542
0.091017604 0.367495 -0.22116746
-0.15420526 -0.367495 -0.21972241
0.015528806 -0.367495 -0.21959049
0.073176578 -0.367495 -0.21403171
0.20502301 -0.13440515 -0.21781674
0.20502301 0.019040503 -0.216295
0.20502302 0.10271611 -0.21745197
-0.22307602 0.14010549 -0.21099418
-0.223076 0.16935384 -0.21751207
0.20502301 0.24106395 -0.21385725
-0.223076 0.25641152 -0.21174911
-0.223076 0.28221393 -0.21986915
0.20502301 0.31490871 -0.21717831
0.20502301 -0.29212305 -0.2052566
0.20502299 -0.28617334 -0.20514475
-0.22307599 -0.15471266 -0.20406157
-0.22307602 0.1031945 -0.20407295
-0.223076 0.20032096 -0.20949294
-0.22307602 0.24492192 -0.20137541
-0.22307599 0.26082897 -0.20746696
0.20502301 0.30264843 -0.20663391
0.018570438 0.367495 -0.20811154
-0.018891804 -0.367495 -0.1933323
0.20502301 -0.33315507 -0.19837445
0.20502302 -0.31418416 -0.19850373
0.12784252 -0.0015229185 -0.19168523
0.17575808 -0.0024064088 -0.1913193
0.1955215 0.019534685 -0.19549051
0.077782109 0.027224466 -0.19650304
0.047190927 0.050684012 -0.19957395
0.10062194 0.05364481 -0.19918409
0.19743592 0.059310928 -0.19843803
0.0053190067 0.063220106 -0.19792333
0.10126942 0.066736475 -0.19746032
0.031229708 0.07835824 -0.19593008
-0.0077095665 0.082649864 -0.195365
0.012766234 0.087785393 -0.19468881
0.14015701 0.087931156 -0.19466962
0.14073984 0.10482211 -0.19082899
0.20502299 0.19451156 -0.19330744
-0.223076 0.25923723 -0.1972179
-0.223076 0.29251623 -0.19984055
-0.223076 0.36047468 -0.19524896
-0.19841756 0.367495 -0.19512103
-0.10984603 0.367495 -0.19086704
-0.21725248 -0.367495 -0.18667871
-0.15073436 -0.367495 -0.18489048
-0.020752825 -0.367495 -0.18717119
0.16422527 -0.367495 -0.18897595
0.20502301 -0.33792883 -0.18684617
-0.223076 -0.20201139 -0.18739098
0.20502301 -0.1533761 -0.18666773
0.05874506 -0.022462577 -0.18301225
0.12996864 -0.015193716 -0.18602294
0.21404999 0.015084621 -0.18018346
0.017626554 0.11324389 -0.1873408
0.13958625 0.13067248 -0.18012208
-0.22307599 0.16890875 -0.18337648
0.20502301 0.22656888 -0.18561928
0.20502299 0.24785697 -0.18045151
-0.10853078 -0.367495 -0.17773972
0.20502301 -0.34636825 -0.17515835
0.20502301 -0.19936201 -0.17112075
-0.223076 -0.17844775 -0.17748503
-0.012183599 -0.018878009 -0.17222948
-0.012183599 -0.0085637644 -0.17404163
0.21404999 0.083087459 -0.17218992
-0.22307602 0.10564575 -0.17797014
-0.22307599 0.13805106 -0.17246859
0.12329492 0.14844309 -0.17129155
0.20502299 0.26454893 -0.17460768
-0.22307602 0.29904741 -0.17177889
0.20502301 0.33845738 -0.17389712
-0.22307599 0.34803724 -0.17700203
-0.16651429 -0.367495 -0.16362514
0.16248293 -0.367495 -0.16472945
-0.223076 -0.20493431 -0.16967399
-0.22307599 -0.16701394 -0.16958728
-0.22307599 -0.12254624 -0.16920058
0.12294162 -0.057042517 -0.16374765
0.024682404 0.15282297 -0.16793074
0.10758346 0.15170562 -0.16878812
0.16431464 0.15878239 -0.16335791
0.20384732 0.15925518 -0.16299513
0.20502301 0.19122404 -0.16903493
-0.11902151 0.367495 -0.16548827
-0.12597799 -0.367495 -0.15361044
0.015288223 -0.367495 -0.15585643
-0.223076 -0.30698901 -0.1554893
0.20502301 -0.28396228 -0.15747508
-0.223076 -0.22760658 -0.15846162
0.20502301 -0.16469884 -0.15155049
0.019186763 -0.072192304 -0.15212291
0.15016234 -0.069334321 -0.1543159
0.21404999 -0.060030136 -0.15621015
-0.223076 -0.040724069 -0.15648286
-0.0121836 -0.03467226 -0.15993856
0.20502299 0.019449763 -0.15122877
-0.22307599 0.072664931 -0.151905
-0.012183601 0.1041372 -0.15709583
0.20502301 0.18531796 -0.15866658
0.20641768 0.3335461 -0.15443623
0.012289803 -0.367495 -0.14974913
-0.223076 -0.35268778 -0.14983749
-0.223076 -0.32039678 -0.14141414
0.20502301 -0.17981943 -0.14625996
0.20502301 -0.16478412 -0.14322656
-0.223076 -0.10173069 -0.14392643
0.092516899 -0.075939305 -0.14924778
-0.22307599 0.01645425 -0.14538456
-0.223076 0.062344 -0.14490938
-0.22307602 0.087872744 -0.14245029
-0.223076 0.1767043 -0.14655548
0.040143728 0.18223229 -0.14536417
0.20502302 0.19280083 -0.14432308
0.20502299 0.20584944 -0.14165558
0.20502299 0.24423584 -0.14335442
-0.16641733 -0.367495 -0.13559334
-0.223076 -0.35968143 -0.13292763
0.20502301 -0.16321898 -0.13821954
0.21185976 -0.11517832 -0.13709719
0.1893225 -0.092204802 -0.13121556
0.034833353 -0.088390194 -0.13618673
0.14545912 -0.089869387 -0.13425906
-0.0121836 0.027940173 -0.13163462
-0.012183599 0.031546198 -0.13042431
-0.22307602 0.050491385 -0.13560414
-0.22307599 0.065140776 -0.13052078
-0.0121836 0.062172808 -0.13716313
0.018993217 0.18628342 -0.13695933
0.041630797 0.18908462 -0.13723271
0.070395559 0.18499418 -0.13403636
0.12849285 0.18743658 -0.13948441
0.038105901 0.19387849 -0.13063863
0.16693072 0.19129743 -0.13408577
0.20502301 0.25530258 -0.13609599
0.20502299 0.28315967 -0.13373277
0.20502301 0.29162106 -0.13788971
0.21791799 0.31918654 -0.13034017
0.21791798 0.34135821 -0.13938551
-0.14355312 0.367495 -0.13097352
-0.13963817 0.367495 -0.13388953
0.16389808 0.367495 -0.13444382
0.18811247 0.367495 -0.13326487
0.20502299 -0.24623781 -0.12854663
0.067917198 -0.098794848 -0.12262746
0.206054 -0.095810831 -0.12651619
-0.012183599 -0.089267015 -0.12788309
-0.22307602 -0.078814775 -0.12324997
0.21404999 -0.060083173 -0.12830693
-0.0121836 -0.024532992 -0.12578842
-0.012183601 -0.0014886707 -0.12071511
-0.012183601 0.08404991 -0.1277525
-0.223076 0.1988854 -0.12760738
0.10628194 0.1970582 -0.12649459
-0.223076 0.32039678 -0.1246791
-0.20790634 0.367495 -0.12893668
0.20502299 0.36538821 -0.1238958
-0.17180958 -0.367495 -0.1173412
-0.12617508 -0.367495 -0.11653921
-0.11792371 -0.367495 -0.11709154
-0.10891743 -0.367495 -0.11480769
0.077658221 -0.367495 -0.1196154
-0.223076 -0.35354158 -0.11270042
-0.223076 -0.21079139 -0.11033153
0.20502299 -0.1910806 -0.11333254
0.20502299 -0.12903345 -0.1195647
-0.22307599 -0.11539744 -0.11616322
0.1632812 -0.10556324 -0.11380692
-0.0121836 -0.041668005 -0.11962976
0.21404998 0.036729608 -0.11093114
-0.223076 0.063985437 -0.11294924
-0.223076 0.09038198 -0.11870451
0.11368535 0.17915297 -0.11905883
0.12917604 0.20937037 -0.11044964
0.20502302 0.23451212 -0.11299947
0.20502301 0.30900872 -0.11576566
0.20502302 0.31414184 -0.11531264
0.1918077 0.367495 -0.11152942
-0.14081888 -0.367495 -0.10093783
0.20502301 -0.23260593 -0.10174349
0.20502299 -0.21928589 -0.10020053
-0.223076 -0.17014466 -0.10177386
0.049143374 -0.11358481 -0.10116572
0.053441346 -0.11211465 -0.10471509
0.077956408 -0.10945881 -0.10873023
-0.012183601 -0.085892811 -0.10523802
0.21404999 0.022395983 -0.10386494
0.21404999 0.032445826 -0.1056786
-0.0121836 0.066892333 -0.10764037
0.20502301 0.069065779 -0.10112121
0.2121377 0.06111813 -0.101165
-0.0121836 0.1775957 -0.10486788
0.21404999 0.17325036 -0.10043909
0.21404999 0.19853035 -0.10700356
0.15067147 0.21216273 -0.10681073
0.19519785 0.367495 -0.10225783
-0.052436106 -0.367495 -0.093011439
-0.22307602 -0.31651282 -0.091175728
0.20502299 -0.28610229 -0.093615338
-0.22307599 -0.26672745 -0.095286988
0.20502301 -0.24072331 -0.09072648
0.071244411 -0.11531933 -0.096978068
0.11235816 -0.11453964 -0.096813917
0.19016364 -0.11594893 -0.093618579
0.21404999 -0.087658778 -0.093338609
0.20502302 -0.064763404 -0.095526837
-0.22307599 -0.048501328 -0.098977417
0.20502302 -0.012349236 -0.099300534
0.20502302 -0.0023548149 -0.09801051
-0.223076 0.059940483 -0.094628833
0.20502302 0.2624391 -0.090917751
-0.22307602 0.28446835 -0.096599698
-0.14226422 0.367495 -0.098383993
-0.13460496 0.367495 -0.095526606
-0.031435236 0.367495 -0.097761653
0.082189739 0.367495 -0.097541898
-0.223076 -0.36563072 -0.088434137
-0.20089735 -0.367495 -0.086165234
-0.14430737 -0.367495 -0.083079867
0.16396089 -0.367495 -0.089383215
-0.22307602 -0.1703482 -0.081798032
0.20502301 -0.1535316 -0.081172079
0.20700574 -0.14626347 -0.086523287
0.11474457 -0.1220883 -0.080635943
0.12560177 -0.11964504 -0.085238278
-0.223076 -0.10984386 -0.088328093
0.10277248 -0.10596653 -0.087112151
0.21404999 -0.088169903 -0.084972948
-0.22307599 -0.053668872 -0.087786779
0.20502301 -0.040066332 -0.088263549
0.20502299 -0.018098569 -0.088075355
-0.19973914 0.367495 -0.087717116
-0.15456158 0.367495 -0.087740302
-0.12313142 0.367495 -0.08864373
-0.17860448 -0.367495 -0.073724419
-0.058701213 -0.367495 -0.077513158
0.20502302 -0.33004829 -0.078016013
-0.22307602 -0.21933901 -0.071784362
0.025594309 -0.12278035 -0.078965046
0.16701107 -0.12368686 -0.076776594
0.20502301 -0.074653275 -0.075310737
-0.0121836 0.025900349 -0.070815019
-0.0121836 0.12462607 -0.079682879
-0.012183599 0.17313395 -0.077690512
-0.223076 0.18984467 -0.072061308
0.21404999 0.20148887 -0.078351155
-0.0121836 0.2156969 -0.078529783
-0.223076 0.31723803 -0.075513057
-0.025816582 0.367495 -0.076115415
0.080239102 0.367495 -0.079692975
0.13120379 0.367495 -0.076573126
0.20502302 -0.32007596 -0.069316491
0.20502301 -0.0021691869 -0.060596868
-0.223076 0.16023265 -0.068527825
-0.22307602 0.17039375 -0.063476913
0.14655565 0.22924787 -0.06632486
-0.22307602 0.23388781 -0.060077831
-0.223076 0.26441103 -0.065336064
-0.21478227 0.367495 -0.069101334
-0.17127343 0.367495 -0.065461434
-0.10703376 0.367495 -0.064254247
0.14149863 0.367495 -0.066316664
-0.223076 -0.36555165 -0.059345879
-0.14439802 -0.367495 -0.052722491
-0.074683078 -0.367495 -0.055895891
-0.223076 -0.26922894 -0.059407823
0.20502301 -0.16689919 -0.056051537
0.063164547 -0.13095208 -0.056012295
-0.22307602 -0.11042997 -0.051185019
-0.0121836 -0.097488686 -0.050507635
-0.223076 0.083119072 -0.056584802
-0.012183601 0.091685534 -0.056441668
0.20502301 0.13890582 -0.058171444
-0.0121836 0.19616167 -0.059436761
0.21404999 0.20228815 -0.051719867
0.15036368 0.367495 -0.050320581
-0.21152882 -0.367495 -0.040461101
0.14022811 -0.13264948 -0.043117076
-0.0121836 -0.06115165 -0.045586951
-0.22307599 0.13945556 -0.044572178
0.20502299 0.19210599 -0.040589675
-0.223076 0.30959928 -0.041716184
0.012617278 0.367495 -0.047012571
0.20502301 -0.27417529 -0.038424015
-0.223076 -0.17470123 -0.03049963
-0.0121836 -0.12354059 -0.032623034
0.20890586 -0.094142258 -0.039999411
0.20502302 -0.076893017 -0.037284326
-0.012183599 0.087632537 -0.03925731
-0.012183601 0.11397809 -0.034639597
0.20502302 0.1269386 -0.031531382
-0.22307599 0.17192721 -0.032548998
-0.223076 0.33746439 -0.035481676
-0.14189449 0.367495 -0.037617102
-0.21133208 -0.367495 -0.023788311
-0.13473396 -0.367495 -0.02328302
-0.223076 -0.29983398 -0.022162274
0.21404999 -0.096601874 -0.029677786
-0.012183601 -0.06397137 -0.022698987
-0.223076 -0.058080167 -0.021005273
-0.22307599 -0.023878798 -0.029098205
-0.012183601 -0.0062691821 -0.028958369
-0.0121836 0.015143781 -0.020087076
0.20502302 0.016834047 -0.026303027
-0.0060772048 0.041935213 -0.022684632
0.20502299 0.12394814 -0.02929927
0.21405001 0.22516748 -0.026390033
0.0082747089 0.23668413 -0.021825371
-0.223076 0.25048244 -0.028160069
0.20502301 0.26708919 -0.021600991
0.20656744 0.34251192 -0.027155796
0.21627828 0.34469238 -0.028535122
0.058589131 0.367495 -0.027191073
-0.18723783 -0.367495 -0.019777268
-0.223076 -0.21313989 -0.010531586
0.02538128 -0.13613886 -0.014367475
0.082456023 -0.13618913 -0.01622642
-0.223076 -0.016439615 -0.01629857
0.20502301 0.0522772 -0.01338777
0.20502302 0.12160712 -0.011774771
-0.0121836 0.23364945 -0.01687547
-0.22307599 0.30469912 -0.015568428
0.20502302 0.30486453 -0.016525727
0.15929121 0.367495 -0.010192133
0.16677478 0.367495 -0.011640988
0.00238181 -0.13559018 -0.0037315493
0.052496545 -0.13560364 -0.003833754
0.16472062 -0.13549675 -0.0030216996
-0.22307602 0.11276074 -0.00042228401
0.010162909 0.23711415 -0.0059494385
0.20502302 0.2418991 -0.0019750642
-0.223076 0.29410905 -0.0050084069
-0.17491737 0.367495 -0.0033236369
-0.019767091 0.367495 -0.001832217
0.031181045 0.367495 -0.0050218366
0.049116015 -0.367495 0.0056569651
0.10995917 -0.367495 0.0083197206
0.20502301 -0.21018171 0.0024349913
-0.223076 -0.030148318 0.0057941894
0.20502301 -0.037725504 0.00064665452
-0.223076 0.024338245 0.0096395835
-0.0121836 0.12419064 0.0024879365
-0.012183601 0.17000507 0.0080873584
-0.042752296 -0.367495 0.017999362
0.15575856 -0.367495 0.018329054
0.20502301 -0.2115186 0.014316872
-0.22307602 -0.13648754 0.019263778
-0.0121836 -0.076928549 0.019115934
-0.223076 -0.058506072 0.012136333
0.20502299 -0.020443082 0.013324868
-0.0121836 0.19076964 0.01111752
0.20933798 0.19604231 0.013355093
-0.11270496 -0.367495 0.029203475
-0.223076 -0.23098046 0.026953947
0.20502301 -0.19663802 0.029362574
0.20502301 -0.1848546 0.029505076
-0.22307599 -0.11970532 0.025275029
-0.22307599 -0.033672601 0.027358271
-0.0121836 0.06565775 0.024123322
0.20502299 0.11328793 0.022939093
0.14863184 0.2335614 0.021041129
-0.22307602 0.25306579 0.027245946
0.20502301 0.2510598 0.028503334
-0.223076 0.27632868 0.023602642
-0.17335722 0.367495 0.023918301
-0.22137956 -0.367495 0.036318786
-0.17165422 -0.367495 0.032092325
-0.01869414 -0.367495 0.037307024
0.14440766 -0.367495 0.037980229
0.171846 -0.367495 0.037815541
0.027091673 -0.13097489 0.031331502
0.13797945 -0.13101959 0.03099177
-0.22307602 -0.10562831 0.038552128
0.20502301 0.04378587 0.031980336
-0.22307599 0.056236118 0.033490308
-0.0121836 0.081030332 0.033360519
-0.223076 0.16224378 0.031401671
-0.012183599 0.16972287 0.038866498
-0.22307602 0.17661339 0.037437119
-0.223076 0.26108897 0.037242819
0.223076 0.30963406 0.033941932
-0.223076 0.36413401 0.036898337
-0.16289821 0.367495 0.03671965
0.036180492 0.367495 0.039096273
-0.13306175 -0.367495 0.046160251
0.059461061 -0.367495 0.042606026
0.20502301 -0.235818 0.047005169
0.21404999 -0.10598691 0.040750023
-0.223076 -0.016024619 0.043736815
-0.012183599 -0.015515124 0.048924435
-0.0121836 -0.001956196 0.045647338
-0.0121836 0.068755269 0.043065779
-0.223076 0.075262249 0.042684294
0.20502301 0.070506349 0.04553777
-0.223076 0.13911396 0.049150996
-0.223076 0.22174031 0.047238793
0.010077983 0.22598663 0.04969025
0.13495559 0.22758493 0.045831807
0.2118105 0.31616199 0.048407145
-0.22307602 0.366622 0.049838684
-0.099825643 -0.367495 0.058573782
-0.22307602 -0.35142761 0.052268617
0.20502301 -0.32923454 0.059415318
0.20502301 -0.28993297 0.059417207
-0.223076 -0.20206034 0.052455362
0.21404999 -0.13295019 0.055415191
0.0082563199 -0.12323985 0.053347968
-0.22307602 -0.0014327168 0.051035784
-0.22307599 0.042296417 0.059457351
0.20502302 0.097485483 0.05798281
-0.223076 0.11252958 0.054709442
0.20502299 0.11445059 0.052224912
-0.0121836 0.18202247 0.059802175
0.015387745 0.22379701 0.05497615
0.18672822 0.22516878 0.051664613
-0.223076 0.33598208 0.056752268
-0.13931531 0.367495 0.053924017
-0.11645856 -0.367495 0.06166362
-0.10360827 -0.367495 0.06383051
-0.22307602 -0.26386291 0.060173281
0.20502299 -0.17449024 0.06850943
-0.22307602 -0.0997952 0.063754894
0.21404999 -0.095192023 0.062138647
-0.0121836 -0.07246419 0.061404254
0.21404999 -0.078545608 0.060977086
-0.0121836 0.14136402 0.06863746
0.21245024 0.17661305 0.066410765
0.20502301 -0.18350187 0.078518614
0.037772693 -0.11279024 0.078575626
-0.223076 -0.069945313 0.073872149
-0.22307599 0.040673599 0.072056606
0.20502301 0.090591356 0.073475748
0.20661439 0.17246778 0.072185092
0.20502299 0.23250282 0.079252519
-0.223076 0.32595116 0.07488066
0.047988325 0.367495 0.071855128
-0.083342649 -0.367495 0.08333984
0.20502302 -0.22281349 0.083445951
0.20776711 -0.065177046 0.08040259
-0.22307602 -0.023052871 0.08042457
-0.012183601 0.056994043 0.085325778
-0.0121836 0.079386093 0.088879466
0.20502301 0.12773776 0.080045648
-0.11268803 -0.367495 0.09717837
-0.033541985 -0.367495 0.095454916
0.20502299 -0.20057365 0.091341868
0.15340026 -0.10375724 0.091651857
0.025575815 -0.097892851 0.099294193
-0.012183599 0.087239638 0.094821274
-0.22307602 0.1083356 0.09914422
0.21404999 0.16029035 0.093662217
0.20502302 0.24997385 0.099513605
-0.08475785 0.367495 0.096365273
-0.10442997 -0.367495 0.10261067
-0.057361495 -0.367495 0.10966624
0.20502301 -0.32340938 0.10615075
0.20502301 -0.24688935 0.10370915
-0.223076 -0.17404646 0.10881232
-0.22307602 -0.16539356 0.1060106
0.061566696 -0.090202853 0.10931562
0.20365852 -0.097285621 0.10008553
0.21404999 -0.091571964 0.10940826
0.094613791 0.19576438 0.10367268
0.20502299 0.23734438 0.10075241
0.20502301 0.29304999 0.10185633
-0.19943237 0.367495 0.10955417
-0.1077336 0.367495 0.10392877
0.14816682 -0.367495 0.11998375
0.20502301 -0.33800229 0.1155944
-0.223076 0.013868392 0.11600393
0.20502299 0.01446594 0.11843251
0.20502301 0.037112519 0.11584771
0.061806206 0.18899125 0.11249949
-0.22307602 0.2462395 0.11023946
0.005362872 0.367495 0.11088505
0.12332918 0.367495 0.11093938
0.15179332 0.367495 0.11338547
0.036180932 -0.367495 0.12801942
0.12807125 -0.073671229 0.12647912
0.15656517 -0.077523313 0.12352335
-0.22307599 -0.057246476 0.1212152
0.21404999 -0.058913186 0.12554494
-0.22307602 0.17687093 0.12257853
0.062951691 0.17252624 0.12830289
0.17100784 0.17813252 0.12400103
-0.22307602 0.2064216 0.12078736
0.20502301 0.28102309 0.12382607
-0.21132508 0.367495 0.12906626
-0.19067484 0.367495 0.12660074
-0.11723983 0.367495 0.12650383
0.090599351 0.367495 0.12789895
-0.12063991 -0.367495 0.13370951
-0.074875742 -0.367495 0.13833559
0.13618451 -0.36749497 0.13158092
-0.22307599 -0.30442679 0.13481617
-0.22307599 -0.22409375 0.13194996
-0.223076 -0.17102197 0.13699603
0.20502301 -0.12562139 0.13023815
0.20502302 -0.11639431 0.13592836
0.1027382 -0.060270503 0.13676175
0.11539207 -0.063941248 0.13394514
0.1955414 -0.065410733 0.13281755
0.21404999 -0.038906913 0.13214722
0.21404999 0.1062115 0.13576031
0.014529045 0.15909103 0.13861209
-0.0046851677 0.16616008 0.13318782
0.10947171 0.1644122 0.13452902
0.21404999 0.16339998 0.13765666
-0.22307602 0.22708964 0.13129105
0.20502299 0.32584095 0.13615412
-0.15431949 0.367495 0.13158812
-0.22307599 -0.31141374 0.14764498
0.20502299 -0.12293849 0.14314954
0.19879869 -0.053495124 0.14196065
0.091638304 -0.049323991 0.14516124
0.10763536 -0.048871711 0.14550829
0.21404999 -0.021261016 0.14610447
0.21404999 0.064249657 0.14890517
0.063415498 0.14972104 0.14580195
0.20502301 0.19548318 0.14935601
0.18682845 0.367495 0.14713788
-0.14446473 -0.367495 0.15871564
-0.11683588 -0.367495 0.15560979
-0.223076 -0.33036619 0.15708259
0.20502301 -0.27559727 0.15341553
-0.22307599 -0.13296917 0.15747549
0.15451278 -0.031740192 0.15466103
0.1893246 -0.039348133 0.15150957
0.10206897 -0.020211229 0.15943673
0.14652769 -0.02325809 0.15817462
0.070203699 0.068438932 0.15252921
0.016303167 0.081946552 0.15916972
0.21404999 0.12556744 0.15046149
-0.223076 0.15873933 0.15438536
-0.22307602 0.17233923 0.15333486
0.20502299 0.32440233 0.15416642
-0.14290741 0.367495 0.15032369
-0.0015634298 0.367495 0.15883236
0.17349365 0.367495 0.15849459
-0.21564883 -0.367495 0.16176975
0.20502301 -0.34152642 0.1616337
0.20502301 -0.27207804 0.16633281
-0.223076 -0.22462481 0.16753496
-0.22307602 -0.12638375 0.16179137
0.024486486 -0.015218327 0.16150497
-0.012183599 0.035367489 0.16496409
0.21404999 0.037459295 0.16405064
-0.0121836 0.053902511 0.1676878
0.16377451 0.063919693 0.1626402
0.12630999 0.083149143 0.16081287
0.09713348 0.094064437 0.16935486
-0.22307602 0.13308609 0.16136678
0.20502299 0.13120246 0.16933338
-0.223076 0.21338549 0.16550015
-0.082886755 0.367495 0.16983801
0.13477795 0.367495 0.16929489
-0.16501051 -0.367495 0.17886761
-0.090743929 -0.367495 0.17206869
0.053015109 -0.367495 0.17029037
0.096836455 -0.367495 0.17740257
0.10086161 -0.367495 0.17429706
0.20502301 -0.26486844 0.17247969
0.20502302 -0.25762743 0.17840806
-0.223076 -0.24252813 0.17484389
-0.223076 -0.22925381 0.17774053
-0.223076 -0.12647662 0.17354915
-0.22307602 -0.016239494 0.1701138
0.098747849 0.053445768 0.17470144
0.19959339 0.053446606 0.17470133
0.073270649 0.066689201 0.17226177
0.18902858 0.065687142 0.17237061
0.202227 0.0686263 0.1714482
0.083327085 0.079646572 0.17085406
0.10566057 0.078975394 0.17113456
0.1358327 0.072237946 0.1722278
0.15863056 0.073811524 0.17148799
0.18231517 0.078975216 0.17092702
-0.0065071676 0.087893456 0.17016703
0.15069708 0.085443504 0.17022429
0.20502301 0.16204108 0.17486331
0.20502302 0.18487722 0.17358112
0.20502299 0.20125385 0.17427707
-0.22307602 0.24745882 0.17538989
0.20502301 0.28441092 0.17998412
-0.223076 0.34660733 0.1776813
0.054000635 0.367495 0.17488012
0.13149974 0.367495 0.17019971
0.028413966 -0.367495 0.18308252
0.12353836 -0.367495 0.18331553
0.20502299 -0.34072614 0.1821079
-0.22307602 -0.27379864 0.18376727
0.20502299 -0.20338386 0.18533871
-0.22307602 0.017261103 0.18967481
-0.223076 0.077305377 0.1836046
0.20502299 0.18557626 0.18466821
-0.223076 0.24496236 0.1834909
0.20502301 0.31415319 0.18951742
-0.15977354 0.367495 0.18883108
-0.12368415 0.367495 0.18462661
0.019071091 0.367495 0.18724829
-0.1442572 -0.36749497 0.19629657
0.14958766 -0.367495 0.19021206
0.21234095 0.044639651 0.19361076
-0.223076 0.22395387 0.19651358
-0.14306566 -0.367495 0.20666282
0.11214485 -0.367495 0.20877171
0.20502301 -0.33569589 0.2029267
0.20502299 -0.30210087 0.20550999
-0.22307599 -0.12326225 0.20693977
0.20502302 -0.10006505 0.20940839
0.20502301 -0.083592355 0.20363596
0.20502302 0.18321168 0.20573491
-0.223076 0.19837064 0.20884827
-0.223076 0.30618191 0.20160337
0.20502301 0.30619484 0.20181826
0.20502302 0.34419429 0.20352647
0.014349729 0.367495 0.20791721
0.1031001 0.367495 0.20501012
-0.21981558 -0.367495 0.21132994
-0.092846543 -0.367495 0.21936685
-0.073554426 -0.367495 0.21217126
0.16096623 -0.367495 0.21276331
-0.22307599 0.057500839 0.21593679
-0.22307602 0.11136064 0.21927044
-0.085793115 0.367495 0.21732575
0.20502299 -0.23611078 0.22868958
-0.223076 -0.092004739 0.22471839
0.20502301 0.017337926 0.22950205
0.20502301 0.10305046 0.229738
-0.223076 0.13542041 0.22093832
0.019826174 0.367495 0.22834562
-0.14758955 -0.367495 0.23797774
0.09441188 -0.367495 0.2359359
0.19157381 -0.367495 0.23477608
0.20502302 -0.22637527 0.23755208
0.20502301 -0.071231596 0.23651621
0.20502301 0.019428775 0.23428106
0.20502302 0.17390725 0.23649783
-0.223076 0.20945653 0.23018527
-0.223076 0.36476463 0.23379138
-0.13214917 -0.367495 0.24034327
-0.073858343 -0.367495 0.24976549
-0.057605494 -0.367495 0.24000603
0.11603513 -0.367495 0.2416451
0.14307719 -0.367495 0.24307652
0.20502302 -0.32863984 0.24655172
0.20502301 -0.15620564 0.24338022
-0.22307599 -0.050004125 0.24462803
0.20502302 0.045691304 0.24656573
-0.223076 0.12875332 0.24086381
0.20502302 0.28282154 0.24380884
-0.050717212 -0.36405081 0.255312
0.0059408844 -0.367495 0.25125965
0.16643023 -0.36522201 0.255312
-0.087799601 -0.35854411 0.255312
-0.19360979 -0.32355756 0.255312
0.050178438 -0.32880396 0.25531203
-0.2120848 -0.31117666 0.255312
0.16008924 -0.31715322 0.255312
-0.0065059662 -0.30615908 0.255312
0.048058193 -0.30116165 0.255312
0.075433373 -0.30112472 0.255312
0.06517154 -0.29770082 0.255312
-0.043205079 -0.28445557 0.255312
0.082160123 -0.27313614 0.255312
0.11745475 -0.27569303 0.255312
-0.19225591 -0.26361892 0.255312
-0.15044965 -0.26155668 0.255312
-0.016234353 -0.26623267 0.255312
0.082831733 -0.26340681 0.255312
-0.223076 -0.25951338 0.25313184
0.032817271 -0.25782037 0.255312
0.11874337 -0.25221533 0.255312
0.176294 -0.23203671 0.255312
0.20502301 -0.21509334 0.25201365
-0.02141878 -0.19116706 0.255312
0.20502299 -0.19930118 0.25184691
-0.055726096 -0.18722746 0.255312
-0.010808915 -0.18115442 0.255312
-0.21375754 -0.17381406 0.255312
0.028475326 -0.17481738 0.255312
0.088083491 -0.16440503 0.255312
0.12055548 -0.16289097 0.255312
0.059114657 -0.15273762 0.255312
-0.15962979 -0.13516763 0.255312
0.067832202 -0.12444069 0.255312
-0.028588828 -0.11510401 0.255312
0.16108248 -0.11472394 0.255312
-0.15844414 -0.098394267 0.255312
0.039897315 -0.090733275 0.255312
0.075508535 -0.09058027 0.255312
0.13331273 -0.098926648 0.255312
0.0098127062 -0.070608102 0.255312
0.1382665 -0.074087501 0.255312
-0.20007065 -0.069157928 0.255312
0.057984769 -0.061212227 0.25531203
0.13047802 -0.052408621 0.255312
-0.19931971 -0.042720526 0.255312
0.050428241 -0.045509055 0.255312
-0.10299629 -0.034769058 0.255312
-0.063831754 -0.033699848 0.255312
0.10935677 -0.032281209 0.255312
-0.17181887 -0.026448023 0.255312
0.039376348 -0.021043014 0.255312
0.17089632 -0.026672676 0.255312
-0.086324558 -0.01882619 0.255312
0.012897246 -0.0041203573 0.255312
0.20121501 -0.0004183501 0.255312
0.066279128 0.0015210956 0.255312
-0.15639493 0.01656349 0.255312
-0.20169774 0.022350278 0.255312
-0.1921946 0.029474873 0.255312
-0.18188953 0.025395244 0.255312
-0.030145522 0.026606344 0.255312
0.01402479 0.020930568 0.255312
0.07990247 0.023542911 0.255312
-0.17108062 0.038440667 0.255312
-0.099209167 0.036221184 0.255312
0.19118084 0.033483639 0.255312
-0.064249381 0.047910832 0.255312
0.072902262 0.041033491 0.255312
-0.164013 0.067109659 0.255312
-0.12023084 0.063963562 0.255312
0.19130248 0.064971231 0.255312
-0.083586305 0.081843235 0.255312
0.0074636657 0.084802516 0.255312
0.14953953 0.084495641 0.255312
0.19028504 0.087330595 0.255312
-0.069625296 0.091103494 0.255312
-0.0012369677 0.098293051 0.255312
-0.096451707 0.11930663 0.255312
0.12954341 0.11712725 0.255312
0.17993037 0.11354127 0.25531203
0.20502301 0.11600319 0.25449228
-0.049923874 0.12191787 0.255312
-0.0087146796 0.13439474 0.255312
-0.11111852 0.14834535 0.255312
-0.13346028 0.15878303 0.255312
0.0015389733 0.152594 0.255312
-0.18445964 0.16934727 0.255312
-0.073692754 0.16932452 0.255312
-0.00077520683 0.16964182 0.255312
0.083760299 0.16441923 0.255312
0.10429807 0.16388878 0.255312
0.13382098 0.16976804 0.25531197
0.18109161 0.16260803 0.25531197
0.013111092 0.17899305 0.255312
0.14061157 0.18136865 0.255312
-0.20277576 0.19046953 0.255312
0.15755753 0.20697665 0.255312
0.19755475 0.20177579 0.255312
-0.11207741 0.21876547 0.255312
-0.063888252 0.21918932 0.255312
0.11429279 0.21970347 0.255312
0.16163287 0.21456914 0.255312
-0.20523819 0.22751947 0.255312
0.12764113 0.22830209 0.25531197
-0.16955054 0.23782001 0.255312
-0.12138211 0.23340419 0.255312
0.17059617 0.23301508 0.255312
0.18094914 0.23546308 0.255312
-0.035071865 0.24663247 0.255312
0.1073933 0.24141808 0.255312
0.15797101 0.25311404 0.255312
0.18601933 0.2528947 0.255312
0.20443469 0.2664941 0.255312
0.067023806 0.27309167 0.255312
0.16182767 0.27188966 0.255312
0.20227383 0.27290544 0.255312
-0.20817795 0.28508693 0.255312
-0.15116867 0.28181821 0.255312
-0.10345203 0.29418725 0.255312
0.060756616 0.29196081 0.255312
-0.13839744 0.30726239 0.255312
0.082725838 0.30442515 0.255312
-0.18058237 0.31330979 0.255312
-0.037014905 0.31970775 0.255312
0.17466927 0.31701133 0.255312
0.18543598 0.310745 0.255312
-0.13069642 0.32006967 0.255312
-0.03641554 0.32583827 0.255312
-0.027121674 0.32469106 0.255312
0.054756887 0.32194918 0.255312
-0.18814029 0.33318436 0.255312
-0.040179975 0.33968365 0.255312
-0.16648769 0.34296936 0.255312
-0.0088217035 0.34167972 0.255312
0.091289699 0.34986696 0.255312
0.11864735 0.34628814 0.255312
0.062738903 0.35313705 0.255312
-0.16250409 0.36610761 0.255312
-0.14568081 0.36708939 0.255312
-0.043340102 0.367495 0.25225213
