# .PCD v0.7 - Point Cloud Data file format
VERSION 0.7
FIELDS x y z
SIZE 4 4 4
TYPE F F F
COUNT 1 1 1
WIDTH 976
HEIGHT 1
VIEWPOINT 0 0 0 1 0 0 0
POINTS 976
DATA ascii
-0.28191119 -0.33597565 -0.238896
-0.17873123 -0.33620101 -0.23858994
-0.10909874 -0.32861316 -0.23889637
-0.037330128 -0.31312531 -0.23889652
0.063673973 -0.3029618 -0.23889676
-0.10068972 -0.28636658 -0.2388964
-0.11733247 -0.26836401 -0.23889634
-0.014375709 -0.26354471 -0.23889658
0.1985033 -0.26765233 -0.238897
-0.1986796 -0.25836828 -0.23889618
0.053856179 -0.25305769 -0.23889673
0.18053798 -0.24988312 -0.23056181
0.20652771 -0.24482882 -0.238897
-0.19912824 -0.23651175 -0.23889618
0.12023159 -0.23677377 -0.23889686
0.180538 -0.23321757 -0.23700362
0.00038952008 -0.22274947 -0.23889661
-0.23929067 -0.20346178 -0.23889609
-0.068337098 -0.20261833 -0.23889646
-0.046932951 -0.19472098 -0.2388965
-0.0048608333 -0.19949324 -0.23889659
-0.020966187 -0.18837789 -0.23889658
0.11643558 -0.1852262 -0.23889685
-0.13571398 -0.17872623 -0.23889631
-0.047614999 -0.17018765 -0.2388965
0.003145799 -0.17509942 -0.23889662
0.017012492 -0.1718059 -0.23889665
0.11749427 -0.17596418 -0.23889686
-0.060807958 -0.16084452 -0.23889649
-0.1861622 -0.1539309 -0.23889621
-0.16218382 -0.1596245 -0.23889625
-0.10042711 -0.13085595 -0.2388964
-0.067519598 -0.13086966 -0.23889647
0.14607978 -0.120575 -0.23889692
0.2285977 -0.12193305 -0.238897
0.10300255 -0.11601005 -0.23889683
0.17506339 -0.11894891 -0.238897
0.22380611 -0.11590867 -0.238897
-0.24114248 -0.10650215 -0.23889607
-0.10471007 -0.10497946 -0.23889637
-0.11169643 -0.099984348 -0.23889637
-0.10839539 -0.096060634 -0.23889637
-0.038284898 -0.081449002 -0.23889652
0.18972695 -0.080202661 -0.238897
-0.17023741 -0.078631684 -0.23889625
-0.16328466 -0.079633713 -0.23889625
0.23162156 -0.072110951 -0.238897
0.17776233 -0.053895339 -0.238897
0.23737335 -0.055655368 -0.2348839
-0.21757537 -0.040073372 -0.23889613
-0.019067697 -0.049255729 -0.23889658
-0.055180758 -0.030099198 -0.23889649
0.21748573 -0.022405429 -0.238897
-0.20477733 -0.0045011677 -0.23889616
-0.12406105 -0.0083865896 -0.23889634
-0.20520192 0.0010763779 -0.23889616
0.093019053 0.011722028 -0.2388968
-0.18001294 0.027624972 -0.23889622
0.049524941 0.022600934 -0.23889671
0.21359646 0.020995328 -0.238897
-0.16201542 0.032370478 -0.23889625
-0.033361435 0.03671632 -0.23889652
0.11633714 0.045467269 -0.23889686
0.12125451 0.042796768 -0.23889686
0.15607616 0.045318007 -0.23889694
0.23197159 0.047396176 -0.238897
-0.22421148 0.057216961 -0.23889612
0.14070708 0.051901244 -0.23889691
-0.055616919 0.063152768 -0.23889647
-0.17591269 0.077966549 -0.23889624
-0.015596345 0.071005233 -0.23889658
0.14676993 0.070820913 -0.23889694
-0.15637116 0.080720946 -0.23889627
0.014119983 0.089551449 -0.23889664
0.07073535 0.085430145 -0.23889676
-0.25441113 0.091822386 -0.23889606
0.10757636 0.098994792 -0.23889683
0.1992999 0.094225958 -0.238897
-0.15749751 0.10222105 -0.23889625
-0.07572715 0.1062018 -0.23889643
-0.12214939 0.12086898 -0.23889636
-0.23546784 0.13588618 -0.2388961
0.071548775 0.13210061 -0.23889676
-0.13954403 0.14327057 -0.2388963
-0.12335286 0.14020675 -0.23889636
0.064958632 0.15647927 -0.23889676
0.16945648 0.15009274 -0.23889697
-0.12742634 0.16787663 -0.23889634
0.039120801 0.17951754 -0.23889668
0.13490798 0.17611383 -0.23889689
-0.036197189 0.18008891 -0.23889653
-0.096372411 0.19509321 -0.2388964
-0.12679814 0.2086813 -0.23889634
0.049574226 0.20788702 -0.23889673
-0.26684856 0.22755277 -0.23889604
-0.12321249 0.22048786 -0.23889634
0.10250986 0.22586924 -0.23889682
-0.1112189 0.23642522 -0.23889637
-0.096515298 0.25147203 -0.2388964
-0.0040580034 0.25472701 -0.23889659
-0.060307033 0.26437148 -0.23889647
-0.17301863 0.2716074 -0.23889624
-0.061621316 0.27612567 -0.23889649
0.092712663 0.28667879 -0.2388968
-0.17194918 0.30964014 -0.23889624
0.180538 0.30216089 -0.23602407
-0.15223244 0.31544417 -0.23889628
-0.14382195 0.32076895 -0.2388963
-0.2691209 0.33165184 -0.23889603
-0.23390326 0.33620101 -0.23681162
-0.22949988 0.33620101 -0.2358278
-0.10844992 0.33331355 -0.23889637
-0.088267349 -0.33620101 -0.22769815
-0.28266099 -0.25767112 -0.22420201
0.180538 -0.12056931 -0.22388658
-0.28266099 -0.066906959 -0.22648317
0.180538 -0.031224638 -0.22344798
0.180538 0.090994313 -0.22964048
0.23591515 0.11755727 -0.22443801
-0.28266099 0.15513903 -0.22246426
0.180538 0.16978693 -0.22196642
0.180538 0.18841442 -0.22578198
0.2121731 0.23191199 -0.22617406
0.20411871 0.29572254 -0.22188814
0.180538 0.31453171 -0.2201933
-0.23964603 0.33620101 -0.22828719
0.062568806 0.33620101 -0.22483657
0.180538 0.33223739 -0.22127838
0.180538 -0.29101181 -0.21768732
0.22684459 -0.21504794 -0.21019727
-0.28266099 -0.13424662 -0.21343344
0.180538 -0.10843026 -0.21089154
0.2424563 -0.073199235 -0.21555796
0.24421281 -0.016140198 -0.21654321
0.24041703 0.084197842 -0.21870069
0.23782128 0.1355924 -0.2100421
0.180538 0.18139993 -0.21250874
-0.28266099 0.2156074 -0.21948425
0.18053801 0.25694007 -0.21137613
0.180538 0.29789686 -0.21202855
-0.25729272 0.33620101 -0.21338505
-0.06546849 0.33620101 -0.21703571
0.078127384 -0.33620101 -0.20145994
-0.28266102 -0.281138 -0.20174697
0.180538 -0.27770454 -0.20683303
-0.28266099 -0.16139373 -0.20062253
0.180538 -0.12105788 -0.2074309
0.180538 -0.047428392 -0.208877
0.180538 0.018079709 -0.20490779
0.22960122 0.19839463 -0.20668173
0.23104545 0.19441915 -0.20369212
0.18053801 0.21760243 -0.20273462
0.20399961 0.23191202 -0.20155945
0.21325803 0.28031892 -0.20435612
-0.25573274 0.33620098 -0.2070033
-0.0026118681 -0.33620101 -0.19837582
0.180538 -0.32298031 -0.19147058
0.180538 -0.31436181 -0.19205983
0.180538 -0.19816232 -0.19047001
0.2425229 -0.14745945 -0.19011554
0.21454063 -0.12558401 -0.19832301
-0.28266099 -0.10432442 -0.19232398
-0.28266099 -0.0039981604 -0.19346693
0.21800622 0.27320156 -0.19304959
-0.1212892 0.33620101 -0.19883972
0.0032075793 0.33620101 -0.19184774
0.12864643 0.33620101 -0.19067919
0.180538 -0.32459944 -0.18507093
0.180538 -0.23862827 -0.18638305
0.23660138 -0.19140349 -0.18890569
-0.28266099 -0.18074816 -0.18317604
0.180538 0.0043766499 -0.18514797
0.22659528 0.00027932017 -0.18237154
0.21032444 0.015631918 -0.18425493
0.180538 0.021602383 -0.1828779
0.22122827 0.023099674 -0.18929389
0.180538 0.086201206 -0.18108103
0.180538 0.10958796 -0.18340671
0.22142369 0.11281742 -0.18980333
0.22772412 0.13229486 -0.1866688
0.180538 0.20730235 -0.18985572
0.18350029 0.235649 -0.18103282
0.22944164 0.23657282 -0.18067235
0.180538 0.25573963 -0.18592159
-0.056867272 0.33620101 -0.18529315
0.13939339 0.33620101 -0.18796226
0.15766722 0.33620101 -0.18820727
0.11535867 -0.33620101 -0.17119077
0.12025878 -0.33620101 -0.17474589
0.180538 -0.26202253 -0.17349251
0.20339325 -0.13186935 -0.171221
-0.28266099 -0.12570214 -0.17370924
0.180538 -0.12026775 -0.17391819
0.180538 -0.048353359 -0.17173359
0.1971706 -0.0057987589 -0.17965187
0.19009095 0.045428336 -0.17084864
0.180538 0.10285282 -0.17697284
-0.28266099 0.20858634 -0.17429905
0.22594175 0.25776768 -0.17844488
0.180538 0.27496502 -0.17686433
0.22374558 0.27300465 -0.17180213
-0.06108116 0.33620101 -0.17722632
0.1745238 0.33620101 -0.17749743
-0.2415572 -0.33620101 -0.16888873
0.063418567 -0.33620101 -0.16202348
0.18053798 -0.30692056 -0.16206753
0.21129671 -0.13231011 -0.16908568
0.180538 -0.079946712 -0.16972366
0.25510648 -0.030617516 -0.16638589
0.21777028 -0.02778032 -0.16489291
0.22465602 -0.029415268 -0.16401903
-0.28266099 -0.010349907 -0.16388571
0.180538 -0.0079250708 -0.16242921
0.19471832 0.10888064 -0.16977896
0.22954862 0.1749709 -0.16766158
0.22415186 0.1842317 -0.16263661
0.2429606 0.18096904 -0.16734397
0.180538 0.19825181 -0.16382138
0.180538 0.20022415 -0.1643912
0.180538 0.2190935 -0.16700849
0.180538 0.24732722 -0.16698672
-0.28266099 0.25783816 -0.16283156
-0.26122051 0.33620101 -0.16603309
-0.1975105 0.33620101 -0.16867507
0.019725965 0.33620101 -0.16042134
0.097802855 0.33620101 -0.16801919
-0.14740115 -0.33620101 -0.15225999
-0.070142858 -0.33620101 -0.15382767
0.180538 -0.30644155 -0.15864246
0.24075231 -0.22391708 -0.15220645
0.22182599 -0.13544059 -0.15391687
0.23734559 -0.13273762 -0.15781713
-0.28266099 -0.1165149 -0.15548927
0.2569949 -0.10966181 -0.1504052
0.180538 -0.090929374 -0.15942964
-0.28266099 -0.07798177 -0.15870844
0.24243379 -0.048273511 -0.15345493
-0.28266099 -0.026193082 -0.15628591
0.25808591 0.0042566881 -0.15899369
0.180538 0.17246911 -0.15014286
0.20361133 0.231912 -0.15704393
0.21393016 0.23191199 -0.15325786
0.180538 0.24003045 -0.15886238
0.22372955 0.29334104 -0.15309592
0.180538 0.31082475 -0.15440822
0.21886258 0.31853172 -0.15012255
0.1714799 0.33620101 -0.15013523
0.18053801 -0.30400079 -0.14959882
0.22559129 -0.30259246 -0.14059798
0.180538 -0.25121713 -0.14438872
0.180538 -0.19794984 -0.1494222
-0.28266099 -0.14987776 -0.14585367
0.24599349 -0.13656361 -0.14847568
0.180538 -0.12877762 -0.14491919
0.21533774 -0.023214485 -0.14430976
0.26542804 -0.017378302 -0.14866439
0.180538 -0.0026258379 -0.14870435
0.180538 0.013167016 -0.14015597
0.27346116 0.016057972 -0.14888713
0.27369121 0.029354785 -0.14614621
-0.28266099 0.048546582 -0.14396283
0.23268424 0.20768027 -0.14594734
0.19918555 0.2181682 -0.14292562
0.24154688 0.21647769 -0.1496353
0.23382953 0.26159334 -0.1415849
0.180538 0.32456207 -0.14988574
-0.28266099 0.33615994 -0.14791556
0.0096013322 0.33620101 -0.14775482
0.088607922 0.33620101 -0.14249441
-0.19193894 -0.33620101 -0.13126782
0.16396581 -0.33620101 -0.13677329
-0.28266099 -0.26129615 -0.13011096
0.180538 -0.14627749 -0.13753048
-0.28266099 -0.11660553 -0.13736154
0.180538 -0.11560035 -0.13763458
0.24453175 -0.070910774 -0.13288888
0.25348759 -0.068004772 -0.13642995
0.26832709 0.037733737 -0.13608381
0.27579436 0.031011835 -0.13066012
0.26027787 0.15284134 -0.13442342
0.180538 0.20314842 -0.13212554
0.18163311 0.235649 -0.13923453
0.21127415 0.23215547 -0.13173264
0.23768274 0.23171434 -0.13198838
0.23331112 0.26912558 -0.13409917
0.14190419 0.33620101 -0.13775173
-0.13774702 -0.33620101 -0.12136762
-0.099639125 -0.33620101 -0.12674019
0.180538 -0.30998677 -0.12539817
0.2501134 -0.20043114 -0.12130481
0.180538 -0.12755568 -0.12750304
0.24311663 -0.050652813 -0.12138224
0.180538 0.040251687 -0.12735055
0.24808346 0.065515056 -0.1266119
0.26030049 0.15251864 -0.12351749
-0.28266099 0.18980867 -0.12447028
0.21185641 0.19579059 -0.12311652
0.22566573 0.24510872 -0.12420881
-0.23073801 0.33620101 -0.12560463
0.035187896 0.33620101 -0.12957978
0.18558383 0.33620101 -0.12941235
0.180538 -0.3104988 -0.11501335
0.20830891 -0.14225754 -0.11299258
-0.28266099 -0.018289387 -0.1141258
0.2592907 0.16695407 -0.11263528
0.180538 0.25133833 -0.11252296
0.1041219 0.33620101 -0.11196103
0.18869337 0.33620101 -0.11787987
-0.06495557 -0.33620101 -0.10408747
-0.051633202 -0.33620101 -0.10349122
0.13171242 -0.33620101 -0.10033493
0.23075393 -0.30167329 -0.10951602
0.23713128 -0.28004164 -0.10247214
0.23825687 -0.2709192 -0.10881756
0.180538 -0.20167546 -0.10538672
0.2195835 -0.14147428 -0.1047904
0.180538 -0.12578861 -0.10895105
0.23516923 -0.095281869 -0.10001468
0.180538 0.013004482 -0.1031664
0.2376979 0.06848222 -0.10652713
0.2706019 0.10526919 -0.10512684
0.25037527 0.13749196 -0.10884809
0.26826331 0.1387101 -0.10649116
0.26280761 0.1418581 -0.10698356
0.25975376 0.160335 -0.10425661
0.180538 0.28537422 -0.10724674
0.23388796 0.283898 -0.10845151
-0.25218904 0.33620101 -0.10736261
-0.092864648 0.33620101 -0.10240262
0.034709215 0.33620101 -0.10279571
-0.23864478 -0.33620101 -0.09807229
-0.21947983 -0.33620101 -0.091088012
-0.052445851 -0.33620101 -0.096952632
-0.28266099 -0.18130672 -0.094230734
0.180538 -0.15460961 -0.095218673
0.26199165 -0.14287262 -0.09729515
0.26476127 -0.12041631 -0.09450908
-0.28266099 -0.071603149 -0.099119402
0.26847702 0.1356533 -0.097309701
-0.28266099 0.21956539 -0.095505238
0.22226544 0.21592024 -0.098807186
0.180538 0.29571924 -0.092607886
0.23018247 0.2986204 -0.096197538
0.25036451 -0.23099063 -0.08533451
0.24874976 0.17004706 -0.080781221
0.21911578 0.22225681 -0.088288993
0.24828863 0.25280976 -0.08550895
-0.28266099 0.27769023 -0.084774613
-0.14793226 0.33620101 -0.081300214
0.180538 -0.29916468 -0.072172903
0.24067819 -0.28085047 -0.078884095
0.180538 -0.26330185 -0.071029872
0.180538 -0.2004219 -0.076437809
0.180538 -0.10416915 -0.074790128
-0.28266099 -0.078348041 -0.071951523
0.18176901 -0.079978459 -0.079940751
0.27778697 0.0024971906 -0.076397829
-0.28266099 0.031088918 -0.071786165
0.23175949 0.15339661 -0.076940268
-0.28266099 0.19785249 -0.073581219
0.180538 0.27804959 -0.071490124
0.20803979 0.32845604 -0.075799219
0.23341843 0.32015151 -0.075600743
-0.28093755 0.33620101 -0.075917274
-0.016899437 0.33620101 -0.071187116
0.180538 0.33044094 -0.077883743
-0.28266099 -0.2818082 -0.067302264
-0.28266099 -0.21525316 -0.069287859
0.180538 -0.21764593 -0.063061059
0.25743729 -0.20374036 -0.06369698
-0.28266099 -0.19453521 -0.067802429
-0.28266099 -0.15248409 -0.067791127
-0.28266099 -0.10223872 -0.065432362
0.26721531 0.15369469 -0.067027263
0.24124381 0.28892744 -0.0657444
-0.032384276 0.33620101 -0.06041123
0.0015715323 0.33620101 -0.066725127
0.180538 0.33001655 -0.066356428
0.180538 -0.18044469 -0.054069877
0.24291347 -0.14870754 -0.050536845
0.2656793 -0.11048367 -0.059765127
-0.28266099 0.12585653 -0.054106768
0.23304263 0.13504942 -0.051591821
0.26863277 0.13342506 -0.052486513
0.23193419 0.18482155 -0.056482956
-0.10377184 0.33620101 -0.059933528
0.180538 0.33582136 -0.050044633
0.23509911 -0.31312621 -0.043232016
0.23160206 -0.11820025 -0.043470543
0.23036316 -0.093997665 -0.044163499
0.180538 -0.080257446 -0.048856154
-0.28266099 -0.079459429 -0.049794525
-0.28266099 -0.025903881 -0.040076524
-0.28266099 0.0048364997 -0.047922634
-0.28266102 0.01180096 -0.042165324
0.2764492 0.021644551 -0.04218363
0.23452671 0.11382489 -0.049826577
0.24557167 0.19023138 -0.047903296
0.26353157 0.19052485 -0.049961038
0.2635892 0.20554793 -0.047049183
0.22616814 0.31263977 -0.046225172
-0.13917206 0.33620101 -0.043023996
0.14063063 0.33620101 -0.048222713
-0.20568547 -0.33620101 -0.03883642
0.067952037 -0.33620101 -0.038714945
0.090259083 -0.33620101 -0.032157712
0.180538 -0.11596716 -0.030188385
0.180538 -0.061739594 -0.033515535
0.180538 -0.045614462 -0.031237386
0.24408692 -0.022885973 -0.033777129
0.23143928 0.15797403 -0.03091684
0.26591593 0.17226964 -0.030323347
0.25658527 0.20564735 -0.031668227
0.23056273 0.24211615 -0.039622888
-0.28266099 0.29312438 -0.033127971
-0.28266099 -0.30611229 -0.020704336
0.180538 -0.28035137 -0.02379076
-0.28266099 -0.16364852 -0.023834001
0.180538 -0.16673143 -0.021265227
0.19222078 -0.14992981 -0.026741838
0.180538 -0.13171658 -0.029068783
0.20592846 -0.098149061 -0.023941755
0.2573536 -0.052300096 -0.025860552
-0.28266099 0.025532037 -0.025229156
0.180538 0.12873492 -0.025010012
0.26785716 0.14451987 -0.025138997
-0.28266099 0.23526794 -0.023114659
-0.15221548 0.33620101 -0.020601459
-0.091762237 0.33620101 -0.027096942
-0.0383045 0.33620101 -0.020717863
0.20988713 0.33620101 -0.021258892
-0.15384814 -0.33620101 -0.017171547
0.1998634 -0.32421601 -0.016609907
0.23930028 -0.30349296 -0.010494184
-0.28266099 -0.22742945 -0.011865556
0.24455512 -0.14826247 -0.010278579
0.2702398 -0.12733938 -0.012825618
0.27535456 -0.0627684 -0.013252832
0.24564332 -0.045144238 -0.014948284
-0.28266099 0.021572202 -0.01476185
-0.28266099 0.091139235 -0.019605635
0.26645604 0.16454834 -0.016474631
0.180538 0.17848617 -0.011791937
0.180538 0.25062442 -0.018404391
0.23920217 0.31098497 -0.01698247
0.050207786 0.33620101 -0.015766528
-0.17462301 -0.33620101 -0.0021896958
-0.28266099 -0.28229371 -0.0097419173
-0.28266099 -0.25769436 -0.0036800858
0.18935138 -0.15021816 -0.0050203083
0.25956452 -0.14827687 -0.0089520831
0.28222057 -0.070230074 -0.006389509
0.180538 0.16189259 -0.0092091188
0.180538 0.22008651 -0.00034802034
0.26216841 0.30835646 -0.00024731358
-0.28266099 0.32803214 -0.0089062527
0.068630964 0.33620101 -0.00022833049
-0.13442126 -0.33620101 0.0076869503
0.011252519 -0.33620101 0.009368157
-0.28266099 -0.29418683 0.007779236
0.24970095 -0.26042169 0.0051369676
0.180538 -0.25038859 0.0086937472
0.180538 -0.19691266 0.0037613213
0.24445739 -0.1484572 0.0077176527
-0.28266099 -0.11262756 0.0091950819
-0.28266099 0.088362001 0.0099453032
0.23670121 0.082735389 0.0020775008
0.25415865 0.240346 0.0075212121
0.24554081 0.28825742 0.0057541002
0.25220227 0.30707726 0.0066448892
0.23615834 0.32382429 0.0091994768
-0.10916607 0.33620101 0.0074585155
0.180538 -0.31691837 0.011987388
0.180538 -0.17170893 0.019873491
0.180538 -0.14215219 0.01295954
0.27499348 -0.052570194 0.013914358
0.28080201 -0.040600631 0.013844976
-0.28266099 -0.037714154 0.012406915
-0.28266099 -0.014627051 0.010678556
-0.28266099 -0.0036732624 0.0109435
-0.28266099 0.089951426 0.018652774
0.23305738 0.13483846 0.010226417
0.26074314 0.22266141 0.013101928
0.25432158 0.23801507 0.010692163
0.180538 0.32934397 0.016678028
-0.021265075 0.33620101 0.016038522
0.1190944 0.33620101 0.01779408
-0.2544266 -0.33620101 0.026539437
0.025258683 -0.33620101 0.027729202
0.21525151 -0.32421601 0.026326306
0.180538 -0.31675404 0.025727149
-0.28266099 -0.16295794 0.02464316
0.180538 -0.12433991 0.024707384
0.25774589 -0.1212312 0.024438281
0.22453737 -0.098586641 0.020112071
0.28162694 -0.072190046 0.029161423
0.24545449 -0.042442694 0.022772683
0.27598372 0.028303159 0.026759598
0.180538 0.061907295 0.024156235
0.19097736 0.24483101 0.025155749
0.22503421 0.244689 0.026597938
0.25052381 0.24449098 0.028608855
0.24153873 0.30380422 0.021681227
-0.28266099 0.31073558 0.027131263
-0.25948331 0.33620101 0.028739914
-0.0050135385 0.33620101 0.020196121
0.052569948 0.33620101 0.027624719
0.11183175 -0.33620101 0.034411795
0.12513423 -0.33620101 0.033888757
0.180538 -0.23933566 0.035476036
-0.28266099 -0.17195109 0.035397161
0.180538 -0.17081553 0.039024118
0.1821588 -0.14930147 0.038397685
0.19406195 -0.1195312 0.039697435
0.27561894 -0.066550963 0.039202683
0.23881765 0.05246928 0.037095524
0.2735557 0.063016877 0.033015374
0.23452762 0.11381701 0.031628963
0.19498025 0.24421203 0.031441506
-0.28266099 0.27902228 0.035270873
-4.053954e-05 0.33620101 0.030568825
0.059978046 0.33620101 0.03477012
0.10154087 -0.33620101 0.044171222
0.12690206 -0.33620101 0.047323614
0.180538 -0.29420242 0.041786656
0.24369718 -0.27742967 0.046361621
0.180538 -0.20805891 0.048337329
0.24788031 -0.14898369 0.044733908
0.25925058 -0.11451779 0.047080543
0.27694121 -0.085455954 0.043736257
0.24350898 -0.014624053 0.044595819
0.180538 0.26120359 0.040460661
0.180538 0.31276917 0.045644864
-0.126697 -0.33620101 0.051256567
-0.11418179 -0.33620101 0.050824881
0.091215819 -0.33620101 0.056546159
0.180538 -0.32071471 0.054021582
0.180538 -0.31038356 0.055597045
-0.28266099 -0.22763747 0.053045146
0.26244923 -0.17299423 0.057744551
0.21892524 -0.11547463 0.053069822
0.180538 0.017248422 0.055595271
0.27492398 0.043452382 0.05684964
0.180538 0.27260754 0.051613152
-0.28193948 0.33620101 0.054926813
-0.24272317 0.33620101 0.051408418
-0.13138644 0.33620101 0.058036961
-0.1033102 0.33620101 0.053762697
-0.054692797 0.33620101 0.058100633
0.054623649 0.33620101 0.058330156
0.054981411 -0.33620101 0.069389671
0.180538 -0.2888869 0.06924358
-0.28266099 -0.21426782 0.060472354
-0.28266099 -0.1782046 0.068399779
0.19151852 -0.14559683 0.068419129
0.26640311 -0.13608432 0.069353543
0.23316005 -0.11209694 0.064205118
0.24616212 -0.10756864 0.069986895
0.23506479 -0.088417329 0.063172542
0.28034478 -0.034066875 0.062510021
0.24102035 0.020964181 0.067561626
0.180538 0.085144885 0.06013741
0.26077896 0.21412362 0.061421584
-0.080921113 -0.33620101 0.074966215
0.180538 -0.23985831 0.072028056
0.180538 -0.17020628 0.079324558
0.27479601 -0.054777797 0.076416694
0.24004981 0.034846339 0.076043293
0.27568364 0.032592867 0.076323569
0.27441421 0.050739549 0.072244599
0.23694408 0.079262435 0.078206241
0.27182367 0.087793827 0.076713808
0.23023394 0.17521802 0.073091067
0.21158323 0.23220089 0.070299394
0.180538 0.26202825 0.076154977
0.23318067 0.32271233 0.071804009
-0.15242286 0.33620101 0.075517483
-0.25309238 -0.33620101 0.086020276
0.180538 -0.24249937 0.084047332
-0.28266099 -0.18815181 0.088154823
-0.28266099 -0.15869288 0.089210868
0.2239756 -0.10556194 0.081397399
0.23411959 -0.10354234 0.085175842
0.180538 -0.079229861 0.085272431
0.21033649 -0.076182216 0.087657444
0.180538 0.092436381 0.084878452
-0.28266099 0.18844289 0.083795175
0.20976742 0.32491532 0.080975488
-0.15374167 0.33620101 0.085928999
-0.093973115 0.33620101 0.080779329
0.037591923 0.33620101 0.087251209
0.17822531 0.33620101 0.085921913
-0.2219975 -0.33620101 0.099229857
-0.037599158 -0.33620101 0.091883495
0.087354258 -0.33620101 0.094695181
-0.28266099 -0.26998502 0.093650937
0.180538 -0.18570824 0.095345698
0.27111751 -0.087277293 0.094514936
0.24348457 -0.074758545 0.090321049
0.27926785 -0.041603502 0.095304325
0.180538 -0.031312406 0.099325903
0.27176926 -0.011490659 0.098718911
0.23981477 0.038208306 0.090729766
0.180538 0.08451581 0.092441767
0.2588644 0.17304859 0.092737734
-0.26797497 0.33620101 0.096959144
-0.18200739 0.33620101 0.092822209
-0.28266096 -0.2621845 0.1014264
-0.28266099 -0.10924166 0.1047658
0.21371257 -0.062886335 0.10709047
0.180538 -0.053346932 0.1022013
0.180538 -0.0062254295 0.10394911
0.26927859 -0.0037095572 0.10127347
0.27500653 0.0035824263 0.10672635
-0.28266099 0.041672654 0.10816269
0.180538 0.09033943 0.10816238
0.25974625 0.16044253 0.10132335
0.25841194 0.1795207 0.10854854
-0.28266099 0.33524814 0.10906096
0.17485406 0.33620101 0.10970534
0.21283048 -0.32421601 0.114953
0.180538 -0.29184225 0.11815184
-0.28266102 -0.1733672 0.11277097
0.26064426 -0.12627855 0.1167632
0.180538 -0.091226652 0.11481643
0.25075874 -0.086677596 0.11429067
0.18789014 -0.058482505 0.1124566
0.27691427 -0.04099695 0.11629867
0.27103764 -0.0010347459 0.1173446
0.2380619 0.063276947 0.11999497
0.23650767 0.2056928 0.11188371
-0.28266099 0.23994404 0.1190958
0.18527415 0.26366225 0.11343269
0.20241955 0.26293552 0.11722016
-0.28266099 0.29216993 0.1161107
0.180538 0.29123867 0.11165753
0.22867224 0.29896992 0.11769107
-0.28266099 0.33016151 0.11011756
-0.23668942 0.33620101 0.11763931
0.16085166 0.33620101 0.11737123
-0.26208925 -0.33620104 0.12360368
-0.16906871 -0.33620101 0.12041142
-0.107016 -0.33620101 0.12226897
-0.28266099 -0.31037897 0.1257135
0.2262256 -0.31262064 0.1200806
0.23336905 -0.28032055 0.12581207
0.180538 -0.20067123 0.12033367
0.20602466 -0.14028989 0.12702309
0.180538 0.028287545 0.12647963
0.2755661 0.034273155 0.1202856
0.24024297 0.061964154 0.12693129
-0.28266099 0.16791029 0.12562391
0.25888202 0.1727978 0.12606806
0.21922636 0.24635015 0.12348811
-0.09838704 0.33620101 0.1265427
0.015068009 0.33620101 0.12303387
-0.20894308 -0.33620101 0.13246414
-0.021902096 -0.33620101 0.1310519
0.180538 -0.28195587 0.13052759
0.26143625 -0.082395554 0.13530459
0.18067285 -0.065071419 0.13291198
0.19288868 -0.069576994 0.13094477
0.20936444 -0.064641774 0.13695857
0.20984598 -0.035220068 0.13508022
-0.28266099 0.13946211 0.13964811
0.26550087 0.14637595 0.13491933
0.2159401 0.22729574 0.13455498
0.23285267 0.22130252 0.13803539
0.23975685 0.23656377 0.13761321
0.180538 0.30627334 0.13579375
-0.046415143 0.33620101 0.13515352
0.08847066 0.33620104 0.13863231
0.14511278 0.33620101 0.1326607
0.180538 0.33585107 0.13049641
-0.23456199 -0.33620101 0.14676808
-0.029922914 -0.33620101 0.14773718
0.19854346 -0.32421601 0.14772639
0.180538 -0.22468747 0.14363249
0.180538 -0.20256883 0.1454131
0.180538 -0.076370701 0.14982302
0.22726783 -0.054562919 0.14547363
0.2447952 -0.020669011 0.14628388
0.180538 0.11503814 0.14695399
-0.28266099 0.21410151 0.14705795
0.22376342 0.30213028 0.14352271
0.22088756 0.31339988 0.14290679
-0.041051105 0.33620101 0.14732239
0.11129484 0.33620101 0.14010218
-0.03586667 -0.33620101 0.15013525
0.180538 -0.31762341 0.15815775
0.22524643 -0.29489183 0.15158576
0.180538 -0.24307539 0.15124162
0.180538 -0.18821929 0.1556986
-0.28266099 -0.17318428 0.15491177
0.25079665 -0.14893027 0.15852468
0.19642216 -0.04802613 0.15427138
-0.28266099 -0.020378441 0.15591894
0.26391715 -0.0132875 0.156743
0.180538 0.018246986 0.1546555
0.26709598 0.055335782 0.15661979
0.19976342 0.14607635 0.15768673
0.180538 0.15121882 0.15253241
0.22289848 0.15619136 0.15227985
0.18660304 0.19688952 0.15584207
0.22719881 0.19775268 0.15171412
0.23253676 0.25967693 0.15052702
0.21978548 0.31015959 0.15122259
0.21420926 0.32293373 0.1587781
0.15651111 0.33620101 0.15024395
0.17877977 0.33620101 0.15251756
-0.10745256 -0.33620101 0.16492236
0.180538 -0.15444727 0.16184315
0.18458657 -0.13422972 0.16323136
0.180538 -0.080404632 0.16437343
0.26151368 0.0094410628 0.16177236
0.20968094 0.016584866 0.16393974
0.24761404 0.17583671 0.16480352
-0.28266099 -0.2674318 0.1767679
0.22671416 -0.25941318 0.17755024
0.180538 -0.22082692 0.17567608
0.180538 -0.20944329 0.17039947
-0.28266099 -0.17462957 0.17208166
0.24279666 -0.13000701 0.1798121
-0.28266099 -0.072364658 0.17029849
0.180538 -0.027193591 0.17820491
0.22084904 -0.011918451 0.17699477
0.20006339 -0.0060024718 0.17714763
0.23434371 -0.004023226 0.17820556
0.2193131 0.098159194 0.17177396
0.180538 0.13379768 0.17217642
0.2268472 0.15523553 0.17581517
0.21867093 0.29284334 0.17245519
0.180538 0.30205256 0.17997886
-0.28266099 0.31046897 0.17516208
0.20740747 0.3283872 0.17774193
-0.048582558 0.33620101 0.17043045
-0.14824346 -0.33620101 0.18241777
-0.014362931 -0.33620101 0.18220249
0.095124923 -0.33620101 0.18899745
-0.28266099 -0.17928517 0.18433847
0.2444119 -0.13934425 0.18687916
0.21233878 -0.12768489 0.18107116
0.24330406 -0.12772785 0.18911028
0.180538 0.071112514 0.18987975
-0.28266099 0.1617125 0.18048367
0.180538 0.25552812 0.18532743
-0.14298184 0.33620101 0.18297997
-0.11380084 0.33620101 0.18889172
-0.031179465 0.33620101 0.18582974
0.061567917 0.33620101 0.18311374
0.10614413 -0.33620101 0.19986573
0.17933932 -0.33620101 0.19218521
0.22936486 -0.2166239 0.19970995
0.23178613 -0.12614131 0.19558293
0.20637794 0.064766295 0.1964383
0.19972309 0.081909172 0.19644487
0.19330293 0.09432593 0.19255389
0.24528702 0.093586721 0.19529431
-0.28266099 0.10004693 0.19975123
0.180538 0.14336708 0.19229695
-0.28266099 0.23487349 0.19461192
0.180538 0.25375849 0.19404192
-0.28266099 0.28327996 0.19061702
0.180538 0.28398341 0.19146559
0.21642156 0.2809996 0.19192162
0.180538 0.31275856 0.19990586
0.20809332 0.31217435 0.19280791
-0.16573507 0.33620101 0.19775689
-0.085660644 0.33620101 0.19028185
0.17844933 0.33620101 0.19044288
0.004827654 -0.33620101 0.20524719
0.20278087 -0.32421601 0.20534542
0.180538 -0.13967964 0.2017467
0.1859173 -0.12293787 0.20865183
0.23006813 -0.12257463 0.20311674
0.180538 -0.080736756 0.20080876
0.180538 -0.063849993 0.20000431
-0.28266099 0.10752615 0.20427611
-0.28266099 0.22465634 0.2089171
0.180538 0.23764336 0.2004738
0.20370263 0.23191202 0.20496166
-0.0042400286 0.33620101 0.20388159
0.0031103157 0.33620101 0.20212264
0.026479483 0.33620101 0.20202792
0.03974776 0.33620101 0.2003974
-0.15029253 -0.33620101 0.21942282
0.18775576 -0.32421601 0.21414378
0.20078322 -0.3228305 0.21523704
0.21089235 -0.28462526 0.21456249
0.21413115 -0.27355617 0.21233879
-0.28266099 -0.18934776 0.21681552
0.24138744 -0.10509326 0.21093191
-0.28266099 -0.094846196 0.21529891
0.180538 0.046604678 0.21199873
-0.28266099 0.051371798 0.2153424
-0.28266096 0.076945417 0.21744326
0.180538 0.078853548 0.21285112
0.180538 0.16473031 0.21099187
0.180538 0.17087305 0.21218757
0.23111269 0.18225521 0.21078473
0.22684264 0.20417452 0.21319062
-0.0057550892 0.33620101 0.21363097
0.028033599 0.33620101 0.21576412
0.11768093 0.33620101 0.21069168
-0.094500683 -0.33620101 0.22979182
-0.022530966 -0.33620101 0.22391692
0.055738635 -0.33620101 0.22597846
0.10521664 -0.33620101 0.22927126
0.19268726 -0.32421601 0.22182298
0.180538 -0.19528311 0.22963588
0.19828591 -0.11822232 0.22546761
-0.28266099 -0.10806409 0.22911349
0.24062413 3.3094082e-05 0.2294549
0.180538 0.041470576 0.22780243
0.180538 0.073868349 0.22409759
0.180538 0.095676832 0.22244821
0.180538 0.31702781 0.22548082
-0.083545461 0.33620101 0.2263748
-0.1039974 -0.33620101 0.23521486
-0.08290533 -0.33620101 0.23790653
0.066024274 -0.33620101 0.23649237
0.082688615 -0.33430731 0.238897
0.016222388 -0.31821156 0.238897
0.10576846 -0.31224784 0.238897
-0.10971502 -0.30729055 0.238897
0.085197985 -0.30471629 0.238897
-0.25423092 -0.29381344 0.238897
-0.14593112 -0.29824129 0.238897
0.180538 -0.29397887 0.23117599
-0.21276268 -0.28078777 0.238897
-0.020231895 -0.28241658 0.238897
-0.0027167276 -0.28919834 0.238897
-0.12313186 -0.27188751 0.238897
-0.1778111 -0.26347065 0.238897
-0.01377961 -0.26058576 0.238897
0.20562816 -0.26366901 0.238897
-0.24062979 -0.25169602 0.238897
-0.1911848 -0.25363198 0.238897
-0.15547054 -0.25277421 0.238897
-0.10463287 -0.24288023 0.238897
0.082020223 -0.24789697 0.238897
-0.21831515 -0.23160937 0.238897
0.020510063 -0.22887442 0.238897
0.035891108 -0.22615479 0.238897
-0.273314 -0.21446034 0.238897
-0.21156567 -0.21541667 0.238897
-0.0094519556 -0.21574821 0.238897
0.10746728 -0.2107265 0.238897
0.16257808 -0.21138753 0.238897
0.099925801 -0.20059289 0.238897
-0.28008112 -0.19563513 0.238897
-0.25100362 -0.19127364 0.238897
0.14347565 -0.19314207 0.238897
-0.28166336 -0.18122461 0.238897
-0.10098607 -0.18622375 0.238897
0.22292985 -0.18746918 0.2367655
0.024059076 -0.17375228 0.238897
-0.21776205 -0.16144113 0.238897
-0.041396447 -0.16464455 0.238897
-0.0087936744 -0.16627267 0.238897
0.025304399 -0.16959137 0.238897
0.21077718 -0.16922703 0.238897
-0.088201985 -0.15801789 0.238897
0.080738902 -0.14249901 0.238897
-0.1137002 -0.13188033 0.23889698
0.076652952 -0.13129 0.238897
0.16635476 -0.13527443 0.238897
0.180538 -0.13867575 0.23205054
-0.010207906 -0.12725921 0.238897
-0.28266099 -0.1176515 0.23824614
0.10811281 -0.11441594 0.238897
0.12038204 -0.11086511 0.238897
0.1927962 -0.11336262 0.2348291
0.21004967 -0.1129956 0.238897
-0.23256357 -0.10168475 0.238897
-0.038094528 -0.10442965 0.238897
-0.22221677 -0.098938353 0.238897
-0.089049846 -0.090063207 0.238897
0.180538 -0.093187861 0.23355709
0.17592803 -0.088530421 0.238897
0.22325116 -0.087507412 0.238897
0.2369222 -0.079469562 0.23275724
-0.25076839 -0.061401002 0.238897
-0.064115912 -0.061271124 0.238897
0.059123419 -0.061492056 0.238897
0.13716768 -0.066351876 0.238897
-0.18699393 -0.058913007 0.238897
0.1717758 -0.055099186 0.238897
-0.17307253 -0.038009919 0.238897
-0.16901264 -0.036795072 0.238897
0.14863859 -0.031587675 0.238897
0.18949179 -0.035855148 0.238897
-0.087077722 -0.029982507 0.238897
-0.026508756 -0.029028878 0.238897
-0.27260739 -0.015186517 0.238897
-0.21684864 -0.016435578 0.238897
0.230939 -0.010136407 0.238897
-0.22270817 -0.0076862201 0.238897
-0.0042294115 0.0067293942 0.238897
0.180538 0.008423239 0.23464698
-0.1596843 0.014787599 0.238897
0.18128057 0.015759276 0.23479848
-0.11742099 0.024526894 0.238897
-0.098293073 0.026797168 0.238897
-0.0014448985 0.027363583 0.238897
0.0095062181 0.037120819 0.238897
0.093932919 0.03055907 0.238897
0.11752509 0.038687106 0.238897
-0.14597203 0.042380538 0.238897
-0.13492624 0.042956971 0.238897
-0.066934012 0.046976365 0.238897
0.055502668 0.047250547 0.238897
0.14777163 0.046980597 0.238897
-0.033907671 0.057357371 0.238897
-0.014572223 0.05384225 0.238897
0.2014405 0.052095283 0.238897
-0.036586531 0.069789439 0.238897
-0.1087238 0.073644198 0.238897
0.22086972 0.073200583 0.238897
-0.27418426 0.086506628 0.238897
-0.24694198 0.084050335 0.238897
-0.21229975 0.08441408 0.238897
-0.20314252 0.081903644 0.238897
0.034120589 0.081202343 0.238897
-0.11030982 0.10743576 0.238897
0.010514878 0.1037586 0.238897
0.1709538 0.10800986 0.238897
-0.23556226 0.12504447 0.238897
0.10756498 0.12458653 0.238897
-0.18183345 0.13649744 0.238897
-0.15237674 0.13179789 0.238897
0.15047084 0.13532694 0.238897
0.10423145 0.14943357 0.238897
0.15230814 0.14148533 0.238897
0.22841814 0.14658831 0.23563951
-0.0017510876 0.15808666 0.238897
0.22791506 0.15970096 0.23218139
-0.024483413 0.1730563 0.238897
0.02370077 0.18851228 0.238897
-0.15949476 0.19375789 0.238897
-0.071763858 0.1917249 0.238897
0.00061700493 0.19421996 0.238897
0.21648797 0.19893003 0.238897
0.024113707 0.20102298 0.238897
0.086939104 0.20092544 0.238897
0.18539687 0.20240009 0.23889701
-0.26090673 0.21813515 0.238897
-0.18528254 0.21703945 0.238897
-0.070775755 0.21938941 0.238897
-0.0018939339 0.21766147 0.238897
-0.27662817 0.22691678 0.238897
-0.15310779 0.22573759 0.238897
-0.10647412 0.22979033 0.238897
-0.090227611 0.22733322 0.238897
-0.28261632 0.23508322 0.238897
0.149002 0.23953551 0.238897
-0.16851234 0.24909818 0.238897
0.028120629 0.24748373 0.238897
0.20455201 0.24475858 0.238897
-0.14427447 0.25603214 0.238897
0.0065558925 0.25494036 0.238897
0.079472028 0.26038238 0.23889698
-0.078966439 0.27090231 0.238897
-0.25245023 0.28101522 0.238897
-0.037006475 0.28284115 0.238897
0.13010587 0.28999415 0.238897
-0.11990595 0.29988229 0.238897
-0.087102175 0.29816478 0.238897
-0.012734681 0.29661828 0.238897
0.09284275 0.30253637 0.238897
-0.23361298 0.31025389 0.238897
0.037141092 0.31291687 0.238897
0.10642001 0.31351215 0.238897
-0.16519862 0.3208771 0.238897
-0.13546291 0.32940534 0.238897
-0.11361471 0.33620101 0.2388095
