# .PCD v0.7 - Point Cloud Data file format
VERSION 0.7
FIELDS x y z
SIZE 4 4 4
TYPE F F F
COUNT 1 1 1
WIDTH 979
HEIGHT 1
VIEWPOINT 0 0 0 1 0 0 0
POINTS 979
DATA ascii
0.16371492 -0.33809394 -0.24051653
0.0067020282 -0.31077921 -0.24756099
-0.10663342 -0.30593306 -0.24756101
-0.11086047 -0.28028056 -0.24756101
0.033331178 -0.28514707 -0.24756099
0.053149007 -0.26225847 -0.24756101
-0.16699234 -0.24883558 -0.24756099
-0.035945348 -0.2400312 -0.24756101
-0.17976989 -0.23511064 -0.24756098
0.23097286 -0.23191476 -0.24397701
-0.18137458 -0.22533479 -0.24756101
0.12876573 -0.22093752 -0.24756099
-0.10938049 -0.20358679 -0.24756101
0.055128094 -0.20413341 -0.24756098
0.22874638 -0.20706359 -0.24638839
-0.21963811 -0.19601999 -0.24756099
-0.13286176 -0.19654009 -0.24756099
-0.1256451 -0.19459875 -0.24756099
0.059303381 -0.19857705 -0.24756099
-0.24861194 -0.18874373 -0.24756101
-0.13567361 -0.18995249 -0.24756099
0.17244045 -0.18592103 -0.24756098
-0.25799999 -0.17612655 -0.24674234
-0.22813883 -0.17789927 -0.24756099
0.083429523 -0.17221132 -0.24756099
-0.25304604 -0.16697356 -0.24756099
0.11707801 -0.1657149 -0.24756098
-0.24915329 -0.14093262 -0.24756098
-0.033794302 -0.14518562 -0.24756101
0.085347109 -0.13592698 -0.24756099
-0.13287629 -0.12686551 -0.24756098
0.23157261 -0.12002599 -0.24682736
-0.22567634 -0.11322124 -0.24756099
-0.13300535 -0.10114817 -0.24756098
-0.10688872 -0.10969161 -0.24756099
0.019345095 -0.090944193 -0.24756101
-0.1640664 -0.088256344 -0.24756099
-0.051818185 -0.072386272 -0.24756098
0.14229238 -0.073307976 -0.24756098
-0.024093114 -0.061544135 -0.24756099
-0.25799999 -0.052721784 -0.24218187
-0.04380697 -0.057695664 -0.24756098
-0.014841609 -0.052147277 -0.24756099
-0.0036524609 -0.031061158 -0.24756099
0.12144429 -0.030540647 -0.24756098
-0.21510167 -0.024371713 -0.24756101
0.050893843 -0.028379157 -0.24756098
0.061534084 -0.020640135 -0.24756101
-0.005886917 -0.003299091 -0.24756099
-0.13588335 0.0085135922 -0.24756101
-0.062095396 0.019785084 -0.24756098
-0.038308728 0.011881777 -0.24756099
0.11013305 0.017719105 -0.24756099
0.011822373 0.031203181 -0.24756098
0.085762255 0.043426402 -0.24756098
-0.09197177 0.053793386 -0.24756101
-0.20769399 0.062645666 -0.24756101
-0.24781297 0.071452305 -0.24756101
-0.1531114 0.071692735 -0.24756101
0.045013115 0.070057243 -0.24756099
-0.2577135 0.083390594 -0.24756099
-0.088273466 0.086240008 -0.24756101
0.14569452 0.080643468 -0.24756099
0.20676485 0.080563769 -0.24756101
-0.23570047 0.093400121 -0.24756101
0.00078631192 0.096927837 -0.24756099
-0.17014739 0.1046001 -0.24756098
-0.039617427 0.10770093 -0.24756101
-0.20778701 0.11769299 -0.24756099
-0.13078217 0.12399698 -0.24756101
0.14410855 0.12683515 -0.24756099
0.20799699 0.12798059 -0.2452098
0.043685235 0.13180101 -0.24756101
-0.056391887 0.14064096 -0.24756099
-0.023255128 0.1493634 -0.24756101
0.10864406 0.14620382 -0.24756099
0.20799699 0.14511259 -0.24435514
-0.061296791 0.16021572 -0.24756099
-0.2180136 0.17772591 -0.24756101
0.20799698 0.18497634 -0.2404311
-0.23445964 0.2063922 -0.24756098
-0.046797872 0.20972383 -0.24756101
0.1386669 0.2076582 -0.24756099
-0.16741769 0.21984884 -0.24756101
-0.032392096 0.21868902 -0.24756098
-0.014010198 0.21925791 -0.24756099
0.11028876 0.21722916 -0.24756099
-0.10518996 0.22759163 -0.24756101
-0.035297625 0.22316891 -0.24756101
0.049557619 0.2329877 -0.24756099
-0.19859479 0.24074668 -0.24756099
0.024011523 0.24053724 -0.24756101
0.20799699 0.26626974 -0.2472754
0.10076907 0.27303654 -0.24756098
0.0083657578 0.28890863 -0.24756101
0.011455074 0.28216246 -0.24756098
0.045603178 0.28645426 -0.24756099
-0.11074998 0.29767278 -0.24756101
-0.070451133 0.29196855 -0.24756101
0.10779774 0.30050623 -0.24756098
-0.24187735 0.31232399 -0.24756101
-0.019059911 0.3162095 -0.24756099
0.079977319 0.32549703 -0.24756099
-0.25770125 0.3387621 -0.24645208
-0.18953766 0.3300482 -0.24756099
0.0024164356 0.33780742 -0.24677601
0.13280809 0.33743218 -0.24690333
0.15113918 0.3312299 -0.24756099
-0.13688557 -0.34105489 -0.23278667
-0.25799999 -0.32185784 -0.23026215
0.20799699 -0.16588776 -0.23416224
0.20799699 -0.077839896 -0.23602991
-0.25799999 0.029943705 -0.23833969
0.20799699 0.095719308 -0.23717615
-0.25799999 0.20308216 -0.23443332
-0.036391892 0.34921426 -0.23380297
-0.09985593 -0.34117699 -0.22136295
0.013184065 -0.34117699 -0.22218254
0.20799699 -0.26579788 -0.22147566
0.2397141 -0.19719577 -0.22146222
0.20799699 -0.1590587 -0.22046006
0.20799699 -0.029103942 -0.22830856
-0.25799996 -0.016704068 -0.22966024
0.24550208 0.034858242 -0.22734912
0.20799699 0.083133355 -0.2234256
0.24541013 0.15699148 -0.22742754
0.20799699 0.19501454 -0.22217152
0.24406946 0.21008563 -0.22410816
-0.16537651 0.349498 -0.22579931
0.028027236 0.349498 -0.22554183
0.15894474 0.349498 -0.22890414
0.16472219 0.349498 -0.22066438
0.068748176 -0.34117699 -0.21677744
-0.25799999 -0.2092737 -0.21817449
0.24362157 -0.10538089 -0.21383151
0.2446079 -0.060184836 -0.21566553
0.20799699 0.058098711 -0.21549612
0.24553671 0.090372048 -0.21782087
-0.25799999 0.15590785 -0.21342666
-0.25799999 0.256578 -0.21319415
-0.054977916 0.34949803 -0.21671262
0.12233213 0.34949797 -0.21389475
-0.12305554 -0.34117699 -0.20277211
-0.11878757 -0.34117699 -0.20094019
0.20799699 -0.31837374 -0.2012876
0.20799699 -0.28280407 -0.20694493
0.20799699 -0.23216221 -0.20961732
0.23989853 -0.19407085 -0.20815098
0.20799699 -0.14557685 -0.20432264
0.24250515 -0.14027388 -0.20194022
0.20799699 -0.1260892 -0.20046908
0.24361873 -0.10549536 -0.20577753
0.20799699 -0.080209777 -0.20124435
0.20799699 0.045242514 -0.20908433
-0.076069117 0.052547753 -0.20393206
0.11314858 0.059106451 -0.20489044
0.24554601 0.052477211 -0.20901801
-0.019893669 0.076986521 -0.20750317
0.116287 0.088115133 -0.20815375
-0.25799999 0.12947351 -0.20458862
-0.25799999 0.18333134 -0.20313294
-0.18833856 0.34949797 -0.20446301
-0.067464426 0.349498 -0.2018511
-0.010507479 0.349498 -0.20978829
0.18247546 0.349498 -0.20625992
-0.23444153 -0.349498 -0.199011
-0.19100757 -0.34117699 -0.19947568
-0.057560612 -0.34117699 -0.19824889
-0.0031101853 -0.34117699 -0.19911334
0.16959377 -0.34117699 -0.19928658
-0.25799999 -0.15291452 -0.19123057
0.20799699 -0.059586078 -0.19928369
0.0073143952 0.017845806 -0.19524947
0.063849539 0.01561334 -0.1942873
0.11014885 0.011088256 -0.1923371
-0.068687074 0.023316713 -0.19760731
0.23790833 0.031862412 -0.19132468
0.24026071 0.065668449 -0.19685541
-0.25799999 0.096459612 -0.19787753
0.20799699 0.10287664 -0.19190636
0.20799699 0.12811606 -0.19598635
-0.041744538 0.15183292 -0.19694503
-0.108215 0.16022341 -0.19202051
-0.07290142 0.16252087 -0.19269468
-0.011228644 0.16562094 -0.19146186
0.24501398 0.18346225 -0.19764426
-0.25799999 0.2232233 -0.19526187
0.20799699 0.28662348 -0.19629125
0.020982558 -0.34117699 -0.1876761
0.20799699 -0.28577429 -0.18247247
-0.25799999 -0.17652234 -0.18170197
0.20799699 -0.10878126 -0.18224183
0.070793286 -0.014737512 -0.18120676
0.20799699 -0.016257985 -0.1834099
-0.024697248 -0.00067976397 -0.18726534
-0.067967527 0.0011669495 -0.18806122
-0.020606961 0.0023359871 -0.18856508
0.2427403 0.027227245 -0.18940468
0.20799699 0.064612225 -0.18279609
0.22887501 0.13425922 -0.1827285
0.2332446 0.14655633 -0.18980448
0.25226921 0.14110616 -0.18987161
0.21438199 0.16955437 -0.18011968
0.23403665 0.16392156 -0.18244952
-0.21660684 0.34949803 -0.18168533
-0.20579496 0.34949797 -0.18431154
-0.13132504 0.34949797 -0.18192632
0.051831719 -0.34117699 -0.1709398
0.20799699 -0.22281364 -0.1755119
0.23936275 -0.20314901 -0.17818235
0.20799699 -0.16263103 -0.17233118
0.10353973 -0.026360691 -0.17372851
0.2415517 -0.011995398 -0.17315763
-0.25799999 0.0092406049 -0.17256716
0.22887498 0.082475051 -0.17706376
0.22887501 0.10040122 -0.17122637
-0.06055472 0.19455649 -0.17806043
-0.041345116 0.19470841 -0.17794725
0.20799699 0.28821889 -0.17607892
-0.25799999 0.31545162 -0.17162845
0.20799699 0.32231089 -0.17121176
-0.25194946 0.349498 -0.17156988
-0.017040979 0.349498 -0.17520705
-0.051812939 -0.34117699 -0.16809124
0.20799699 -0.28493524 -0.1680931
0.20799699 -0.27086979 -0.16574618
0.20799699 -0.25501645 -0.16947985
0.20799699 -0.16348101 -0.16301513
-0.25799999 -0.14521995 -0.16443878
0.20799699 -0.077715412 -0.16728036
0.041935325 -0.039866529 -0.16305703
-0.25799999 0.12763599 -0.16723262
-0.25799999 0.27163416 -0.16656387
0.23818283 0.29342932 -0.16464296
-0.22236077 0.349498 -0.16355155
-0.20018242 0.349498 -0.16140381
-0.23499106 -0.34117699 -0.15911853
-0.11134412 -0.34117699 -0.15816039
0.054292556 -0.34117699 -0.15870662
0.11401605 -0.34117699 -0.15054366
0.12103897 -0.34117699 -0.15806296
0.19139665 -0.34117699 -0.15636915
0.20799699 -0.26232272 -0.15895978
0.23408064 -0.2629621 -0.1573946
0.20799699 -0.25527433 -0.15148552
-0.25799999 -0.19941513 -0.15365089
0.20799699 -0.11650927 -0.15757592
0.20799699 -0.085550293 -0.15575835
0.20799699 -0.056372508 -0.15733451
0.22594804 -0.036107112 -0.15462448
-0.108215 0.0099691208 -0.15698917
0.2557947 0.028400932 -0.15111752
0.22887498 0.11752374 -0.15653943
0.22887501 0.15930933 -0.15465188
-0.25799999 0.16781977 -0.15173219
0.228875 0.1910826 -0.15116684
0.21544982 0.21500412 -0.15146595
0.00056236982 0.22783814 -0.15326571
0.20799699 0.22388335 -0.1573368
0.20799699 0.23960572 -0.15842406
0.20799699 0.2952874 -0.15433371
0.23006216 0.31925461 -0.15758519
-0.096216545 0.349498 -0.15506437
-0.046179939 -0.34117699 -0.14456838
0.20799699 -0.33467063 -0.14097789
-0.25799999 -0.25747156 -0.14326456
0.20799699 -0.14450568 -0.14450614
0.20799699 -0.13904631 -0.14618091
0.24347575 -0.11119992 -0.14518334
0.23203292 -0.04695395 -0.14633407
0.22887501 -0.0025426163 -0.14676522
-0.25799999 0.018877476 -0.14097084
0.22887498 0.032327138 -0.14315397
0.20799699 0.04929094 -0.14566709
-0.25799999 0.059922151 -0.1405101
-0.25799999 0.069421291 -0.14579618
-0.108215 0.10061222 -0.14771852
-0.25799999 0.16220817 -0.14210622
0.22887498 0.21066622 -0.14156087
-0.022907443 0.23786917 -0.14313889
0.020470563 0.23687261 -0.14440016
0.091245353 0.24020438 -0.14018339
-0.25623113 0.349498 -0.14917728
0.073755071 -0.34117699 -0.13141316
0.14679936 -0.34117699 -0.1326907
-0.25800002 -0.22517881 -0.13048983
0.24132556 -0.16773626 -0.13498434
0.2435565 -0.10797906 -0.137894
0.20799699 -0.059033047 -0.13467579
0.2168168 -0.058431908 -0.13496453
0.23376822 -0.058382705 -0.13503821
0.20799699 -0.024694195 -0.13646245
0.228875 0.039766572 -0.13949497
-0.25799999 0.082755536 -0.13812566
0.24178796 0.12735571 -0.13292348
0.245556 0.14644851 -0.13278648
0.23083754 0.23581742 -0.13074684
0.20799699 0.31080693 -0.13801545
-0.21913283 0.349498 -0.13315156
-0.1655146 0.349498 -0.13773598
0.065986842 -0.34117699 -0.12733918
-0.25799999 -0.22912988 -0.12931351
0.20799699 -0.14713627 -0.12254543
-0.25799999 -0.11422867 -0.12089399
-0.036455695 -0.074865803 -0.12841806
-0.0050800741 -0.078892648 -0.12301286
0.23159701 0.053658277 -0.1292474
0.245556 0.13076435 -0.12239815
0.18842019 0.15898691 -0.12154525
0.20799699 0.25368893 -0.12360672
0.20799699 0.32217714 -0.12744306
-0.23169264 0.349498 -0.12066344
0.20799699 -0.28906503 -0.11836769
-0.25799999 -0.19707181 -0.11779737
0.10257925 -0.087422766 -0.11156299
0.23942018 -0.074183933 -0.11471143
0.24435443 -0.074410617 -0.11793804
0.21196097 0.041822944 -0.1130317
-0.25799999 0.099192739 -0.11510077
-0.25799999 0.24467359 -0.11950824
-0.075218029 0.25689739 -0.11905632
0.019306634 0.25706393 -0.11884555
-0.10749443 0.26349041 -0.11071207
0.00023396313 0.26328585 -0.11097096
-0.25799999 0.28651744 -0.11263662
-0.21342859 0.349498 -0.11603218
0.21764165 0.34469607 -0.11158258
-0.057747696 -0.34117699 -0.10625105
0.2391555 -0.20666075 -0.10541859
0.20799699 -0.079718649 -0.10456242
0.228875 -0.049451321 -0.10370141
0.245556 -0.015906649 -0.10135388
0.14624012 -0.0060086651 -0.10496582
0.20034501 -0.0067401691 -0.10438783
0.24112424 -0.001906049 -0.10512818
0.18940836 0.058557179 -0.10666996
-0.25799999 0.061390296 -0.10952023
0.18866993 0.066409029 -0.10732467
-0.10821499 0.13122067 -0.10333873
0.16176844 0.18416788 -0.1027858
0.035704181 0.24897379 -0.10676895
0.042237755 0.24749202 -0.10543035
0.056679897 0.24674931 -0.1047594
-0.029536858 0.26511961 -0.1086501
-0.18112229 0.349498 -0.10822224
0.045650423 0.349498 -0.10874027
0.1936118 0.349498 -0.10087368
-0.13931817 -0.34117699 -0.099705793
0.20799699 -0.18843484 -0.098654203
0.24214442 -0.14958355 -0.092316493
-0.045872118 -0.097077057 -0.095875517
0.25799999 -0.073687613 -0.091174513
-0.25799999 -0.045943551 -0.093667038
0.12847969 -0.018410642 -0.092767976
0.25799999 0.17579356 -0.090650856
0.25799999 0.18147665 -0.097153127
0.20799699 0.32675731 -0.094470777
0.22376429 0.33584547 -0.098265596
0.01705417 0.349498 -0.098983452
-0.081277423 -0.34117699 -0.084931798
0.1317313 -0.34117699 -0.086697109
0.20799699 -0.30727673 -0.082838736
0.20799699 -0.27016413 -0.088807642
0.24282327 -0.13092767 -0.080996513
-0.25799999 -0.12344167 -0.082701914
-0.10193028 -0.10321687 -0.08043541
-0.033997532 -0.076510541 -0.083534002
0.019939087 -0.07622429 -0.083441518
0.25799999 -0.070889704 -0.089735448
-0.25799999 -0.043841958 -0.085121676
0.19576815 0.017649306 -0.088960484
0.15402099 0.055666819 -0.084532499
0.19521855 0.16617814 -0.080058008
0.245556 0.18276513 -0.086234115
0.25660506 0.18753986 -0.082121603
0.017523482 0.22344157 -0.083703995
0.026647411 0.22324252 -0.082954302
0.030667959 0.27636245 -0.084055454
0.23528478 0.29680806 -0.083327934
-0.18153639 -0.34117699 -0.077338994
-0.17476508 -0.34117699 -0.079916291
0.093972795 -0.34117699 -0.075520679
0.13361609 -0.34117699 -0.071361259
0.18796109 -0.34117699 -0.078338273
-0.043091051 -0.061236683 -0.078599297
0.047102891 -0.063223228 -0.079241112
0.25135157 -0.050654698 -0.070538133
0.13802731 -0.031214368 -0.075581275
-0.108215 0.01225563 -0.072402664
-0.108215 0.1837834 -0.076110341
-0.108215 0.22809976 -0.075959891
0.0414613 0.22569856 -0.077040464
0.25392738 0.22452033 -0.07955645
0.055639796 0.23006202 -0.076685302
0.08445733 0.2302977 -0.078890443
-0.10766907 0.27472043 -0.075787783
-0.25799999 0.28790417 -0.073220551
0.23326252 0.30674392 -0.075388394
-0.25799999 0.33468914 -0.07016439
-0.25799999 0.34744552 -0.073954128
0.058764733 0.349498 -0.07087902
0.091342598 0.349498 -0.076140456
0.11962157 0.349498 -0.075514086
-0.050727442 -0.34117699 -0.060389757
0.20799699 -0.33213517 -0.069670826
0.20799699 -0.18346493 -0.064623967
0.20799699 -0.1366359 -0.065403067
0.061346322 -0.1084783 -0.067204207
0.10163097 -0.10930359 -0.065128788
-0.25799999 0.070280924 -0.069873609
-0.25799999 0.1474756 -0.066447377
0.2444097 0.21125767 -0.06717363
0.22887501 0.22568396 -0.066338226
-0.25799999 0.24065471 -0.06335254
0.25389236 0.27158925 -0.064134061
0.044773594 0.28372759 -0.066966563
0.11085541 0.28660443 -0.060291555
-0.059369914 0.349498 -0.068810225
0.21876749 -0.33158258 -0.052300453
0.20799699 -0.15332341 -0.057629861
-0.10504546 -0.11244197 -0.057236545
0.064582318 -0.11410941 -0.053043347
-0.108215 -0.09924151 -0.057549365
0.25068769 -0.057157919 -0.055697709
0.1772514 -0.0011775461 -0.053641252
-0.25799999 0.21335419 -0.058253936
0.17307447 0.21700744 -0.053578816
0.245556 0.22003727 -0.051478837
0.20799699 0.33197668 -0.057900295
-0.043791544 0.349498 -0.058394246
0.20599587 0.349498 -0.057219788
-0.029665187 -0.34117699 -0.04669448
0.12451919 -0.34117699 -0.041487284
0.20799699 -0.2822215 -0.049856521
0.20799699 -0.20216304 -0.048061747
-0.25799999 -0.14691469 -0.044032827
0.093999483 -0.11517378 -0.048557453
-0.108215 -0.10377655 -0.044459537
-0.108215 -0.093683042 -0.046475947
0.19169892 -0.046701603 -0.042398397
-0.25799999 0.0022371542 -0.040449724
-0.25799999 0.12889218 -0.043219011
0.23469289 0.22235858 -0.04049154
0.20799699 0.238976 -0.047059204
0.11020461 0.349498 -0.04517778
0.1500551 0.34949797 -0.045127638
0.1555931 -0.34117699 -0.037172355
0.20799699 -0.32376334 -0.032729678
0.20799699 -0.26631168 -0.039126419
0.20799699 -0.25338072 -0.035087261
0.20799699 -0.22443406 -0.038214423
0.22035699 -0.035263255 -0.034261983
0.18200582 -0.013501755 -0.032161333
-0.10821499 0.068489216 -0.036964528
0.1553458 0.089908272 -0.03502477
0.1617102 0.10208267 -0.038439117
-0.25799999 0.15793547 -0.031560849
-0.25799999 0.30599505 -0.034404494
-0.0048835203 -0.34117699 -0.024480589
0.23850565 -0.21512999 -0.022343256
0.20799699 -0.20760459 -0.028655013
-0.25799999 -0.13049731 -0.029297411
0.0001382865 -0.11777148 -0.026399791
0.25080234 -0.10789256 -0.024566093
0.25799999 -0.094993904 -0.029618863
0.24885981 -0.062440865 -0.026020752
-0.25799999 -0.050600901 -0.02505368
0.20874171 -0.029846342 -0.029926242
0.1972063 0.16998065 -0.029880775
-0.25799999 0.22819674 -0.027305167
0.22887498 0.24381079 -0.02181419
-0.25799999 0.31675094 -0.028214812
-0.086030766 0.349498 -0.027613539
-0.03783555 0.34949803 -0.020026445
-0.21636577 -0.34117699 -0.010528781
-0.16907412 -0.34117699 -0.012207814
0.22592302 -0.31059498 -0.010321478
-0.043192983 -0.11883615 -0.017318377
0.20799699 -0.11949135 -0.014918514
0.23790017 -0.10981198 -0.019194577
-0.108215 0.19005743 -0.017721333
-0.25799999 0.27668917 -0.015095778
-0.11177188 0.349498 -0.019670285
0.071920112 0.349498 -0.01231334
-0.20821974 -0.34117699 -0.009218365
-0.079598375 -0.34117699 -0.0086319447
0.089102656 -0.34117699 -0.0096366405
0.20799699 -0.25039539 -0.008972995
0.2400872 -0.19087428 -0.0086093247
-0.25799999 -0.15617138 -0.0096698552
-0.010071246 -0.12049094 -0.0032035322
0.20799699 -0.12480781 -0.0051906686
0.25799999 -0.080886669 -0.0032887468
0.20799699 -0.070868492 -0.00097920187
-0.25799999 -0.012776747 -0.0026275963
0.16443533 0.1072958 -0.0027554147
0.25055251 0.24175009 -0.0049013495
0.083675765 0.29563707 -0.00018393178
0.2275672 0.31710958 -0.0072869407
-0.2207256 0.349498 -0.0062026978
-0.14541695 0.349498 -0.00022092834
-0.093608186 -0.34117699 0.0047528781
-0.25799999 -0.29216987 0.0019734902
0.20799699 -0.15642655 0.0086942576
-0.25799999 -0.13704035 0.0078562796
-0.25799999 -0.087344311 0.0017410591
-0.108215 -0.041672502 0.00045835972
0.20799699 0.23731363 0.0010952754
0.23225994 0.30166137 0.002632428
-0.25799999 0.32349664 0.0093469396
-0.21785155 0.349498 0.0068222806
0.08344385 0.349498 0.0077622831
0.20799699 -0.30027479 0.017294839
0.20799699 -0.27752265 0.011609651
0.23250702 -0.27484411 0.018951422
0.23696114 -0.23510015 0.010577575
0.20799699 -0.18626772 0.013009552
0.24207935 -0.15102649 0.018029422
0.16389444 -0.052568678 0.012319718
0.24097574 -0.0491965 0.017485972
0.18035127 0.13774045 0.01401723
0.19848934 0.17243515 0.010405336
0.24976875 0.23975715 0.016932214
0.23451346 0.2850793 0.015255854
-0.087186679 0.29421031 0.011985909
0.12194648 0.29388207 0.014785824
0.20799699 0.30368078 0.019030239
-0.19538352 0.349498 0.015363701
-0.071327604 0.349498 0.019521281
0.00044414401 0.34949797 0.017648056
0.099806122 0.349498 0.014820639
0.20799699 0.34426102 0.019623097
-0.054661088 -0.34117699 0.029714424
0.20799699 -0.20883903 0.026667267
0.20799699 -0.17998469 0.027341241
0.001902286 -0.1185431 0.021239879
0.22887501 -0.066424608 0.025462897
0.228875 -0.059683532 0.020834414
-0.108215 0.22999945 0.020499267
0.20799699 0.22825323 0.024525046
-0.25799999 0.23050734 0.026418798
0.22887498 0.24673335 0.027664367
0.22395924 0.33541915 0.028612509
-0.12925893 0.34949797 0.026701927
-0.076330632 0.349498 0.029547598
0.037415303 -0.34117699 0.037876725
0.084510162 -0.34117699 0.037031349
0.20799699 -0.19598852 0.032789573
0.20799699 -0.1709751 0.031235551
-0.108215 -0.012360714 0.036375992
0.15692317 0.00064994569 0.03062987
-0.25799999 0.054670371 0.03577815
-0.108215 0.1490199 0.037321653
-0.25799999 0.22562715 0.033374459
-0.25799999 0.23768345 0.036112178
-0.108215 0.26027203 0.033499308
0.20799699 0.28091526 0.037456825
-0.25799999 0.32567254 0.032473579
-0.13671179 0.349498 0.03360872
-0.062352754 0.349498 0.039785415
-0.11129031 -0.34117699 0.046037167
0.10405777 -0.34117699 0.049777888
0.20799699 -0.33419132 0.044967722
-0.25799999 -0.32375318 0.04891374
-0.25799999 -0.25889623 0.04457967
-0.027554892 -0.11514305 0.044504981
-0.108215 -0.06337215 0.041713975
0.25493336 -0.067078717 0.042303342
0.1750944 -0.047495961 0.041427277
0.19929862 -0.017926816 0.046152338
0.17753126 -0.004569781 0.047347974
-0.25799999 0.071476474 0.041388437
0.19416846 0.2188102 0.049037013
0.20799699 0.22319539 0.040012993
-0.25799999 0.27170694 0.047658823
0.22861075 0.28048122 0.049103335
0.15153278 0.349498 0.046865389
0.14332259 -0.34117699 0.053413957
0.1955297 -0.34117699 0.054730177
0.20799699 -0.23839603 0.058665559
0.20799699 -0.15469836 0.051859442
0.0044795573 -0.11257233 0.058628306
0.09106911 -0.1135277 0.055558108
0.22887498 -0.092000961 0.051458366
-0.108215 -0.088336036 0.05611245
-0.25799999 -0.060564488 0.050021976
-0.108215 -0.019526184 0.053715412
-0.25799999 0.30474633 0.053126983
0.20799699 -0.32960048 0.060381569
0.20799699 -0.25554958 0.063612185
0.20799699 -0.13245918 0.063389026
-0.063857093 -0.10803031 0.069167718
0.021518134 -0.10914111 0.066590205
0.21484467 -0.10174514 0.060389221
0.22887501 -0.081136286 0.061578713
0.20904112 -0.012863196 0.066944979
-0.108215 0.15061668 0.06098241
-0.108215 0.22469322 0.065790586
-0.087174967 0.2853477 0.061872013
-0.073447064 0.28453013 0.063928038
-0.051068429 0.28230083 0.069534212
0.20799699 0.30330211 0.060179848
-0.19698694 -0.34117699 0.079504229
0.20799699 -0.32402921 0.077267081
-0.25799999 -0.29416543 0.07972575
0.20799699 -0.25346938 0.074576207
-0.25799999 -0.22313504 0.075960636
0.20799699 -0.21286418 0.078458518
-0.25799999 -0.14824291 0.071226351
0.20799699 -0.1129315 0.074379131
0.23863159 -0.097553611 0.070534669
0.20826846 -0.0054181768 0.075925633
-0.25799999 0.045247301 0.077067226
-0.10821499 0.17048648 0.07559856
-0.10821499 0.19020964 0.079317316
0.23063904 0.26917684 0.07650198
0.021827325 0.27961347 0.076292388
0.20799698 0.27548 0.071178317
-0.016877748 0.34949797 0.07921055
0.20799699 -0.17711371 0.089899175
0.20799699 -0.15406528 0.087884836
0.20799699 -0.083453901 0.080230512
0.25596273 -0.084825397 0.086761557
-0.25799999 -0.040999949 0.082060389
0.13613439 0.19564033 0.089437403
-0.10821499 0.26316637 0.085660659
-0.25567335 0.349498 0.083052523
0.099410139 0.349498 0.089917317
0.20799699 -0.17372502 0.092829838
0.099728711 -0.095379874 0.098522156
0.20799699 -0.046691045 0.090138994
0.228875 -0.032877143 0.098492049
0.13342491 -0.015638946 0.095853806
0.16649319 -0.017712723 0.093229279
0.16886026 0.10040102 0.097481534
-0.25799999 0.11267126 0.09754166
-0.108215 0.18104592 0.098280057
-0.108215 0.23783284 0.091358252
0.063703313 0.27252248 0.09412466
0.20799699 0.293194 0.091182619
-0.24730507 -0.34117699 0.1030874
-0.087063625 -0.34117699 0.10442081
0.20799699 -0.32878354 0.10444266
-0.25799999 -0.2873764 0.10059313
-0.25799999 -0.27214089 0.10317831
0.23626435 -0.24204654 0.10455032
0.20799699 -0.16056049 0.10691786
0.20799699 -0.088770926 0.1091513
0.18865775 0.04823282 0.10192204
0.18691814 0.084297709 0.10869122
-0.25799999 0.097136751 0.10068645
-0.25799999 0.10326011 0.10594556
0.19611911 0.18240857 0.10366079
-0.108215 0.19433683 0.10493235
0.25669762 0.20962064 0.10797707
-0.25799999 0.25453851 0.1068927
-0.02047883 0.26920077 0.10212831
0.14849889 0.349498 0.10447994
-0.2522817 -0.34117699 0.11170894
-0.12688249 -0.34117699 0.114707
-0.077952459 -0.34117699 0.11394342
-0.040664695 -0.34117699 0.11510471
0.22540274 -0.3126525 0.11511835
0.20799699 -0.23162211 0.11693253
0.20799699 -0.20430197 0.11074157
0.24334909 -0.11548029 0.11223292
0.093839213 -0.08732231 0.11251039
0.23505358 0.010473554 0.11045513
-0.108215 0.064762592 0.11948963
0.20121729 0.070976883 0.11484164
-0.25800002 0.094355665 0.11405057
-0.25799999 0.1623572 0.11885716
0.20799699 0.19417533 0.11538899
0.228875 0.22821188 0.11510281
-0.108215 0.2407264 0.11264713
-0.088770911 0.25613856 0.11966157
0.056703821 0.25841048 0.11661198
0.0023164153 0.26279131 0.11073168
-0.18885204 -0.34117699 0.12851144
0.20799699 -0.33873618 0.12582424
0.23568748 -0.24779761 0.12142846
-0.25799999 -0.092553511 0.12425177
0.22801225 0.039479095 0.12153189
-0.108215 0.047338318 0.12059657
-0.25799999 0.20727378 0.12730519
0.24122247 0.2520366 0.12502755
0.20799699 0.32546648 0.12913576
-0.1715001 0.34949803 0.12728396
0.034204453 0.349498 0.12143898
0.066548623 0.349498 0.12225001
-0.23819473 -0.34117699 0.13308007
-0.25799999 -0.12971392 0.1377959
-0.25799999 -0.070182778 0.13670133
-0.038894895 -0.066995971 0.13823491
-0.25799999 0.017637521 0.13397805
0.14950511 0.10776427 0.13876402
0.19478397 0.10119474 0.13972406
0.15558413 0.11148736 0.13821997
-0.25799999 0.13854045 0.13047925
0.25592726 0.22703038 0.13396889
0.0036724694 0.24216916 0.13841254
0.20799699 0.31192148 0.13984475
-0.24888715 0.349498 0.13608998
0.18958941 0.349498 0.1387758
-0.22367947 -0.34117699 0.1433517
-0.17764585 -0.34117699 0.14889419
-0.074210487 -0.34117699 0.14678825
-0.25799999 -0.24754167 0.14592144
0.20799699 -0.21775568 0.14081115
-0.25799999 -0.19416824 0.14399152
0.20799699 -0.16765243 0.14646062
0.24404958 -0.088336073 0.14921364
0.20799699 -0.076594152 0.14600132
-0.108215 0.10308246 0.14511545
-0.25799999 0.13278738 0.14552018
-0.25799999 0.15244901 0.1455266
0.20799699 0.15490058 0.14629875
-0.108215 0.19341198 0.14820623
0.20799699 0.26325631 0.14555465
0.20799699 0.2879926 0.14685887
-0.177968 -0.34117699 0.1539385
0.055397335 -0.34117699 0.15698892
0.20799699 -0.33529323 0.15468487
0.20799699 -0.25909725 0.15264851
0.20799699 -0.20549887 0.15257639
0.20799699 -0.19369434 0.15394704
0.12443889 -0.056020115 0.15108263
0.012080805 -0.048326164 0.15681452
0.1073949 -0.045622718 0.15882854
0.2387781 -0.039052978 0.15256849
-0.10821499 0.069901377 0.15424177
-0.108215 0.098654568 0.15168387
-0.25799999 0.14253844 0.15391585
0.228875 0.15217297 0.15210256
0.20799699 0.24687129 0.15515643
-0.23382796 -0.34117699 0.16918275
-0.056511831 -0.34117699 0.16690677
0.20799699 -0.25238654 0.16721782
0.20799699 -0.18820514 0.16515283
0.20799699 -0.16395423 0.16826639
0.11645073 -0.041255701 0.1620819
-0.108215 -0.032982536 0.16727856
0.20799699 0.020941768 0.16919059
0.25799999 0.033781826 0.16299689
0.25799999 0.0605927 0.16535632
0.22887501 0.081226259 0.16104415
-0.065112613 0.092560396 0.16309865
-0.014101314 0.092251986 0.16165903
0.081655145 0.093098909 0.16560832
0.20799699 0.10596968 0.16870219
-0.25799999 0.11376818 0.16604975
0.20799699 0.12604453 0.16468193
-0.108215 0.13360743 0.16379383
0.228875 0.13864721 0.16271594
-0.108215 0.14894304 0.1683912
0.228875 0.15253177 0.16907763
-0.108215 0.18268178 0.16763026
-0.0032098312 0.2171468 0.16105728
0.20799699 0.26404971 0.16447255
-0.14695051 0.34949803 0.16806051
0.16323145 0.349498 0.16596484
0.20799699 -0.19454239 0.17735732
0.20799699 -0.13129692 0.17279297
0.20799699 -0.12253584 0.17068988
-0.25799999 0.095150359 0.17653434
0.20799699 0.15569763 0.17973736
-0.10821499 0.17667422 0.17077087
0.20799699 0.2031499 0.17731234
0.20799699 0.2219885 0.17671737
0.20799699 0.28862727 0.17385477
0.22334 0.28110623 0.17381266
-0.25799999 0.31417266 0.17228708
0.20799699 0.34816009 0.17915724
-0.23451847 -0.34688494 0.18943012
-0.14705424 -0.34117699 0.18542305
-0.098602891 -0.34117699 0.18256769
0.15451476 -0.34117699 0.18087995
0.23086959 -0.28615835 0.18811274
0.20799699 -0.22324647 0.18327765
0.20799699 -0.14260553 0.18990108
-0.25799999 -0.10776695 0.1861473
0.040507633 -0.011689103 0.18318337
-0.25799999 0.047541 0.18426105
0.077401027 0.076961383 0.18748823
0.25799999 0.074924603 0.18108492
0.091052815 0.096325085 0.18066561
0.228875 0.13496573 0.18244767
-0.10010652 0.1886277 0.18157756
0.20799699 0.30000019 0.18943855
-0.25589871 0.34949797 0.18408301
-0.24066111 -0.34117699 0.19652575
0.058560979 -0.34117699 0.19656202
0.10336643 -0.34117699 0.19113632
0.20799699 -0.32930773 0.19355555
-0.25799999 -0.072324321 0.19888222
0.2448909 -0.042641565 0.19040188
-0.25799999 -0.016477302 0.19198206
0.087183267 0.0084553547 0.19119427
0.08427228 0.01326945 0.19310871
0.24276608 0.029328402 0.19010666
0.20799699 0.055395216 0.19556446
0.22795439 0.059966676 0.19594891
0.24554893 0.05954317 0.19937357
0.23172188 0.065960474 0.19667667
-0.014592718 0.074450411 0.19920653
0.042711329 0.076188996 0.19109285
0.062283732 0.075000979 0.19663714
0.25539193 0.11789116 0.1907704
0.21473509 0.1207082 0.19517289
0.20799701 0.13450125 0.19680059
0.24377991 0.13647607 0.1932487
-0.25799999 0.16376758 0.1956746
0.20799699 0.1894251 0.19915622
-0.25799999 0.2780154 0.19548289
0.014866628 0.349498 0.19164491
0.024079755 0.349498 0.19725014
0.1731748 -0.34117699 0.20225754
0.23848838 -0.21535474 0.20810893
0.20799699 -0.087797321 0.2011032
0.11880188 0.032373857 0.20070602
-0.095110618 0.044244438 0.20318495
0.039504714 0.059686247 0.20499501
0.10797636 0.061125923 0.20516376
-0.063144892 0.077311389 0.20706099
0.015029177 0.077362724 0.20706701
-0.108215 0.08858712 0.20471717
-0.073683485 0.10737149 0.20609906
-0.08719749 0.12969688 0.20283678
0.20799699 0.12914085 0.20720905
-0.25799999 0.24408805 0.20693319
0.20799699 0.24626976 0.20852973
0.22334 0.26714689 0.20238394
0.0064053982 0.349498 0.20652905
0.072166443 0.349498 0.20669723
0.20799699 -0.33666456 0.21969944
0.20799699 -0.3183029 0.21142814
0.23326495 -0.26912114 0.21018167
-0.25799999 -0.23635635 0.21264198
0.20799699 0.0083341449 0.21659936
0.20799699 0.17788206 0.2120894
0.20799699 0.28987283 0.21479942
0.22934359 0.32179505 0.2125445
0.079017773 0.349498 0.21987003
-0.25484726 -0.34117699 0.22054327
-0.23663722 -0.34117699 0.22159755
-0.11419044 -0.34117699 0.22686321
0.20876774 -0.34083626 0.22377434
-0.25799999 -0.26018572 0.22673298
0.20799699 -0.25229692 0.22025551
-0.25799999 -0.18046689 0.2256266
0.20799699 0.01715634 0.22873075
0.20799699 0.075453848 0.22717623
-0.25799999 0.18745764 0.221091
0.20799699 0.21253997 0.2272014
-0.25799999 0.30759093 0.22669372
0.20799699 0.32823697 0.22518623
-0.1890936 0.349498 0.22275683
-0.10743706 0.349498 0.22546047
0.074289769 0.349498 0.22073644
-0.035526261 -0.34102577 0.23313734
0.16274282 -0.34111455 0.23187414
0.19227284 -0.3405216 0.23548639
0.051090892 -0.33888018 0.23934139
0.22901732 -0.29649237 0.23028988
-0.25799999 -0.26773229 0.23168598
-0.25799999 -0.065330863 0.23707256
0.20799699 -0.056117844 0.23824076
-0.25799999 0.10240692 0.23591016
0.20799699 0.10278094 0.23676802
0.24479392 0.16498552 0.23522614
-0.25799999 0.19552496 0.23139027
-0.25799999 0.28085846 0.23854972
0.22337516 0.33244807 0.2383807
-0.24406837 -0.33570692 0.24320896
-0.17926101 -0.3340922 0.24450541
-0.13155618 -0.3323997 0.24555661
-0.0058048666 -0.3374815 0.24134144
0.048848167 -0.32411605 0.24756101
-0.22873862 -0.31391078 0.24756099
-0.20630819 -0.31306577 0.24756099
-0.04151386 -0.31325582 0.24756101
-0.088535912 -0.30346471 0.24756098
-0.061708771 -0.30327797 0.24756101
-0.055550866 -0.30009437 0.24756099
-0.054442137 -0.29945147 0.24756101
-0.16947214 -0.28778493 0.24756098
-0.085765921 -0.28468341 0.24756101
-0.22717075 -0.27166814 0.24756098
-0.12180413 -0.2734195 0.24756099
-0.1698091 -0.26041776 0.24756098
0.08662238 -0.2690092 0.24756099
-0.24159616 -0.25228092 0.24756101
-0.12209181 -0.25709197 0.24756098
0.053343385 -0.23028937 0.24756101
0.024296559 -0.21006268 0.24756099
0.063289091 -0.21441567 0.24756101
-0.21403337 -0.20570637 0.24756098
-0.16885361 -0.20856467 0.24756099
0.0096259862 -0.20726866 0.24756101
0.057966743 -0.20393039 0.24756099
-0.19718249 -0.19136932 0.24756098
0.054723769 -0.1980311 0.24756098
0.21857485 -0.18711889 0.24756101
-0.22089562 -0.1746138 0.24756098
0.011651918 -0.17762889 0.24756099
-0.21511641 -0.14465837 0.24756098
0.17683661 -0.14946726 0.24756101
-0.13942596 -0.1325004 0.24756098
-0.061972685 -0.13645662 0.24756098
0.23564917 -0.13631587 0.24453041
0.033570774 -0.12302864 0.24756098
-0.18987928 -0.111104 0.24756099
-0.19150822 -0.10414164 0.24756099
-0.21573111 -0.072332144 0.24756099
0.014142115 -0.071250759 0.24756099
0.20764132 -0.078581586 0.24756099
0.23106048 -0.05200129 0.24731712
0.24086604 -0.05530443 0.24157804
-0.19086906 -0.044650409 0.24756098
-0.14338234 -0.049532168 0.24756098
0.22756177 -0.04553245 0.24756101
-0.013386972 -0.03123707 0.24756099
0.16492173 -0.038217373 0.24756099
-0.23890075 -0.02314462 0.24756101
0.017902313 -0.029075686 0.24756098
-0.12351768 -0.013670325 0.24756099
-0.24644427 -0.0098401625 0.24756099
-0.1368213 -0.0085101873 0.24756098
-0.25799999 0.01886439 0.24283166
-0.023329414 0.020653754 0.24756099
0.04628206 0.025725547 0.24756099
0.04264126 0.034161158 0.24756098
0.064216085 0.038571361 0.24756098
-0.067789085 0.05027397 0.24756101
-0.085758403 0.066962533 0.24756098
-0.080622569 0.071380891 0.24756099
0.21300563 0.09993314 0.24756099
-0.20747842 0.10188933 0.24756099
-0.11548432 0.10781083 0.24756099
-0.22101685 0.14916036 0.24756099
-0.15016305 0.1448932 0.24756099
-0.1198472 0.15573516 0.24756098
0.033637121 0.15466048 0.24756098
0.14918433 0.158979 0.24756101
-0.14044927 0.17033292 0.24756099
0.05589503 0.17938006 0.24756099
0.12602361 0.17306887 0.24756098
0.062176369 0.19699883 0.24756101
-0.16218732 0.20974806 0.24756099
-0.074212722 0.20423202 0.24756099
0.0097102374 0.20608567 0.24756098
0.06478402 0.20876041 0.24756099
0.097186476 0.20472784 0.24756098
-0.22954212 0.21892546 0.24756099
0.0089457333 0.21029958 0.24756101
0.094525337 0.21073963 0.24756098
-0.17283557 0.22595616 0.24756101
-0.14508918 0.22727248 0.24756099
0.055070564 0.22764423 0.24756101
-0.24914673 0.24595796 0.24756099
-0.058511976 0.24044597 0.24756099
0.20753551 0.24035008 0.24756098
0.23282021 0.24174015 0.24589109
-0.24995971 0.25879657 0.24756099
-0.046829417 0.2565068 0.24756101
-0.021968342 0.25890258 0.24756099
0.034738801 0.25330693 0.24756098
0.2043349 0.25914949 0.24756099
-0.22745454 0.26841247 0.24756099
0.20799699 0.26786003 0.24727528
-0.14053771 0.28309974 0.24756101
-0.12498096 0.2965478 0.24756099
0.055049405 0.29701889 0.24756099
0.15306653 0.29498947 0.24756099
0.092666507 0.30956045 0.24756099
-0.14278775 0.31481022 0.24756099
0.038060583 0.32011908 0.24756098
0.093718559 0.34606236 0.24104503
0.17824978 0.34559986 0.24157378
