# .PCD v0.7 - Point Cloud Data file format
VERSION 0.7
FIELDS x y z
SIZE 4 4 4
TYPE F F F
COUNT 1 1 1
WIDTH 966
HEIGHT 1
VIEWPOINT 0 0 0 1 0 0 0
POINTS 966
DATA ascii
-0.2057088 -0.35497096 -0.22133715
0.21216285 -0.35403332 -0.224925
-0.25662175 -0.33898842 -0.224925
-0.20265448 -0.33188424 -0.224925
-0.19855362 -0.33871728 -0.224925
0.053224012 -0.33232909 -0.224925
0.012816516 -0.32335702 -0.224925
0.11977225 -0.3249512 -0.224925
0.26154101 -0.32123312 -0.22048521
-0.17071386 -0.31205627 -0.224925
-0.028708644 -0.31984037 -0.224925
-0.16850606 -0.30673277 -0.224925
0.01672684 -0.30930388 -0.22492498
0.17909318 -0.30602157 -0.224925
0.24699575 -0.30676028 -0.224925
0.013461575 -0.29406485 -0.224925
0.15592435 -0.29724932 -0.224925
0.10538621 -0.28175622 -0.22492498
0.22649571 -0.28365234 -0.224925
0.24517702 -0.28623039 -0.22492498
-0.17527089 -0.27127016 -0.22492498
0.021051094 -0.2780807 -0.22492498
0.21903089 -0.27997267 -0.22492501
0.24413197 -0.27903479 -0.224925
0.038817458 -0.26762918 -0.22492501
0.18578793 -0.26637235 -0.224925
-0.24043091 -0.25511953 -0.224925
-0.17807734 -0.2545566 -0.22492501
-0.066768199 -0.25939393 -0.224925
0.0047869831 -0.25370488 -0.224925
0.26154101 -0.2586745 -0.22127143
-0.17102325 -0.24757183 -0.224925
0.10266167 -0.24140593 -0.224925
0.20504576 -0.24525629 -0.224925
0.17163664 -0.23856893 -0.22492498
0.095109791 -0.22244808 -0.224925
0.20068318 -0.22540757 -0.224925
0.03396412 -0.2028845 -0.224925
-0.13717669 -0.18933079 -0.224925
0.087017864 -0.18940927 -0.224925
0.12577172 -0.18818808 -0.224925
-0.029930446 -0.17739819 -0.224925
0.014956355 -0.17179781 -0.224925
0.11984985 -0.17396283 -0.22492498
0.18266317 -0.1768553 -0.224925
-0.25380915 -0.16860873 -0.22492498
0.067600034 -0.16772009 -0.224925
-0.25350913 -0.15076596 -0.22492498
-0.020880865 -0.15274417 -0.224925
0.0027960688 -0.15038727 -0.22492498
0.17865297 -0.15086941 -0.22492501
-0.25243497 -0.14409773 -0.224925
0.04294347 -0.1486949 -0.22492501
0.082735419 -0.13825229 -0.22492498
0.18351321 -0.1325499 -0.224925
0.20999902 -0.13127317 -0.224925
0.00084850937 -0.12986732 -0.22492498
0.020966537 -0.12326325 -0.22492498
0.047921099 -0.12804945 -0.224925
-0.25567502 -0.11717648 -0.22492501
-0.031802915 -0.11948202 -0.224925
0.019253626 -0.11693594 -0.224925
0.19844632 -0.11990669 -0.22492501
-0.24268542 -0.10008837 -0.224925
0.04540623 -0.10317008 -0.224925
0.23892811 -0.10022625 -0.224925
-0.028427517 -0.091454618 -0.22492501
0.038706072 -0.091946408 -0.22492501
-0.19257054 -0.088979475 -0.22492498
0.031835802 -0.082844004 -0.224925
-0.1068038 -0.07848385 -0.224925
-0.085854083 -0.067365102 -0.224925
0.0043428265 -0.069667131 -0.224925
0.17704868 -0.067698933 -0.22492501
-0.13468009 -0.056762099 -0.224925
-0.18274255 -0.049095407 -0.224925
-0.12900573 -0.041072324 -0.224925
-0.040400587 -0.046411663 -0.224925
0.19057444 -0.049850501 -0.224925
-0.20876062 -0.034709148 -0.22492501
0.064279154 -0.037912972 -0.22492501
0.19020221 -0.032227106 -0.224925
0.012453288 -0.028772943 -0.224925
0.094229497 -0.02126532 -0.224925
0.12820248 -0.027011238 -0.224925
0.22863178 -0.024953794 -0.224925
-0.10088073 -0.015836272 -0.224925
-0.024885014 -0.018229613 -0.224925
0.22067505 -0.012141531 -0.224925
-0.011254568 -0.0097930348 -0.224925
0.168605 0.0085686445 -0.22492501
-0.25075775 0.014216348 -0.224925
-0.12753688 0.017020859 -0.22492501
0.11676096 0.013269804 -0.224925
0.18491703 0.012753077 -0.224925
0.11548416 0.026092067 -0.22492498
-0.10677831 0.031945586 -0.22492501
-0.074822895 0.033911586 -0.22492498
0.045328449 0.03171704 -0.224925
-0.22685154 0.049115241 -0.22492501
0.10606378 0.04026185 -0.224925
-0.11549586 0.062330022 -0.22492501
0.17062902 0.065859005 -0.22492501
-0.2080541 0.071286887 -0.22492501
-0.12544961 0.076922789 -0.22492498
-0.087609515 0.071072221 -0.22492498
0.16900195 0.072563797 -0.224925
-0.075197563 0.084047295 -0.224925
-0.044754192 0.084275216 -0.22492501
-0.18740182 0.097402617 -0.22492501
-0.1304453 0.097494707 -0.224925
0.012835637 0.093168639 -0.224925
0.029630564 0.096978493 -0.22492498
-0.20738573 0.10288635 -0.22492498
0.12766545 0.11977047 -0.224925
0.024961773 0.12968481 -0.22492498
-0.21072581 0.13552359 -0.224925
0.099498987 0.13207571 -0.224925
0.1144278 0.13606155 -0.22492501
-0.19746931 0.14860284 -0.22492498
-0.080387913 0.14000274 -0.224925
0.17877936 0.14985973 -0.22492498
-0.18262681 0.15050843 -0.224925
-0.096669771 0.15627506 -0.224925
0.040646184 0.1518088 -0.22492498
-0.15761785 0.16652456 -0.224925
-0.047124937 0.16517085 -0.22492501
0.029314667 0.16312243 -0.22492498
0.14816913 0.16641894 -0.22492501
0.26097801 0.16221586 -0.224925
-0.15123655 0.17192441 -0.224925
-0.094101958 0.17133752 -0.22492501
-0.13264033 0.18160851 -0.224925
0.062245809 0.18775225 -0.22492501
0.09566889 0.18588184 -0.22492498
0.1084711 0.18891272 -0.22492501
0.19468296 0.20932476 -0.224925
-0.11541462 0.21455798 -0.224925
-0.10782135 0.21590248 -0.22492498
-0.07794188 0.21912995 -0.22492501
-0.039857104 0.21912572 -0.22492498
0.17292187 0.21877997 -0.224925
-0.25758091 0.22102733 -0.224925
-0.12998782 0.22462732 -0.224925
0.098138966 0.22887447 -0.224925
-0.12263186 0.23482855 -0.22492501
-0.084409587 0.23806816 -0.224925
-0.079641625 0.23889568 -0.224925
0.058962278 0.23972166 -0.224925
0.14843333 0.23492743 -0.224925
0.23811173 0.23954695 -0.22492498
-0.19347531 0.24456219 -0.224925
-0.11171018 0.24067423 -0.224925
-0.26154101 0.25820947 -0.22008936
-0.03290578 0.2573964 -0.22492501
0.025635082 0.25425294 -0.224925
0.09334074 0.25787646 -0.22492498
0.24575469 0.2585566 -0.224925
-0.0096345842 0.26514703 -0.224925
0.091933139 0.2609601 -0.224925
0.21603212 0.26786777 -0.224925
-0.086392522 0.27812186 -0.22350173
0.11810837 0.27809799 -0.22175668
-0.14256558 0.28074202 -0.22492498
-0.13225719 0.28556708 -0.224925
0.24755952 0.28439015 -0.22492501
0.25251472 0.28358746 -0.22430356
-0.24328023 0.32521033 -0.22492501
-0.20309384 0.32828838 -0.22492501
-0.23495018 0.34282064 -0.22492498
0.23488201 -0.36194599 -0.21819335
-0.19144662 -0.35497099 -0.21648033
-0.16391493 -0.35497099 -0.21370324
0.22562623 -0.35497099 -0.21196502
0.26154101 -0.079582363 -0.2161973
0.26154101 -0.064927027 -0.21716702
0.26154101 0.00575718 -0.21564609
-0.26154101 0.040614702 -0.21812046
-0.26154101 0.10928132 -0.21366303
0.26154101 0.19441572 -0.21375096
-0.09011732 0.27809799 -0.21793666
-0.07860519 0.27809799 -0.21075937
0.093387857 0.30125299 -0.21942213
-0.1900042 0.33735555 -0.21959212
-0.26154101 0.34323314 -0.21257702
-0.20928574 0.34987462 -0.21235877
-0.11903396 -0.35497099 -0.2071775
0.054374307 -0.35497099 -0.20880148
0.10578359 -0.35497099 -0.20722842
0.18570375 -0.35497099 -0.20802614
-0.26154101 -0.2648443 -0.20803057
0.26154101 -0.14163117 -0.20305344
0.26154101 -0.13753214 -0.20597479
-0.26154101 0.12259973 -0.20679808
0.26154101 0.1414879 -0.20136622
0.26154101 0.22643536 -0.20422909
0.15080422 0.27809799 -0.20918982
0.031875961 0.30125299 -0.20965219
-0.044890646 -0.35497099 -0.19848032
-0.26154101 -0.28982025 -0.1910883
0.26154101 -0.28399223 -0.19705904
-0.26154101 -0.27299371 -0.19974032
-0.26154101 -0.2113833 -0.19092111
0.26154101 -0.15089904 -0.19018963
-0.26154101 0.058655873 -0.19550571
-0.26154101 0.13480176 -0.19817862
0.26154101 0.15287612 -0.1912663
-0.26154101 0.19445501 -0.19990031
0.26154101 0.21564916 -0.19357491
0.0082572997 0.27809799 -0.19675969
0.15723571 0.30125299 -0.19946726
-0.26154101 0.34685707 -0.19087759
0.26154101 -0.3268685 -0.18927605
0.26154101 -0.28539091 -0.18622275
-0.26154101 -0.2344722 -0.18014069
-0.26154101 0.062842287 -0.18100727
0.26154101 0.10119912 -0.18585607
-0.13516037 0.27809799 -0.18512514
0.0016341545 0.27809799 -0.18077765
0.077772573 0.27809799 -0.18869454
-0.0030662827 0.30125299 -0.18110594
0.059289839 0.30125299 -0.18906121
-0.16925316 -0.35497099 -0.17677338
0.1015631 -0.35497099 -0.17859979
-0.26154101 -0.33519951 -0.17021632
0.26154101 -0.31937078 -0.17614891
0.26154101 -0.30406091 -0.17320162
0.26154101 -0.21059707 -0.17201385
-0.26154101 -0.10263024 -0.17182159
-0.26154101 0.15645689 -0.17000051
0.26154101 0.17176208 -0.1714903
-0.26154101 0.19431165 -0.17530039
-0.26154101 0.26948619 -0.17020032
0.11754332 0.27809799 -0.1748873
0.26154101 0.27524334 -0.17943053
-0.15116476 0.30125299 -0.17264977
-0.0067902133 0.30125299 -0.17111635
0.013028748 0.30125299 -0.17582762
-0.26154101 0.3159295 -0.17268009
0.073814616 -0.35497099 -0.16322751
-0.26154101 -0.3319639 -0.16222002
0.26154101 -0.24053937 -0.16489156
-0.26154101 -0.024140105 -0.16858089
-0.26154101 0.011436898 -0.1618778
-0.2012305 0.27809799 -0.16772407
0.055026002 0.27809799 -0.16755384
0.068944447 0.27809799 -0.16589768
0.1024645 0.27809799 -0.16349956
-0.055229694 0.30125299 -0.16792373
0.10963595 0.30125299 -0.16339886
-0.15588298 0.3130748 -0.16998519
-0.15928286 -0.35497099 -0.15243292
0.012432434 -0.35497099 -0.1562949
0.028025746 -0.35497099 -0.15786207
0.044803903 -0.35497099 -0.15468426
0.052280933 -0.35497099 -0.15687479
0.26154101 -0.34392703 -0.15380308
0.26154101 -0.29080606 -0.15889868
0.26154101 -0.28477946 -0.1529673
0.26154101 -0.22079997 -0.15717432
-0.26154101 -0.19498569 -0.15903133
0.26154101 7.9151243e-05 -0.15945645
-0.26154101 0.047544137 -0.1586524
-0.26154101 0.16161564 -0.15082957
-0.26154101 0.20228569 -0.15390575
0.080728576 0.27809799 -0.15582374
0.19397721 0.27809799 -0.15931912
-0.26154101 0.33418506 -0.15292947
-0.22811912 0.36158201 -0.15145998
0.16530375 -0.35497099 -0.1438514
-0.26154101 -0.26336607 -0.14675073
-0.26154101 -0.21762362 -0.14648438
0.26154101 0.12771398 -0.14005375
-0.22595213 0.27809799 -0.14151037
-0.18290836 0.27809799 -0.14403965
-0.11437645 0.27809799 -0.14746843
0.19031708 0.27809799 -0.14916015
0.042974591 0.30125299 -0.14615899
0.19830336 0.30125296 -0.14188199
-0.25651112 0.36158201 -0.14222848
-0.1619224 -0.35497099 -0.13840114
-0.14486429 -0.35497099 -0.1343825
-0.07353574 -0.35497099 -0.13482909
0.23580123 -0.35497099 -0.13168825
-0.26154101 -0.24799284 -0.1397021
0.26154101 0.04269255 -0.13640468
0.26154101 0.11395426 -0.13058253
0.26154101 0.255546 -0.13727888
0.17530347 0.27809799 -0.13919276
0.10305212 0.30125299 -0.13770059
0.13706496 0.30125299 -0.13929832
0.21113889 0.30125299 -0.13838652
-0.24632998 0.36158201 -0.13037203
-0.15349317 -0.35497099 -0.12357051
0.027611561 -0.35497099 -0.12383737
0.082386747 -0.35497099 -0.12260367
0.26154101 -0.31958145 -0.12372664
0.26154101 -0.29322672 -0.12517294
-0.26154101 -0.26592755 -0.1274098
0.26154101 -0.24967809 -0.12346825
-0.26154101 -0.22337653 -0.12135796
-0.26154101 -0.13018307 -0.12210482
-0.26154101 0.16174971 -0.12399594
0.26154101 0.16058564 -0.12915836
-0.24794653 0.27809799 -0.12419668
-0.067892805 0.27809799 -0.12754045
-0.013224885 0.27809799 -0.12182532
0.13967128 0.27809799 -0.12398678
0.26154101 0.27631509 -0.1287072
-0.0034816675 0.30125299 -0.12501924
0.12604275 0.30125299 -0.12091689
0.13060734 0.30125299 -0.127253
0.25814217 0.30125299 -0.12829497
-0.01078853 -0.35497099 -0.11427236
0.039492711 -0.35497099 -0.11064541
-0.26154101 -0.28207305 -0.11685783
0.26154101 -0.20601986 -0.11585657
0.26154101 -0.17564878 -0.11388703
0.26154101 -0.07117337 -0.11628829
0.26154101 0.248455 -0.11257496
-0.21779862 0.27809799 -0.11856578
-0.012480333 0.27809799 -0.11345145
0.24328648 0.27809799 -0.11146246
-0.025430709 0.30125299 -0.11651781
0.08222685 0.30125299 -0.11050537
0.096883729 0.30125299 -0.11774337
0.14648674 0.30125299 -0.11141543
0.22633731 0.30125299 -0.11726247
-0.26154101 0.32483757 -0.11990241
-0.13617074 -0.35497099 -0.10677135
-0.26154101 -0.19140026 -0.10507484
0.26154101 -0.050638419 -0.10796778
-0.26154101 -0.0021832138 -0.10271902
-0.26154101 0.14745858 -0.10758565
-0.26154101 0.21233392 -0.10878287
-0.20529485 0.27809799 -0.10494618
-0.1776637 0.27809799 -0.10945486
0.001921609 0.27809799 -0.10709134
0.15242764 0.27809799 -0.10590946
0.16833796 0.27809799 -0.10055947
-0.11379041 0.30125299 -0.10372058
0.073295534 0.30125299 -0.10472584
-0.18767565 0.33584386 -0.10019373
-0.222865 -0.35497099 -0.092088461
-0.031243756 -0.35497099 -0.093663946
0.18808411 -0.35497099 -0.096783996
0.26154101 -0.054060631 -0.095962286
0.26154101 0.057191387 -0.099391207
0.26154101 0.14340748 -0.099156871
-0.26154101 0.18846056 -0.093204983
0.26154101 0.2113665 -0.097407401
-0.26154101 0.24530041 -0.097770154
-0.066170909 0.27809799 -0.093128517
-0.043484375 0.27809799 -0.099111728
0.083691932 0.27809799 -0.094706856
0.15291739 0.27809799 -0.098488234
0.25574183 0.27809799 -0.093997575
-0.0034722872 0.30125299 -0.097994715
0.14428307 0.30125299 -0.095710099
-0.22312942 0.35886323 -0.09090969
-0.17307872 -0.35497099 -0.082675353
-0.13907805 -0.35497099 -0.08441855
0.21433252 -0.35497099 -0.088109061
0.26154101 -0.31786424 -0.088277116
0.26154101 -0.24335241 -0.085089475
-0.26154101 -0.093803123 -0.086587243
0.26154101 -0.038897619 -0.081689142
0.26154101 0.088924848 -0.085062891
-0.26154101 0.11488228 -0.083058789
-0.21553314 0.27809799 -0.082248345
-0.13036984 0.27809799 -0.081035726
0.11258744 0.27809799 -0.081827037
0.24605951 0.27809799 -0.083234444
0.26154101 0.27493715 -0.081036009
-0.14794904 0.30125299 -0.084182054
-0.091438599 0.30125299 -0.080783069
-0.026942484 0.30125299 -0.083156049
0.033034656 0.30125299 -0.089335486
0.019733761 -0.35497099 -0.07317616
0.12417258 -0.35497099 -0.072792448
0.26154101 -0.33317661 -0.070597045
-0.26154101 -0.31235468 -0.070726067
-0.26154101 -0.22984266 -0.079592228
0.26154101 0.15996328 -0.07522098
0.26154101 0.19495942 -0.073832914
-0.22619289 0.27809799 -0.072833203
-0.12181886 0.27809799 -0.070652604
-0.061942037 0.27809799 -0.076215774
-0.045262638 0.27809799 -0.075779177
0.053869896 0.27809799 -0.073752604
0.13876319 0.27809799 -0.074043259
0.060465716 0.30125299 -0.07238058
0.14926045 0.30125299 -0.076714799
0.025891684 -0.35497099 -0.064178564
0.22120515 -0.35497099 -0.061214786
-0.26154101 -0.33705819 -0.068240166
0.26154101 -0.32046062 -0.069213323
0.26154101 -0.27292255 -0.063891657
-0.26154101 -0.20558089 -0.063643284
0.26154101 0.022042189 -0.067990758
-0.26154101 0.033040866 -0.066721551
0.26154101 0.044915222 -0.065026939
-0.26154101 0.10143019 -0.061519116
0.26154101 0.15042244 -0.06153769
-0.26154101 0.20524617 -0.064704724
-0.26154101 0.22903612 -0.066015482
-0.0042212531 0.27809799 -0.06473548
0.10272536 0.27809799 -0.064091913
0.18921925 0.27809799 -0.068689898
-0.155883 0.30653316 -0.060662571
-0.0015133023 0.30125299 -0.0657041
0.0058342516 0.30125299 -0.060190111
0.20495988 0.30125302 -0.065764688
0.23008901 0.30125299 -0.063245438
-0.052433804 -0.35497099 -0.059205696
0.17426419 -0.35497099 -0.057042077
0.26154101 -0.33468118 -0.054620005
-0.26154101 -0.055777289 -0.057640225
0.26154101 -0.049955592 -0.056560509
-0.26154101 -0.00691415 -0.05804009
-0.26154101 0.12043307 -0.050762318
-0.26154101 0.2251008 -0.052747063
0.26154101 0.26116085 -0.054055877
0.24410498 0.28900406 -0.051991802
-0.0069275498 0.30125299 -0.050350539
0.17496252 0.30125299 -0.054532725
0.202723 0.30125299 -0.051095314
-0.19591574 0.3411935 -0.051479708
-0.23233159 0.36158198 -0.051137045
-0.074141435 -0.35497099 -0.045034029
0.053735156 -0.35497099 -0.048215222
-0.26154101 -0.32109034 -0.049928427
-0.26154101 -0.2461455 -0.047895528
0.26154101 -0.062821992 -0.047846578
-0.26154101 -0.0024801046 -0.049704306
0.26154101 0.013439577 -0.040015239
-0.26154101 0.26102212 -0.047026873
-0.21704058 0.27809799 -0.046715863
-0.12893483 0.27809799 -0.048261024
-0.135268 0.30125299 -0.042997845
0.049772725 0.30125299 -0.047123671
-0.20535341 0.34732187 -0.045331858
-0.24130338 -0.35497099 -0.036954906
-0.021517746 -0.35497099 -0.031138971
0.26154101 -0.33450133 -0.031942405
-0.26154101 -0.11473548 -0.036664031
0.26154101 0.10319992 -0.033715919
-0.26154101 0.26073122 -0.032532349
-0.26154101 0.27966803 -0.037604049
-0.10217474 0.27809799 -0.034313146
-0.081001215 0.27809799 -0.035796437
0.024222963 0.27809799 -0.03055574
-0.1078476 0.30125299 -0.038516946
0.22248292 0.30125299 -0.037790343
-0.20619598 -0.35497099 -0.025402382
0.25059637 -0.35497099 -0.026809111
-0.26154101 -0.25559694 -0.027579427
0.26154101 -0.15959202 -0.023835063
-0.26154101 -0.12437473 -0.024474137
-0.26154101 0.058940776 -0.024201609
0.26154101 0.065943412 -0.02509746
-0.26154101 0.11485726 -0.023190886
-0.26154101 0.20205593 -0.02241081
-0.16230464 0.27809799 -0.024941958
0.17305499 0.27809799 -0.028254664
0.25876519 0.29595003 -0.020055767
-0.07898023 0.30125299 -0.022406992
0.063133188 0.30125299 -0.024236821
0.21564116 0.30125299 -0.026907627
-0.058381967 -0.35497099 -0.019922629
-0.26154101 -0.31559715 -0.012189634
0.26154101 -0.16994387 -0.012047365
-0.26154101 -0.14776888 -0.016462624
-0.26154101 -0.065894738 -0.017469414
0.26154101 -0.05431959 -0.014662549
0.26154101 0.024034027 -0.013465907
0.26154101 0.069286525 -0.015410073
0.26154101 0.17448905 -0.015389293
0.26154101 0.23384483 -0.017455913
-0.21009085 0.27809799 -0.018028229
-0.17835625 0.27809799 -0.011524685
-0.15233636 0.27809799 -0.012357838
-0.040804893 0.27809799 -0.012915943
0.098114863 0.27809799 -0.012542093
0.15954769 0.27809799 -0.017523505
-0.155883 0.30884016 -0.010009222
-0.041953817 0.30125299 -0.011753336
0.019545041 0.30125299 -0.016646855
-0.25627473 -0.35497099 -0.0015388466
0.061641376 -0.35497099 -0.0091244839
0.26154101 -0.34933978 -0.0086896941
-0.26154101 -0.27359438 -0.0056683645
0.26154101 -0.07252454 -0.002624908
-0.26154101 -0.060570121 -0.0043740347
-0.26154101 -0.048774704 -0.0089441016
0.26154101 -0.0086965859 -0.0027906597
0.26154101 0.09572684 -0.006448064
0.26154101 0.17704961 -0.0021581873
-0.25199181 0.27809799 -0.0092668831
-0.047065072 0.27809799 -0.0013525244
0.2607581 0.29642659 -0.0070526958
-0.083280027 0.30125299 -0.0066509545
-0.076306671 0.30125299 -0.00055480748
0.035633866 0.30125299 -0.00061043352
0.075361937 0.30125299 -0.0081715053
0.17778334 -0.35497099 0.0047113225
-0.26154101 -0.27008742 0.0039928854
-0.26154101 -0.2336738 0.0095571727
-0.26154101 -0.18225756 0.00017547235
0.26154101 -0.1497978 0.0053628832
0.26154101 0.08517351 0.0045541525
0.26154101 0.22745976 0.0038102642
-0.070782304 0.27809799 0.0055002701
0.1275744 0.27809799 0.0010156333
0.01781027 0.30125299 0.0075844899
0.082121983 0.30125299 0.0048477175
-0.15851554 -0.35497099 0.015454911
-0.14333734 -0.35497099 0.011452772
0.049218714 -0.35497099 0.015902258
-0.26154101 -0.33894131 0.015708424
0.26154101 -0.30450475 0.013678402
-0.26154101 -0.28438014 0.01778841
-0.26154101 -0.094758034 0.018948793
0.26154101 0.065872744 0.016755462
-0.26154101 0.12661642 0.016830064
0.26154101 0.20690595 0.011243448
0.0045023039 0.27809799 0.014851063
-0.068304189 0.30125299 0.012171496
0.11037434 0.30125299 0.015062988
0.16691038 0.30125299 0.016892612
0.2545481 0.30125299 0.019159427
-0.14036247 -0.35497099 0.024806693
-0.10195306 -0.35497099 0.020626774
0.0019010007 -0.35497099 0.024271697
0.2119886 -0.35497099 0.028756
0.26154101 -0.2135006 0.02476076
-0.26154101 -0.13516036 0.023769975
0.26154101 -0.11001419 0.024683803
-0.26154101 0.082406498 0.021156989
0.26154101 0.12515192 0.028985918
-0.06550239 0.27809799 0.028813474
-0.023508348 0.27809799 0.024536043
-0.018110812 0.27809799 0.024819605
0.029451162 0.27809799 0.025422975
0.14498621 0.27809799 0.024301101
0.0609207 0.30125299 0.025833271
-0.26154101 0.31279182 0.023037657
-0.19570507 0.34105733 0.024320552
-0.030163951 -0.35497099 0.031220458
0.053543847 -0.35497099 0.031722136
0.26154101 -0.24473453 0.036829662
0.26154101 -0.23110643 0.036155693
-0.26154101 0.056986816 0.039543856
-0.26154101 0.12099105 0.032374375
0.26154101 0.16469122 0.035177458
-0.26154101 0.2173757 0.038272299
-0.26154101 0.27558929 0.030324064
-0.24300373 0.27809799 0.03053841
-0.066733822 0.30125299 0.031199381
-0.24408063 -0.35497099 0.049898501
-0.21131612 -0.35497099 0.047546413
0.046200268 -0.35497099 0.04585167
-0.26154101 -0.15383968 0.044607833
-0.26154101 -0.13002279 0.047412969
0.26154101 -0.12635764 0.04102831
0.26154101 -0.0826689 0.047355354
-0.26154101 0.0082376199 0.043841138
-0.2559706 0.27809799 0.04381077
-0.15615754 0.27809799 0.047784127
-0.14821425 0.27809799 0.045627348
-0.033453107 0.27809799 0.046770252
-0.17548925 0.35066766 0.0494182
-0.23477225 0.36158204 0.049053937
-0.17181295 -0.35497099 0.053012222
-0.26154101 -0.3148458 0.05371106
0.26154101 -0.25625211 0.051541697
-0.26154101 0.06834279 0.054536033
-0.15068349 0.27809799 0.059086196
-0.12437063 0.27809799 0.055294938
0.1125914 0.27809799 0.056288194
-0.155883 0.30860487 0.050268844
0.025315896 0.30125299 0.057646073
0.18262731 0.30125299 0.057881393
-0.19156273 0.33836764 0.059445001
-0.24647528 0.36158201 0.058914579
0.25517079 -0.35497099 0.067710057
0.26154101 -0.25971994 0.064911336
-0.26154101 -0.24502859 0.067029141
0.26154101 -0.24892649 0.069987223
-0.26154101 -0.23639506 0.060601771
0.26154101 -0.23882911 0.065041587
0.26154101 -0.1401282 0.063139014
-0.26154101 -0.010959856 0.068537876
0.26154101 0.019458495 0.06537886
0.26154101 0.11810984 0.065585569
0.26154101 0.12123437 0.067252696
-0.18388048 0.27809799 0.064647213
-0.073987186 0.27809799 0.066451229
0.049839113 0.27809799 0.067451134
0.13913131 0.27809799 0.062961355
0.25210667 0.27809799 0.060194232
-0.2557756 -0.35497099 0.073719293
0.26154101 -0.28999215 0.078178242
-0.26154101 -0.23902461 0.072868444
-0.26154101 0.057436246 0.072963201
0.26154101 0.25087869 0.075105384
-0.13623559 0.27809799 0.070048064
0.053697862 0.27809799 0.07238245
-0.26154101 -0.31028688 0.089487523
-0.26154101 -0.24557643 0.082208082
0.26154101 -0.067207985 0.089337453
-0.15116063 0.27809799 0.086754441
-0.11859165 0.27809799 0.086232379
0.044176519 0.27809799 0.085092708
0.11705329 0.27809799 0.083976664
0.12196101 0.27809799 0.080830567
-0.26154101 0.28587681 0.080763757
-0.155883 0.30517024 0.088233337
0.1823217 0.30125299 0.088143796
-0.26154101 0.33456409 0.088830121
-0.19001147 0.33736032 0.088521175
-0.23818828 -0.35497099 0.099608049
-0.18204653 -0.35497099 0.092802227
-0.066362962 -0.35497099 0.090213597
0.087591514 -0.35497099 0.090857781
0.15707587 -0.35497099 0.092397586
0.18825075 -0.35497099 0.091581717
-0.26154101 -0.34788525 0.093494877
-0.26154101 -0.20828347 0.098155327
-0.26154101 -0.1698679 0.096830562
0.26154101 -0.11491131 0.09779954
0.26154101 0.081378505 0.091441207
0.26154101 0.11657695 0.098270454
-0.26154101 0.16154146 0.0952463
-0.037860129 0.27809799 0.090984084
0.022181205 0.27809799 0.093991309
0.032219283 0.27809799 0.097886086
-0.13193023 0.30125299 0.099701941
-0.15822379 -0.35497099 0.10124806
0.16091503 -0.35497099 0.10131676
-0.26154101 -0.17334145 0.10131664
0.26154101 -0.17164548 0.10225421
0.26154101 -0.16584733 0.10017397
-0.26154101 -0.1174795 0.1047888
-0.26154101 0.15977941 0.10320433
-0.26154101 0.19223125 0.10034707
-0.10019576 0.27809799 0.10484491
-0.049932837 0.27809799 0.10026821
0.16660967 0.27809799 0.1052984
-0.26154101 0.28049937 0.10204399
0.19426408 0.30125299 0.10854806
-0.20804073 0.34906662 0.10455272
-0.24025089 0.36158201 0.10263939
-0.0070057362 -0.35497099 0.11775404
-0.26154101 -0.28454041 0.11036314
-0.26154101 -0.17826764 0.11925305
-0.26154101 -0.042628556 0.11441858
-0.26154101 0.074602693 0.11662485
-0.26154101 0.10128889 0.1145592
-0.26154101 0.15757552 0.11943312
0.26154101 0.19023612 0.11058918
0.26154101 0.21754661 0.11035204
0.26154101 0.24235877 0.11595647
-0.077535242 0.27809799 0.11616305
0.13232644 0.27809799 0.11309341
0.094184883 0.30125299 0.11996214
-0.18998523 -0.35497099 0.12436477
-0.12650156 -0.35497099 0.12202707
-0.040719911 -0.35497099 0.12543109
0.13234092 -0.35497099 0.12323451
-0.26154101 -0.25879827 0.12714963
-0.26154101 -0.20202738 0.12688482
-0.26154101 0.14363624 0.12211642
-0.26154101 0.17630026 0.12040612
0.26154101 0.22529593 0.12736855
-0.26069325 0.27809799 0.12411375
-0.22876547 -0.35497099 0.13295007
-0.0377931 -0.35497099 0.13857773
0.11593921 -0.35497099 0.13373911
0.17966899 -0.35497099 0.13267206
0.25930765 -0.35497099 0.1374525
-0.26154101 -0.25520703 0.13442476
0.26154101 -0.15573519 0.13510339
0.26154101 -0.11550796 0.13793203
0.26154101 -0.08292307 0.1371346
0.26154101 0.059884399 0.13285039
-0.26154101 0.098351948 0.13298951
-0.26154101 0.26711476 0.13519552
0.04225643 0.27809799 0.13077398
-0.1294553 0.30125299 0.13856244
-0.070016637 0.30125299 0.13380496
-0.26154101 0.33976921 0.13616581
-0.2344989 0.36158201 0.13551095
-0.26154101 -0.35340604 0.14999099
-0.23622516 -0.35497099 0.14366248
-0.06328138 -0.35497099 0.14934483
-0.036480367 -0.35497099 0.14989451
0.029681548 -0.35497099 0.14163563
0.1812917 -0.35497099 0.14053531
-0.26154101 -0.29736552 0.14474921
0.26154101 -0.074860565 0.14817449
0.26154101 0.058310993 0.14135416
0.26154101 0.11033793 0.14788553
0.26154101 0.13689384 0.14260115
0.032414369 0.27809799 0.14976041
-0.15079899 0.30125299 0.14634745
-0.11472427 0.30125302 0.14707801
0.23289706 0.30125299 0.14165738
-0.049513265 -0.35497099 0.15139845
-0.0061799213 -0.35497099 0.15269899
0.26154101 -0.17912877 0.15393314
0.26154101 -0.052130714 0.15230972
0.26154101 0.19955134 0.15375295
-0.26154101 0.2100216 0.15291785
0.02635406 0.27809799 0.15323927
0.10551669 0.27809799 0.1506484
0.1942817 0.27809799 0.15520722
-0.13337347 0.30125302 0.15230557
-0.0082810298 0.30125299 0.15546006
0.061088789 0.30125299 0.15028211
-0.2343936 0.36158201 0.15767737
0.26154101 -0.3124868 0.16087444
0.26154101 -0.26396006 0.16699457
0.26154101 -0.045571841 0.16493775
0.26154101 -0.011105716 0.16891482
-0.26154101 0.035217009 0.16153798
-0.26154101 0.079699807 0.16215703
0.26154101 0.20962207 0.16873732
0.1732364 0.27809799 0.16924432
-0.1767018 0.32871926 0.16799651
-0.18016751 -0.35497099 0.17433043
-0.26154101 -0.221486 0.1728429
0.26154101 -0.11488882 0.17920627
0.26154101 -0.073385902 0.17544875
0.26154101 -0.064199403 0.17996129
-0.23110956 0.27809799 0.17274694
-0.17546307 0.27809799 0.17772797
-0.11898205 -0.35497099 0.18306464
-0.063777007 -0.35497099 0.18939377
0.13276713 -0.35497099 0.18292958
-0.26154101 -0.24362274 0.18861987
-0.26154101 -0.11215142 0.18452075
0.26154101 0.019250486 0.18520518
-0.26154101 0.062976278 0.18723999
0.26154101 0.085729316 0.18905103
0.26154101 0.20035894 0.18789968
-0.26154101 0.27327651 0.18296403
-0.19334012 0.27809799 0.18346648
-0.093325511 0.27809799 0.18040596
0.18148522 0.30125299 0.18725669
-0.18202677 0.33217588 0.18011054
-0.18291204 0.34877741 0.18752199
-0.24392346 0.36158201 0.18616772
0.18667708 -0.35497099 0.19600824
-0.26154101 -0.045746129 0.19239622
0.26154101 0.046358332 0.19135262
0.26154101 0.22592621 0.19181463
-0.021260807 0.30125299 0.19476119
0.19758742 0.30125299 0.19247301
-0.25654882 0.36158204 0.1905207
-0.11558778 -0.35497099 0.20399427
-0.063105144 -0.35497099 0.20721424
0.26154101 -0.16367434 0.20846441
0.26154101 -0.081958503 0.20812611
-0.26154101 0.087742195 0.20385611
0.12665503 0.27809799 0.20153403
-0.093978018 0.30125299 0.20406741
-0.050545018 0.30125299 0.20665452
-0.10358617 -0.35497099 0.21599364
-0.063292935 -0.35497099 0.21011758
-0.26154101 -0.11164013 0.21300876
0.26154101 -0.11412077 0.21863919
-0.26154101 0.035140216 0.21317685
-0.26154101 0.071203686 0.21480843
-0.26154101 0.097002968 0.21850252
-0.034395114 0.27809799 0.21386647
0.028451286 0.27809799 0.21996085
0.19725707 0.27809799 0.21505749
0.040569186 0.30125299 0.21555077
0.11195692 0.30125299 0.21745412
-0.1946325 0.34036118 0.21207812
-0.041059844 -0.35497099 0.22405586
0.091610514 -0.35497099 0.22267711
-0.2393713 -0.34942958 0.224925
-0.11577999 -0.34054345 0.22492501
-0.085428074 -0.34857285 0.224925
-0.18523876 -0.33054167 0.22492501
0.088014767 -0.33304888 0.22492498
0.15792969 -0.33360934 0.224925
-0.070958756 -0.32077676 0.224925
0.14377722 -0.32327557 0.224925
0.23381627 -0.32029933 0.22492501
0.2606084 -0.3247368 0.224925
-0.1157386 -0.31455863 0.22492501
-0.037936807 -0.31915975 0.22492498
0.037022702 -0.31770372 0.22492501
0.18084875 -0.31146708 0.22492501
-0.23909512 -0.30509278 0.224925
-0.20545532 -0.30301335 0.224925
0.011965126 -0.3047325 0.22492501
-0.23958378 -0.29024273 0.224925
-0.030860409 -0.29349202 0.22492498
0.048860379 -0.29481262 0.22492498
-0.19496049 -0.28923255 0.224925
-0.18752119 -0.28358749 0.22492498
0.18192108 -0.28532308 0.22492501
-0.095693924 -0.27890289 0.22492498
0.054754265 -0.27846378 0.22492498
0.076199897 -0.27144334 0.224925
0.021541312 -0.26861927 0.224925
0.16945489 -0.2613599 0.224925
-0.23494223 -0.25592384 0.224925
-0.10752982 -0.25096926 0.224925
-0.04402861 -0.25247157 0.224925
-0.022463582 -0.25478494 0.224925
-0.21659535 -0.24381155 0.224925
-0.14034936 -0.24277994 0.224925
-0.024734728 -0.24499243 0.224925
0.044683166 -0.24336559 0.224925
-0.15669507 -0.22129533 0.22492501
-0.11529998 -0.22086027 0.224925
0.070229955 -0.22770037 0.22492501
0.13360566 -0.22760853 0.22492498
-0.026879355 -0.2189462 0.22492501
0.069294311 -0.21592149 0.22492501
0.16649154 -0.21282767 0.224925
-0.11335646 -0.20731202 0.224925
0.020043708 -0.20136964 0.224925
0.16788012 -0.20410742 0.224925
-0.23919936 -0.19972076 0.224925
0.042355523 -0.18727569 0.224925
0.24303555 -0.18169764 0.224925
0.23938128 -0.1757791 0.224925
-0.14021152 -0.16694935 0.224925
-0.11068988 -0.16252472 0.224925
0.26154101 -0.16893865 0.22166015
-0.19488961 -0.15616632 0.22492501
-0.16599378 -0.15236697 0.224925
0.07969141 -0.15042736 0.224925
0.2007435 -0.15195829 0.224925
-0.21686292 -0.14180999 0.22492501
0.15331319 -0.14766037 0.22492498
-0.069262594 -0.13958766 0.224925
0.052475639 -0.13612561 0.224925
-0.22982016 -0.12470502 0.22492498
-0.23545131 -0.11988282 0.22492498
-0.20807058 -0.1175702 0.224925
-0.033851933 -0.11554908 0.22492498
-0.022765137 -0.11791268 0.224925
-0.21079893 -0.10414352 0.224925
-0.13518637 -0.10777278 0.224925
-0.071706794 -0.10482912 0.22492498
0.0057359422 -0.092438668 0.224925
0.17677036 -0.095570207 0.224925
-0.028012518 -0.082664937 0.224925
0.02509615 -0.089129187 0.224925
0.23729318 -0.089179151 0.224925
-0.1079386 -0.078337923 0.224925
-0.096771441 -0.078880645 0.22492498
-0.25688872 -0.067732006 0.22492501
-0.16258439 -0.061528668 0.22492501
-0.076748103 -0.06451562 0.22492498
-0.060485505 -0.063666128 0.224925
-0.13093995 -0.057425972 0.22492501
-0.12291667 -0.052359078 0.22492501
0.024840817 -0.058127001 0.22492498
-0.15129149 -0.04032854 0.224925
-0.18742907 -0.031199895 0.22492498
-0.2380798 -0.024138333 0.224925
-0.18188089 -0.02296235 0.22492501
0.14533319 -0.027400166 0.22492498
0.20583431 -0.021001114 0.224925
-0.23333834 -0.010207847 0.224925
0.09759295 -0.017157629 0.22492501
-0.15409696 -0.0032219142 0.224925
0.19506529 -0.003867954 0.224925
0.12895605 0.0082538836 0.22492501
0.17455047 0.0031139571 0.224925
0.21572027 0.0042305738 0.22492501
-0.15352514 0.017030299 0.22492498
-0.091341183 0.019372767 0.224925
0.1989159 0.010428712 0.224925
-0.10537389 0.027781159 0.22492498
-0.01747445 0.021022052 0.224925
0.15020849 0.028415188 0.224925
0.20605661 0.028241642 0.22492501
0.21401697 0.024498716 0.224925
0.25874081 0.023469992 0.224925
-0.26121619 0.030910626 0.224925
-0.021629654 0.035734788 0.22492501
0.11398339 0.033498753 0.224925
0.21979794 0.031295478 0.224925
0.25204712 0.032930098 0.22492498
0.06011311 0.04587651 0.22492498
0.1224943 0.041996308 0.22492498
-0.25416061 0.055115968 0.224925
-0.20127146 0.057300046 0.224925
-0.19071943 0.054714303 0.224925
-0.0063342638 0.054767448 0.224925
-0.038643844 0.061552897 0.224925
-0.089525394 0.075362086 0.224925
0.039966978 0.0787891 0.22492498
0.12450181 0.08593671 0.224925
0.24020931 0.082728982 0.22492501
-0.10818893 0.096453249 0.22492501
-0.090393633 0.093568675 0.22492498
-0.024252005 0.093234017 0.224925
0.11650752 0.099971488 0.22492498
0.11780885 0.10888931 0.224925
0.23297799 0.10287637 0.224925
-0.18881865 0.11356092 0.224925
-0.1203833 0.11686568 0.22492498
-0.094231024 0.11961996 0.22492498
0.16012989 0.11332482 0.22492501
0.11343595 0.12515104 0.22492501
0.19546999 0.1273753 0.224925
-0.18867226 0.13813013 0.224925
-0.14841656 0.13218713 0.224925
0.0067374408 0.13111788 0.22492501
0.089842767 0.13057993 0.22492501
-0.2531063 0.14575467 0.224925
-0.18674734 0.14164834 0.22492501
-0.059313525 0.14524449 0.22492501
-0.092567399 0.15803769 0.224925
-0.060125612 0.15245418 0.22492501
0.10205352 0.15728989 0.224925
-0.18480702 0.16437909 0.224925
-0.097263463 0.16502121 0.22492501
0.15608862 0.16893479 0.22492501
0.16168286 0.16937245 0.224925
-0.19228791 0.17962457 0.224925
-0.094178483 0.17422023 0.22492498
-0.044044316 0.17365766 0.22492498
0.13391301 0.18415871 0.22492498
-0.24171016 0.19853623 0.224925
-0.058370396 0.19726828 0.224925
0.078769512 0.19412103 0.22492501
0.10556541 0.19938241 0.22492498
0.043980315 0.20138991 0.22492501
-0.26092154 0.21866032 0.224925
-0.14207871 0.21728283 0.224925
-0.017865255 0.21047023 0.22492501
-0.019036151 0.22153684 0.224925
-0.25900599 0.23818994 0.224925
0.15153363 0.23147266 0.22492501
-0.18285994 0.24683976 0.224925
0.18047234 0.24525967 0.22492498
-0.13999406 0.2530908 0.22492498
-0.11809719 0.25855532 0.22492501
0.14066279 0.25119203 0.22492498
-0.1894224 0.26987818 0.224925
-0.10868897 0.26356864 0.224925
-0.24670668 0.27381492 0.224925
-0.16673955 0.27689648 0.22476913
-0.069355004 0.27537942 0.224925
0.013108484 0.27923951 0.224925
0.031873375 0.27809799 0.22281815
0.071368471 0.27924162 0.22492498
0.11769932 0.27421376 0.22476062
0.22957771 0.27809799 0.22317056
0.25695592 0.27710101 0.22492501
-0.12686893 0.29079571 0.224925
0.044659704 0.29020581 0.224925
0.072007187 0.29491729 0.224925
-0.22055563 0.30446467 0.22492501
0.19655514 0.30125299 0.22432666
