# .PCD v0.7 - Point Cloud Data file format
VERSION 0.7
FIELDS x y z
SIZE 4 4 4
TYPE F F F
COUNT 1 1 1
WIDTH 974
HEIGHT 1
VIEWPOINT 0 0 0 1 0 0 0
POINTS 974
DATA ascii
-0.22512086 -0.32196721 -0.23477
-0.18715715 -0.3215223 -0.23477
-0.10096451 -0.32065311 -0.23477
-0.061458446 -0.32520753 -0.23477
0.019668888 -0.32974601 -0.23028505
0.16777605 -0.3233659 -0.23477
0.17621334 -0.32057399 -0.23477
0.18023406 -0.32635796 -0.23477
0.25019842 -0.32974601 -0.23285855
0.26229292 -0.32844573 -0.23477
-0.2361542 -0.31691101 -0.23477
0.050160438 -0.31309047 -0.23477
0.11593288 -0.31623206 -0.23477
-0.21255857 -0.3019903 -0.23477
-0.13463998 -0.30807695 -0.23477
0.048292041 -0.30348504 -0.23477
0.17472827 -0.30545896 -0.23477001
-0.16268605 -0.29594702 -0.23023373
-0.12200162 -0.28359208 -0.23003113
-0.12892416 -0.27499241 -0.2327669
0.03308969 -0.25219449 -0.23477
0.083593361 -0.25420627 -0.23477
-0.14340423 -0.22247577 -0.23477
-0.02064899 -0.22650382 -0.23477
0.092044786 -0.22982258 -0.23477
0.26369911 -0.22078928 -0.23477
-0.033779748 -0.21715908 -0.23477
0.0088718589 -0.21388285 -0.23477
-0.24770236 -0.20988694 -0.23477
-0.1720268 -0.18556808 -0.23477
-0.10565121 -0.18060087 -0.23477
0.19706623 -0.18144006 -0.23113291
0.25411934 -0.1803643 -0.23477
0.25225684 -0.17739312 -0.23477
-0.25616202 -0.16944163 -0.23477
0.094588108 -0.16721925 -0.23477
0.091288492 -0.15313083 -0.23477
-0.18022409 -0.14816129 -0.23477
0.054927573 -0.14839943 -0.23477
-0.24636549 -0.1265208 -0.23477
-0.16897306 -0.12922634 -0.23477
0.0027829576 -0.12475383 -0.23477
0.031365268 -0.12137058 -0.23477
0.062328491 -0.11328566 -0.23477
0.2450023 -0.11431965 -0.23323272
-0.11786173 -0.10103232 -0.23278305
-0.052006781 -0.09177646 -0.23477
0.072746724 -0.099727996 -0.23477
0.087742969 -0.093279764 -0.23477
-0.26070663 -0.080040768 -0.23477
-0.22406657 -0.084653556 -0.23174618
0.18078485 -0.081238225 -0.23477
-0.098816395 -0.072951511 -0.23477
-0.013100198 -0.071187675 -0.23477
-0.075670905 -0.069752887 -0.23477
-0.056296028 -0.051135667 -0.23477
0.18961786 -0.052131809 -0.23477
0.21065702 -0.058792859 -0.23147738
0.26647401 -0.054752328 -0.23195539
0.24535932 -0.044033181 -0.23259661
-0.2511552 -0.02176065 -0.23477
0.01458897 -0.022740392 -0.23477
-0.24040611 0.0082131717 -0.23476999
-0.025717732 0.0019648559 -0.23477
0.10951145 0.012865307 -0.23477
0.11326709 0.010936812 -0.23477
0.12554057 0.016661584 -0.23477
0.2524493 0.015467577 -0.23477
0.072186098 0.020323791 -0.23477
-0.0046063741 0.038654637 -0.23477
0.20007774 0.033423696 -0.23477
0.11652403 0.045648895 -0.23477
0.26175392 0.047611371 -0.23477
-0.2518999 0.050770752 -0.23477
-0.11897957 0.058516238 -0.23477
-0.064278208 0.071178004 -0.23477
-0.0039424347 0.079027824 -0.23477
0.039784659 0.075850077 -0.23477
0.072292089 0.075719498 -0.23477
-0.25176078 0.085476376 -0.23477
0.07617934 0.085351884 -0.23477
-0.25419638 0.098015204 -0.23477
-0.079202242 0.092402637 -0.23477
0.24276266 0.093459353 -0.23026726
-0.26079601 0.10092653 -0.23452058
-0.17550813 0.10464826 -0.23477
-0.16447134 0.10981005 -0.23477
0.0012122318 0.10007994 -0.23477
0.25556889 0.10428901 -0.23477
-0.15922612 0.1122018 -0.23477
-0.061759822 0.11811228 -0.23477
0.044033468 0.11910994 -0.23477
0.070804365 0.12233716 -0.23477
0.09904021 0.12723811 -0.23477
0.23996262 0.12531273 -0.23344794
-0.0035148263 0.13548294 -0.23477
0.068591677 0.13336721 -0.23477
-0.1816999 0.1428335 -0.23477
-0.10778294 0.14972553 -0.23477
-0.089102641 0.14633277 -0.23477001
-0.088712558 0.15393092 -0.23477
-0.038603324 0.15221588 -0.23477
-0.029627929 0.15078926 -0.23477
-0.25504917 0.16530511 -0.23477
-0.11070473 0.16214032 -0.23394012
0.077378646 0.16591258 -0.23477
0.18309328 0.16439047 -0.23477
-0.16626863 0.1719542 -0.23477
-0.14939028 0.17464988 -0.2328036
0.091165513 0.18354023 -0.23477
0.06771668 0.19082902 -0.23477
0.074328646 0.19467528 -0.23477
0.25860894 0.19083163 -0.23477
-0.067151867 0.20344724 -0.23477
0.025230886 0.20181346 -0.23477
0.061252728 0.20177525 -0.23477
0.18104556 0.21658677 -0.23477
-0.1409567 0.22505553 -0.23215467
0.25081018 0.2289516 -0.23477
-0.20547636 0.23576549 -0.23108995
-0.0037211105 0.23073524 -0.23477
-0.066003375 0.24555224 -0.23477
0.032291189 0.24731295 -0.23477
-0.14867711 0.25365132 -0.23477
-0.035082862 0.25305188 -0.23477
0.043645285 0.26214799 -0.23186339
0.071694531 0.26214799 -0.23402767
0.21874647 0.26592529 -0.23186542
0.13977948 0.27073967 -0.23477
0.1239242 0.29062906 -0.23477001
0.16791551 0.29868808 -0.23477
-0.12105316 0.30708158 -0.23477
0.23892438 0.30842334 -0.23477
0.074448042 0.31106782 -0.23477
0.12633777 0.31661129 -0.23477
-0.083821513 0.32937467 -0.23029807
-0.023395143 0.32238352 -0.23477
0.031055696 0.32603252 -0.23408461
0.090096414 0.32164571 -0.23477
0.22059441 0.32292348 -0.23477
-0.041728288 -0.32974601 -0.22482349
0.23436566 -0.32974601 -0.22622433
0.20354736 -0.29432887 -0.228686
-0.16041045 -0.28692695 -0.228686
-0.10780051 -0.28561154 -0.228686
-0.16607095 -0.27868557 -0.228686
0.032841824 -0.26291826 -0.228686
0.050742231 -0.26345226 -0.228686
-0.17513508 -0.23962703 -0.228686
0.10704833 -0.22880641 -0.228686
0.12705518 -0.21137051 -0.228686
0.13503131 -0.21470225 -0.228686
0.20372015 -0.20434514 -0.228686
0.11779805 -0.19728543 -0.228686
0.19821694 -0.18087474 -0.228686
0.12495546 -0.17883211 -0.228686
0.22632405 -0.17468855 -0.228686
-0.18630984 -0.14966457 -0.228686
-0.13183099 -0.14740559 -0.228686
0.12768146 -0.13292097 -0.228686
0.1366872 -0.13955364 -0.228686
-0.20083559 -0.12385291 -0.228686
0.23970698 -0.12800317 -0.22967106
-0.1973502 -0.11447015 -0.228686
0.17468491 -0.10276611 -0.228686
0.2214254 -0.081638232 -0.228686
0.21388286 -0.07460691 -0.228686
-0.1974894 -0.067601085 -0.228686
-0.2261253 -0.045926638 -0.22951162
0.2399675 -0.048858359 -0.228686
-0.12384969 -0.038439661 -0.228686
-0.13577124 -0.022717677 -0.228686
0.1673159 -0.021635476 -0.228686
0.22794408 -0.02677995 -0.228686
0.17043112 -0.010571728 -0.228686
-0.16055296 0.0061337147 -0.228686
-0.26079601 0.015292376 -0.22192578
-0.22639199 0.013227064 -0.228686
-0.13251476 0.015824556 -0.228686
-0.22653404 0.024367126 -0.22899044
0.16618164 0.022896383 -0.228686
0.1708566 0.024008783 -0.228686
0.16756776 0.036077783 -0.228686
0.14005508 0.042448524 -0.228686
0.16349667 0.049606483 -0.228686
-0.22035345 0.055806749 -0.228686
-0.12741232 0.05816479 -0.228686
-0.13839981 0.063884713 -0.228686
-0.12216502 0.068801217 -0.228686
-0.19411869 0.077790983 -0.228686
0.13031361 0.081758432 -0.228686
-0.1891965 0.10580664 -0.228686
0.23256798 0.11761972 -0.228686
0.16323082 0.12403346 -0.228686
0.22265768 0.12235868 -0.228686
-0.14699516 0.14566591 -0.228686
0.14816682 0.14715296 -0.228686
0.26647401 0.14921483 -0.22452047
-0.20289594 0.16639376 -0.228686
-0.20039631 0.17373013 -0.228686
-0.26079601 0.18328944 -0.22725551
0.23345968 0.18083814 -0.22928984
0.15517449 0.19249891 -0.228686
-0.18330094 0.20965894 -0.228686
0.11126932 0.21306273 -0.228686
-0.19533402 0.22039059 -0.228686
0.26647401 0.22052898 -0.22435257
-0.18061996 0.23810539 -0.228686
-0.20066994 0.24052161 -0.228686
0.14204425 0.26300699 -0.228686
-0.028131146 0.27137518 -0.228686
0.091357797 0.27244672 -0.228686
-0.11855407 0.28742695 -0.22933219
-0.057757426 0.2809411 -0.228686
0.080736876 0.28910914 -0.228686
0.18243085 0.2910763 -0.228686
0.26647401 0.29072708 -0.22913155
-0.082649574 0.32974601 -0.2239642
0.0067513473 0.32974601 -0.22215118
0.031364962 0.32974601 -0.22541544
0.047812149 0.32965046 -0.22921667
-0.19833148 -0.32974601 -0.21971524
-0.18700403 -0.32974601 -0.21501814
-0.13273206 -0.32974601 -0.21042395
-0.12188597 -0.32974601 -0.21396893
0.17354682 -0.32974601 -0.21943477
0.26647401 0.098314285 -0.21399799
-0.13851982 0.32974601 -0.21721765
-0.15288533 -0.32974601 -0.20165519
-0.074482724 -0.32974601 -0.20823018
0.26647401 -0.32656255 -0.20325994
-0.26079601 -0.24009128 -0.20905772
-0.26079601 -0.23032331 -0.20201267
0.26647401 -0.1877978 -0.20836571
0.26337138 -0.17185807 -0.20045909
0.26647401 -0.12704679 -0.2062654
-0.26079601 0.17238444 -0.20283315
0.26647401 0.2004323 -0.20579995
-0.26079601 0.26122135 -0.20168081
-0.12989062 0.32974601 -0.20591919
-0.067316227 0.32974601 -0.20435454
-0.051261619 0.32974601 -0.20401141
0.077379569 0.32974601 -0.2090026
0.1963388 -0.32974601 -0.19150889
-0.26079601 -0.27376342 -0.19854847
-0.26079601 -0.19257505 -0.19027165
-0.26079601 0.17754915 -0.19406959
-0.22357018 0.32974601 -0.19174162
-0.0066674948 -0.32974601 -0.18860638
0.045473747 -0.32974601 -0.18206272
0.26647401 -0.2065797 -0.18270974
-0.26079601 -0.074583977 -0.18928221
-0.26079601 0.048993334 -0.1840044
-0.26079601 0.16866504 -0.18891665
-0.2917822 0.32974601 -0.18835506
-0.056744255 0.32974601 -0.18884227
-0.044097982 0.32974601 -0.18572141
-0.021533072 -0.32974601 -0.17652944
0.10504304 -0.32974601 -0.17474064
-0.26079601 -0.26070479 -0.17891604
0.26647401 -0.24597298 -0.17391562
0.27586585 -0.078556791 -0.17283899
-0.26079601 -0.0010986514 -0.17900562
0.26647401 0.13287474 -0.17793363
-0.26079601 0.26936257 -0.17613707
-0.033670716 0.32974601 -0.17341678
0.21706927 -0.32974601 -0.16662762
0.26647401 -0.27237776 -0.16105539
0.26647401 -0.22163963 -0.1641234
-0.27628908 -0.19836421 -0.16554733
-0.27649745 -0.18818408 -0.167734
-0.266348 -0.15938371 -0.167734
-0.28436089 -0.073939167 -0.167734
-0.28726453 -0.020701911 -0.167734
-0.27399191 -0.013682276 -0.167734
-0.29141802 -0.0057449341 -0.16403112
-0.27004153 0.035230927 -0.167734
-0.29141799 0.12171718 -0.16761975
-0.27596664 0.12477621 -0.16704734
0.286753 0.12836339 -0.16165398
-0.26079601 0.14429477 -0.16344923
0.26647401 0.18741342 -0.16907807
0.26647401 0.19428384 -0.16973245
-0.21420935 0.32974601 -0.16240934
0.13218333 0.32974601 -0.16485108
0.1836693 0.32974601 -0.16863316
0.17755541 -0.32974601 -0.15747032
0.26647401 -0.29798084 -0.15667546
-0.29141799 -0.11548193 -0.1504381
0.286735 -0.1103389 -0.15140751
0.29351401 -0.018043008 -0.15728292
0.286753 0.010330427 -0.15825516
0.286753 0.033139285 -0.15857686
0.29351401 0.038865298 -0.1542211
0.286753 0.07783211 -0.15363027
-0.29141799 0.12880765 -0.15447792
-0.26079601 0.2025435 -0.15709525
-0.26079601 0.25783607 -0.15715879
-0.19733965 0.32974601 -0.15195209
-0.14671315 0.32974601 -0.15946513
0.00063487142 0.32974601 -0.15886536
0.17882551 0.32974601 -0.15349099
0.21355285 -0.32974601 -0.14596331
-0.26079601 -0.2327508 -0.14139976
0.29280642 0.040424526 -0.144862
0.286753 0.082984842 -0.14023952
0.26647401 0.17428651 -0.14498004
-0.26079601 0.23857114 -0.14555943
0.26647401 0.26983142 -0.14944097
-0.19695252 0.32974601 -0.14695871
-0.072654381 0.32974601 -0.14487407
-0.023282297 0.32974601 -0.14177462
0.20832439 0.32974601 -0.14000219
-0.090804048 -0.32974601 -0.13838199
-0.045939729 -0.32974601 -0.13655177
0.012354851 -0.32974601 -0.13067624
0.21467265 -0.32974601 -0.13800143
0.23043579 -0.32974601 -0.13800752
-0.29141796 -0.10706717 -0.13173221
-0.29141799 -0.093169995 -0.13715054
0.27309901 0.074980497 -0.1315836
-0.2860724 0.17403552 -0.13867104
0.26647401 0.29244122 -0.13164347
-0.24294657 0.32974601 -0.13104755
-0.10121761 0.32974601 -0.13566796
-0.027863652 0.32974601 -0.13389719
0.061268434 -0.32974601 -0.12963825
0.1346063 -0.32974601 -0.12705567
0.23530453 -0.32974601 -0.12373763
-0.26079601 -0.27541146 -0.12038323
-0.29141799 -0.10630354 -0.12558958
0.286753 -0.054205626 -0.12506954
0.27309901 0.045329846 -0.12865768
0.27377337 0.081258401 -0.12744999
0.286753 0.094688453 -0.12119649
0.286753 0.17376971 -0.12243858
-0.29141799 0.18302517 -0.12059636
-0.21041901 0.32974601 -0.12678184
0.14082731 0.32974601 -0.12528425
0.21678124 0.32974601 -0.12059988
-0.2162614 -0.32974601 -0.11247256
0.056583509 -0.32974601 -0.11783192
0.26647401 -0.28715807 -0.11215499
0.27309901 0.034729071 -0.11008431
-0.29141799 0.068202205 -0.11720264
-0.29141799 0.092683651 -0.11051418
-0.29141799 0.15371776 -0.11648986
0.286753 0.17346281 -0.11141721
-0.27950662 0.1904574 -0.11557238
-0.26079601 0.22591999 -0.11779036
0.26664394 0.25738859 -0.11550691
-0.20995302 0.32974601 -0.11247307
-0.14383864 0.32974601 -0.11407927
0.10055266 -0.32974601 -0.10946256
0.21736075 -0.32974601 -0.10815781
0.26647401 -0.20580606 -0.10506517
-0.29141799 -0.15663542 -0.10625258
0.286753 -0.14453332 -0.10348789
0.286753 -0.10231871 -0.10219705
0.286753 -0.041347332 -0.10974948
0.286753 0.030114245 -0.10437869
-0.29141799 0.096946523 -0.10044997
-0.29141799 0.15006021 -0.10105707
-0.22388528 0.32974601 -0.10108504
-0.040010501 0.32974601 -0.10617656
0.15463832 0.32974601 -0.10676566
-0.20667647 -0.32974601 -0.096565679
-0.065015838 -0.32974601 -0.09784729
-0.025295146 -0.32974601 -0.09815558
0.23382322 -0.32974601 -0.095484182
0.24963191 -0.32974601 -0.092501879
-0.28840244 -0.24780972 -0.099200912
0.286753 -0.073027045 -0.090952002
-0.29141799 0.00038823485 -0.092400685
-0.29141799 0.029371776 -0.094359271
0.286753 0.16983852 -0.095959425
-0.29141799 0.19655466 -0.093658119
-0.27172327 0.1993731 -0.090041235
-0.26079601 0.21489249 -0.091101557
-0.17247374 -0.32974601 -0.088961869
-0.16406384 -0.32974601 -0.083599046
-0.15933222 -0.32974601 -0.080331422
-0.26079601 -0.27370474 -0.086436026
-0.29141799 -0.16444737 -0.080236211
-0.29141799 -0.12572137 -0.080938719
-0.29141799 -0.068770707 -0.086073413
-0.29141799 -0.033702031 -0.083583698
-0.29141799 0.026578423 -0.087911807
0.286753 0.093412727 -0.087345809
0.26647401 0.22934419 -0.089293703
-0.16302532 0.32974601 -0.088577561
-0.0024354756 0.32974601 -0.081747562
0.085542709 0.32974601 -0.085846469
0.16344674 0.32974601 -0.082349718
-0.26046079 -0.32974601 -0.074411146
-0.18520549 -0.32974601 -0.078940555
-0.057705678 -0.32974601 -0.075606465
0.0032750405 -0.32974601 -0.072035901
0.13761467 -0.32974601 -0.07313627
0.21735722 -0.32974601 -0.073085308
0.26647401 -0.3294881 -0.073498107
-0.26079601 -0.30822593 -0.071889319
-0.27654094 -0.25987157 -0.070072971
-0.26216629 -0.25833905 -0.074276693
-0.29141799 -0.23734887 -0.072735988
0.26647401 -0.22499101 -0.076538295
-0.29141799 -0.14595163 -0.078755356
-0.29141799 0.06211238 -0.075343326
-0.29141799 0.13250269 -0.075440809
-0.29141799 0.19769895 -0.072856784
0.26647401 0.29425484 -0.070423111
-0.27961761 0.32399401 -0.072186992
0.015767895 0.32974601 -0.079005674
0.12629054 0.32974601 -0.074939877
-0.17857508 -0.32974601 -0.066598341
-0.1165237 -0.32974601 -0.063084252
-0.070388705 -0.32974601 -0.060891472
0.068385214 -0.32974601 -0.067546219
0.15247235 -0.32974601 -0.061692037
0.26647401 -0.28348666 -0.064302631
0.26647401 -0.27073532 -0.066620648
-0.29141799 -0.22834961 -0.067375049
0.26647401 -0.17989251 -0.061076194
0.286753 0.092192993 -0.060819868
0.286753 0.18942218 -0.063306376
0.286753 0.2093216 -0.06956578
-0.26079601 0.26181537 -0.064089954
-0.15616839 0.32974601 -0.06182602
0.087141775 0.32974601 -0.069731571
-0.099175215 -0.32974601 -0.059017599
-0.29141799 -0.17436624 -0.058698107
-0.29141799 0.098274261 -0.055913713
0.286753 0.13092613 -0.052400544
-0.29141799 0.15964083 -0.055530671
0.286753 0.21621114 -0.053085729
-0.26079601 0.31305736 -0.056746088
0.0058286041 0.32974601 -0.059348263
-0.20670298 -0.32974601 -0.049658038
-0.16898236 -0.32974601 -0.049672879
-0.056776568 -0.32974601 -0.042274207
-0.048624396 -0.32974601 -0.046386473
0.0080106705 -0.32974601 -0.04227633
0.15810165 -0.32974601 -0.049894303
0.16129036 -0.32974601 -0.046229802
-0.29141799 -0.15918233 -0.047407985
0.286753 -0.039554678 -0.047984436
-0.29141799 0.014546421 -0.044534113
0.286753 0.079115406 -0.04641445
-0.24678226 0.32974601 -0.040411912
-0.22566104 0.32974601 -0.045960516
0.14895701 0.32974601 -0.044289947
-0.16674133 -0.32974601 -0.034890763
-0.14296827 -0.32974601 -0.0369321
-0.058515169 -0.32974601 -0.036608212
0.064875327 -0.32974601 -0.030109368
0.14286375 -0.32974601 -0.032255847
-0.26079601 -0.30925319 -0.033971623
0.28323007 -0.17959526 -0.033560965
-0.29141799 -0.090603247 -0.032706484
0.286753 0.013586632 -0.034771979
0.15679488 0.32974601 -0.035629708
0.016139641 -0.32974601 -0.025949083
0.021690264 -0.32974601 -0.02565214
-0.29141799 -0.15767397 -0.023294678
0.286753 -0.014779507 -0.020460647
0.286753 0.031417027 -0.021637853
0.286753 0.10856909 -0.020109169
-0.29141802 0.1658273 -0.022384387
-0.26079601 0.29010314 -0.028835122
-0.049161877 0.32974601 -0.028982785
0.031460315 0.32974601 -0.025575329
-0.025552215 -0.32974601 -0.011702824
-0.29141799 -0.24150661 -0.010711269
0.25971401 -0.2039081 -0.019304203
0.27083129 -0.18188632 -0.017259751
-0.29141799 -0.074366137 -0.011695482
0.286753 -0.055110622 -0.017691592
-0.29141796 -0.023707949 -0.012574449
-0.29141799 0.0063595567 -0.016113877
0.286753 0.038500715 -0.01156887
0.286753 0.064351246 -0.019677158
0.286753 0.19805284 -0.01493381
0.286753 0.2012672 -0.017843589
-0.26079601 0.25511229 -0.012106054
0.26647401 0.26798415 -0.01586571
-0.23024638 0.32974601 -0.014720283
0.039171346 0.32974601 -0.018017873
0.10295057 0.32974601 -0.011757459
0.026695553 -0.32974601 -0.001871529
0.14485508 -0.32974601 -0.0074503645
0.1912269 -0.32974601 -0.0016511008
-0.27936438 -0.2714307 -0.0089296969
0.286753 -0.090236418 -0.00087176263
0.286753 -0.089341886 -0.0096519943
-0.095964581 0.32974601 -0.0042733774
-0.088486493 0.32974601 -0.0073873252
0.14817482 -0.32974601 0.0091702305
0.25617069 -0.32974601 0.0060813166
0.27616033 -0.18438947 0.00055078359
-0.29141799 -0.16934976 0.0016853195
-0.29141796 -0.14835536 0.006874349
0.286753 -0.035016008 0.001342494
-0.29141799 0.080505744 0.0032280963
0.286753 0.09278968 0.0057898164
0.286753 0.15738197 0.0042768726
0.286753 0.23405083 0.0081195757
-0.26079601 0.2522437 0.0018060692
0.27476445 0.29859486 0.0086090025
-0.066114709 0.32974601 0.0049276669
-0.046068728 0.32974601 0.0016345158
0.042449601 0.32974601 0.0013226718
-0.25175017 -0.32974601 0.016637914
0.18092994 -0.32974601 0.012014389
0.21356463 -0.32974601 0.018808216
0.034445018 0.32974601 0.010399006
0.13646117 0.32974601 0.015102431
-0.24067815 -0.32974601 0.029664487
-0.10677219 -0.32974601 0.021865524
-0.0052095726 -0.32974601 0.024110347
0.24923211 -0.32974601 0.023759209
-0.29141799 -0.19468649 0.028870085
0.286753 -0.12287406 0.021485515
0.286753 -0.0071971538 0.027149284
-0.29141799 0.045501281 0.027541464
0.286753 0.14630896 0.024175677
-0.29141799 0.18144861 0.020998016
0.016483091 0.32974601 0.021376282
0.091279134 0.32974601 0.027330264
-0.24247052 -0.32974601 0.033884004
-0.16503525 -0.32974601 0.03555271
-0.10994534 -0.32974601 0.037252285
0.26647401 -0.30067077 0.034785248
-0.26079601 -0.27449828 0.03618703
0.26647401 -0.25182489 0.037801411
-0.29141799 -0.24264935 0.038775235
-0.29141802 -0.19666657 0.031606071
-0.29141799 -0.14826621 0.030261353
0.286753 -0.13740394 0.036389694
-0.036555938 0.32974601 0.036558084
0.17341384 0.32974601 0.039244924
0.25475717 0.32974601 0.031534694
-0.017471172 -0.32974601 0.041671906
0.039825097 -0.32974601 0.043112911
0.19219343 -0.32974601 0.041757733
-0.26079601 -0.29997921 0.047965009
-0.29141799 -0.10077091 0.047299154
0.286753 -0.073641196 0.047198448
-0.29141799 0.14736958 0.047754683
0.26647401 0.27986473 0.04885425
-0.29088986 0.32974601 0.042811289
-0.22201522 0.32974601 0.045484643
0.056754246 -0.32974601 0.056043975
0.26647401 -0.2989977 0.059427314
-0.28382421 -0.264979 0.058234531
-0.29141799 -0.038246248 0.057682242
0.286753 -0.012432076 0.052868035
-0.29141799 0.1612989 0.053878877
0.286753 0.16895267 0.053021893
0.26716983 0.30817857 0.053248972
-0.29110926 0.32974601 0.057073332
0.23233981 0.32974601 0.053692244
-0.24389705 -0.32974601 0.064017475
-0.22883317 -0.32974601 0.061226428
0.053210434 -0.32974601 0.061218832
0.15145734 -0.32974601 0.064989492
-0.26079601 -0.31803861 0.065756023
-0.27059394 -0.26264524 0.067830443
0.26647401 -0.24145555 0.067127191
-0.29141799 -0.22498152 0.061023332
0.25971401 -0.20324674 0.0639759
-0.29141799 -0.055238016 0.068035632
0.286753 0.21022435 0.060377616
-0.069653273 0.32974601 0.06912034
0.094046548 -0.32974601 0.070172489
0.233134 -0.32974601 0.070781887
0.25220025 -0.32974601 0.078428864
-0.26079601 -0.29250568 0.07665579
-0.29141799 -0.17542192 0.070013143
0.286753 -0.16373661 0.076155752
-0.29141799 -0.10538756 0.071646184
0.286753 -0.078932583 0.077884041
0.286753 -0.052762058 0.07429792
-0.29141799 -0.022466894 0.077435009
-0.29141799 0.18004858 0.07185708
-0.26079601 0.29287449 0.075283639
-0.28669435 0.32974601 0.078986853
-0.20162781 0.32974601 0.076989263
-0.1302866 0.32974601 0.07178238
0.01419846 0.32974601 0.074889705
0.21342543 0.32974601 0.077102162
0.002454944 -0.32974601 0.080741018
0.26647401 -0.31448877 0.086631626
0.286753 -0.041153178 0.080492325
0.286753 0.1055636 0.087728024
-0.29141799 0.13906062 0.084501609
-0.26079601 0.24330688 0.088066548
0.26647401 0.30403712 0.080914475
-0.1328382 0.32974601 0.087762915
0.0076060742 0.32974601 0.085328475
-0.21979877 -0.32974601 0.097538628
-0.010818264 -0.32974601 0.098904833
0.085973501 -0.32974601 0.09117078
-0.29141799 -0.23429576 0.090831533
0.26647401 -0.17790565 0.099187985
0.27580532 -0.15772055 0.097505614
0.286753 -0.11643171 0.097191364
-0.29141799 -0.037643585 0.094652362
0.286753 -0.036671434 0.094061032
-0.29141799 -0.0033239312 0.099757217
0.26647401 0.28579989 0.09363313
-0.22162211 0.32974601 0.097810976
-0.22989057 -0.32974601 0.10323878
-0.26079601 -0.26636958 0.10550201
-0.2641668 -0.24805453 0.10410658
0.26647401 -0.22288498 0.1014815
0.286753 -0.10604329 0.10481163
-0.29141799 0.0085490979 0.10597368
-0.26079601 0.29415876 0.10612957
0.26647401 0.31795174 0.1075409
-0.27622736 0.32974601 0.10028627
-0.04696814 0.32974601 0.10909787
0.003277339 0.32974601 0.10002694
0.21593472 0.32974601 0.10265321
-0.040226109 -0.32974601 0.1192809
-0.0073237307 -0.32974601 0.11266999
0.18610993 -0.32974601 0.11399934
0.23051813 -0.32974601 0.11171105
-0.29141799 -0.10422671 0.11750515
-0.29141799 -0.079326503 0.1151331
0.286753 0.017692322 0.11148942
-0.26079601 0.23862281 0.11271295
-0.26079601 0.29002202 0.11239891
-0.27217567 0.32687002 0.11879608
0.11074471 0.32974601 0.11113788
-0.11101039 -0.32974601 0.12430476
0.11571606 -0.32974601 0.12611318
0.22149099 -0.32974601 0.12374767
0.25249395 -0.32974601 0.12963039
0.26647401 -0.29797482 0.12354155
0.26647401 -0.28583896 0.12082085
0.26647401 -0.23898797 0.12033927
0.286753 -0.012803236 0.1257917
0.286753 0.00093606766 0.12058277
-0.26079601 0.24303561 0.12997386
-0.23971933 0.32974601 0.12080204
-0.21290748 0.32974598 0.12837562
-0.012828842 0.32974601 0.12942886
0.057627708 0.32974601 0.12064382
0.096495673 0.32974601 0.12144667
0.17804426 -0.32974601 0.13091993
0.20919423 -0.32974601 0.13586237
0.26647401 -0.3023293 0.13344786
-0.29141799 -0.18654363 0.1309679
0.26647401 -0.14109528 0.13313448
-0.29141799 -0.13991292 0.13249466
-0.29141799 -0.12931068 0.13837314
-0.29141799 -0.097657338 0.13009043
0.286753 0.09759897 0.13233781
-0.26675916 0.18756303 0.13296847
-0.26079601 0.30516991 0.13250835
0.26647401 0.31050938 0.13579114
-0.025069717 0.32974601 0.13300718
0.24160364 0.32974604 0.13900454
-0.2313208 -0.32974601 0.14556909
-0.20937049 -0.32974601 0.14590859
-0.16778083 -0.32974601 0.14494583
-0.29141799 -0.10397621 0.14659551
-0.29141799 -0.090142608 0.14139588
0.286753 -0.042035811 0.14427343
-0.29141799 -0.002031927 0.1425487
0.27974278 0.17883837 0.14201726
-0.26079601 0.23263496 0.14015269
-0.28370881 0.32399398 0.14833167
0.016039699 0.32974601 0.14410424
0.26647401 -0.21337922 0.15210474
-0.29141799 -0.077791519 0.1574339
0.286753 -0.016615381 0.15116727
-0.27754062 0.32399401 0.15963219
0.19313441 0.32974601 0.15525286
-0.08681871 -0.32974601 0.16695203
-0.036310621 -0.32974601 0.16712868
0.26647401 -0.22377673 0.16170096
-0.29141799 -0.16776206 0.16568178
-0.29141799 -0.051637691 0.16937515
-0.29141799 -0.036818005 0.16824701
-0.29141796 -0.014416449 0.16474961
0.286753 0.14411518 0.1661844
-0.27936789 0.16328102 0.16130987
0.26647401 0.18671155 0.16740853
0.26647401 0.25754637 0.16266911
-0.26587841 0.30606049 0.16424599
-0.28956372 0.32399404 0.1668358
-0.1868668 0.32974601 0.1610007
-0.16090868 0.32974601 0.1678748
0.052470472 0.32974601 0.16455755
-0.15398903 -0.32974601 0.17349011
0.16952515 -0.32974601 0.17518401
0.20445296 -0.32974601 0.1750547
0.23854274 -0.32974601 0.17136823
0.26647401 -0.16942123 0.17122263
0.27303761 -0.07408753 0.176994
0.28181747 -0.069342516 0.17853491
-0.26079601 -0.028198026 0.17364757
-0.26525655 -0.0053047091 0.173099
-0.26079601 0.02974188 0.1780152
-0.28810912 0.038432676 0.173099
0.286753 0.045128956 0.17753167
-0.28307328 0.12115738 0.173099
-0.28239253 0.14600641 0.17265798
0.26647401 0.26911241 0.17386861
-0.26287824 0.32687002 0.1743843
-0.2515977 -0.32974601 0.18268517
-0.20735435 -0.32974601 0.18596762
-0.14904775 -0.32974601 0.18023713
0.081224076 -0.32974601 0.18386433
0.11812513 -0.32974601 0.18402499
0.26647401 -0.2113398 0.18699026
0.26647401 -0.19278185 0.18723008
0.26647401 -0.16761176 0.18563271
-0.26079601 -0.12950401 0.18415955
-0.26079601 0.0021849182 0.18760921
0.27876526 0.097695261 0.18718567
0.26647401 0.13176189 0.18219736
-0.26079601 0.25885966 0.18734759
0.26647401 0.25726631 0.18882969
-0.15192156 0.32974601 0.18697791
-0.16548829 -0.32974601 0.1904691
-0.14054996 -0.32974601 0.19738352
-0.058513224 -0.32974601 0.19217974
0.11913863 -0.32974601 0.19750568
-0.26079601 -0.29164958 0.198796
0.26647401 -0.24424052 0.19708927
-0.26079601 -0.032658793 0.19515926
-0.26079601 -0.014827549 0.19297886
0.27504277 0.078863189 0.19219689
-0.26079601 0.090265304 0.1966307
-0.26079601 0.18101192 0.1964642
-0.26079601 0.24827251 0.19754051
0.26647401 0.2820358 0.19287795
0.04546088 0.32974601 0.19568923
0.17735218 0.32974601 0.19993746
-0.25227547 -0.32974601 0.20528618
-0.21839406 -0.32974601 0.20370637
0.17509487 -0.32974601 0.20609576
0.21478681 -0.32974601 0.20399232
-0.26079601 -0.27044523 0.20811814
0.26647401 -0.12678675 0.20226246
-0.26079601 -0.11595231 0.20450547
0.26647401 0.010433663 0.206724
0.26647401 0.28894988 0.20334031
-0.19471478 0.32974601 0.20551915
-0.2028442 -0.32974601 0.21824145
-0.019061526 -0.32974601 0.21552554
0.22344528 -0.32974601 0.21282233
-0.26079601 -0.28315976 0.21983531
-0.26079601 -0.10393026 0.21112038
0.26647401 0.19785437 0.2116964
-0.26079601 -0.32086936 0.2232419
-0.23739004 -0.32974601 0.22405754
-0.0083904732 -0.32974601 0.22312644
0.19677676 -0.32974601 0.22584945
0.20707418 -0.32974601 0.2266686
0.051464401 -0.29194865 0.228686
0.063594863 -0.29156867 0.228686
0.12707987 -0.28819135 0.228686
0.16886941 -0.27819473 0.22908624
0.13313803 -0.26717597 0.228686
-0.11703457 -0.25729066 0.228686
0.13974003 -0.25728399 0.22948873
0.19875461 -0.25297463 0.228686
0.13833517 -0.24264055 0.228686
0.14309166 -0.2406438 0.22918533
0.14345674 -0.23859477 0.22981635
0.10974317 -0.22295472 0.228686
-0.12809384 -0.20117652 0.228686
-0.12540761 -0.19464773 0.228686
-0.20812607 -0.17415549 0.228686
0.21754225 -0.1725855 0.22868599
0.12990591 -0.16126619 0.228686
-0.15549856 -0.12318237 0.228686
-0.14364529 -0.10555318 0.228686
-0.20197135 -0.099175453 0.228686
-0.12634994 -0.087312125 0.228686
0.13454169 -0.070574209 0.22868602
0.2000691 -0.079610959 0.228686
-0.2020306 -0.05115547 0.228686
0.1557782 -0.053006712 0.228686
-0.12769532 -0.037355047 0.228686
-0.1996076 -0.01736331 0.228686
-0.22414941 -0.0071446989 0.228686
-0.26079601 0.0062130541 0.22056349
-0.26079601 0.019714698 0.22134969
-0.22535431 0.015271556 0.228686
-0.20586805 0.025227658 0.228686
-0.13057598 0.02411681 0.228686
-0.1483593 0.030364275 0.228686
0.1287089 0.038391553 0.228686
-0.26079601 0.047126859 0.22978123
-0.15622568 0.041049995 0.228686
-0.20365392 0.051463701 0.228686
-0.19688648 0.054505359 0.228686
-0.14592294 0.070302919 0.228686
-0.19273977 0.089139812 0.228686
-0.1318901 0.083094381 0.228686
0.26647401 0.10137196 0.22823752
-0.18760699 0.11477093 0.228686
0.15971789 0.11910635 0.22903016
0.14810577 0.12146829 0.228686
-0.15023322 0.14329532 0.228686
-0.14347054 0.16792463 0.228686
0.19609836 0.1814808 0.228686
0.13445497 0.20707667 0.228686
0.19586165 0.21361631 0.228686
-0.26079601 0.24547514 0.22257139
-0.18314247 0.26171783 0.228686
-0.11047211 0.26014763 0.228686
0.17183408 0.26125824 0.228686
0.18372229 0.26351273 0.228686
0.067898966 0.27183813 0.228686
-0.13405333 -0.32208398 0.23477
0.177618 -0.32515475 0.23477
-0.096666336 -0.3121838 0.23477
-0.080229655 -0.31801248 0.23477
0.025299273 -0.31343693 0.23477
-0.046226121 -0.30634665 0.23477
0.0098425969 -0.30900764 0.23477
0.10601722 -0.30393699 0.23477
-0.20979244 -0.29546678 0.23477
-0.1427553 -0.29590976 0.23477
-0.12590085 -0.29469183 0.23367712
-0.063789338 -0.29594699 0.23080796
-0.033555184 -0.29995751 0.23477
0.046909232 -0.29985586 0.23477
0.096786767 -0.29594699 0.23397824
0.26396161 -0.29623839 0.2338926
-0.19615112 -0.28212106 0.23320735
-0.2114979 -0.27189463 0.23477
-0.07345774 -0.25980976 0.23476999
-0.032143656 -0.25955898 0.23477
0.05861323 -0.2520076 0.23477
0.26060647 -0.24573262 0.23477
0.029015481 -0.234851 0.23477
0.15824848 -0.23487619 0.23477
-0.064189792 -0.22249001 0.23477
0.15609741 -0.22247082 0.23477
-0.21772465 -0.21564446 0.23477
0.0056350417 -0.21747231 0.23477
0.035644419 -0.21290739 0.23477
0.060486831 -0.21608728 0.23477
0.18100014 -0.21540351 0.23157929
0.057171632 -0.20405623 0.23477
0.090574771 -0.20772102 0.23477
0.17306045 -0.20193292 0.23477
-0.14929827 -0.19888109 0.23477
-0.26079601 -0.18012862 0.23241267
-0.080956653 -0.18463138 0.23476999
-0.059688732 -0.18740728 0.23477
-0.1113821 -0.17121455 0.2317757
0.2419821 -0.17610389 0.23477
-0.18244191 -0.16727866 0.23198915
0.072175741 -0.16593386 0.23477
-0.22126892 -0.15231687 0.23477
-0.089700975 -0.15908006 0.23477001
0.089017384 -0.15763997 0.23477
0.18240806 -0.15464251 0.23477
-0.17208071 -0.14057223 0.23477
-0.04227569 -0.14699993 0.23477
0.11254609 -0.14424242 0.23477
0.23601489 -0.14308846 0.23477
0.0020509884 -0.13068254 0.23477
-0.071720377 -0.12118886 0.23477
0.048621073 -0.12193783 0.23477
0.23194969 -0.12074138 0.23477
-0.2338955 -0.11876826 0.23477
-0.1580555 -0.11404841 0.23403475
-0.1188885 -0.1172365 0.23305935
-0.060395725 -0.11888976 0.23476999
0.17266239 -0.10523584 0.23477
0.0958151 -0.097568341 0.23477
0.1888032 -0.099146634 0.23477
-0.22922647 -0.086996689 0.23477
0.16481224 -0.089915261 0.23477
-0.16308773 -0.075588152 0.23477
-0.0084778927 -0.07078708 0.23477
-0.18284157 -0.060836609 0.23477
0.10223395 -0.061334409 0.23477
0.1642119 -0.064215243 0.23133931
-0.23402192 -0.053324547 0.23477
-0.17436519 -0.05337397 0.23477
-0.12384256 -0.059065256 0.23185949
-0.10660945 -0.05965054 0.23477
-0.10851963 -0.04951115 0.23477
0.065877303 -0.040611308 0.23477
-0.22642334 -0.032793555 0.23272146
-0.12486392 -0.036848381 0.23083279
-0.085976951 -0.036232635 0.23477
0.088738248 -0.036051545 0.23477
0.18001816 -0.035259567 0.23477
0.23765674 -0.035748828 0.23477
-0.060235254 -0.023784861 0.23477
0.035422515 -0.024249017 0.23477
0.086661242 -0.024794159 0.23477
-0.16803944 -0.0010295957 0.23477
0.048476957 -0.0026279464 0.23477
0.16576272 -0.009217036 0.2302976
-0.023650331 0.0070126299 0.23477
0.025729557 0.0058546662 0.23477
0.11066685 0.0093391333 0.23477
0.046309106 0.01318497 0.23477
0.16582619 0.024537608 0.23477
0.25010034 0.021075092 0.23477
-0.19256404 0.030191883 0.23457712
-0.16279015 0.037381753 0.23128974
-0.0206309 0.030129954 0.23477
-0.25208181 0.044007897 0.23477
0.10806632 0.047495633 0.23477
-0.087312564 0.05671297 0.23477
-0.03012627 0.054865345 0.23477
-0.023953646 0.061398573 0.23477
0.049536832 0.069540389 0.23477
0.064567648 0.063508034 0.23477
0.084744155 0.066605225 0.23477
-0.041726306 0.075742811 0.23477
0.055316985 0.074382976 0.23477
0.11706717 0.085685343 0.23477
-0.18878357 0.10228537 0.23354688
-0.052177176 0.10914728 0.23477
-0.042299151 0.10178338 0.23477
0.06693238 0.10635966 0.23477
0.073992588 0.10826096 0.23477
0.1238772 0.10386792 0.23098692
-0.010288175 0.11863412 0.23477
0.10553128 0.1170681 0.23477
-0.25418279 0.13011611 0.23477
-0.244744 0.15001221 0.23477
-0.016044423 0.15177166 0.23477
0.11519001 0.15184295 0.23477
-0.084822111 0.16107136 0.23477
0.18766177 0.16493118 0.23285942
0.22183809 0.16213185 0.23441185
0.26647401 0.1624634 0.23393199
-0.074541435 0.17297485 0.23477
-0.029913288 0.17947337 0.23477001
0.046234973 0.18485469 0.23477
0.25969303 0.18692201 0.23477
0.17389688 0.1910179 0.23477
-0.14414178 0.20670426 0.23134452
-0.078424722 0.20824143 0.23477
-0.06237299 0.2013831 0.23477
-0.20980425 0.21369523 0.23476999
0.024083165 0.21899025 0.23477
0.22117427 0.21220927 0.23476999
-0.052712675 0.22124474 0.23477
0.26647401 0.22672914 0.23009673
-0.091518849 0.23260549 0.23477
0.017716501 0.23158595 0.23477
0.060864646 0.2318069 0.23477
-0.072436377 0.24308266 0.23477
-0.038023688 0.24113667 0.23477
-0.21067262 0.25467318 0.23477
-0.20178911 0.25942928 0.23477
-0.077231131 0.256396 0.23101646
0.035046123 0.256396 0.23300037
0.076969638 0.25306597 0.23477
0.13470881 0.27451456 0.23234299
-0.25629142 0.28814486 0.23477
-0.19056801 0.28783047 0.23317777
-0.027256731 0.29019499 0.2341709
0.060194671 0.29163146 0.23477
0.19748895 0.29634342 0.23477
0.14053376 0.31198823 0.23477
0.17189093 0.31251881 0.23477
-0.22280419 0.32476991 0.23471606
0.19336894 0.32898015 0.23188356
