# .PCD v0.7 - Point Cloud Data file format
VERSION 0.7
FIELDS x y z
SIZE 4 4 4
TYPE F F F
COUNT 1 1 1
WIDTH 986
HEIGHT 1
VIEWPOINT 0 0 0 1 0 0 0
POINTS 986
DATA ascii
0.21171141 0.27990001 -0.22317
-0.19314435 0.29330528 -0.22317
-0.16159108 0.29238117 -0.22316998
-0.050096769 0.29430568 -0.22317
0.035862066 0.29695597 -0.22317
0.05714073 0.29408965 -0.22316998
0.094025701 0.2976653 -0.22316998
-0.094159402 0.3055889 -0.22317
-0.053979196 0.30942765 -0.22316998
0.14164893 0.31620017 -0.22301681
-0.12324299 0.3218596 -0.22240439
-0.026614375 0.32177311 -0.22245881
0.008750923 0.32650182 -0.22196703
0.069030285 0.32468319 -0.22217381
-0.13746953 -0.34864801 -0.21118054
-0.057684161 -0.34242105 -0.219061
0.07653439 -0.34864801 -0.21067107
0.1696358 -0.34864801 -0.21087693
-0.035901215 -0.33681241 -0.21906102
0.092188232 -0.31051642 -0.219061
0.030611351 -0.30438867 -0.219061
0.088175587 -0.30803466 -0.21906099
0.15607524 -0.30129844 -0.219061
-0.12584646 -0.29858589 -0.219061
0.0043847039 -0.29165107 -0.21906102
-0.018914461 -0.288472 -0.219061
-0.072236881 -0.2673921 -0.219061
0.052924946 -0.2641184 -0.219061
-0.21906 -0.25455821 -0.21901874
-0.074550509 -0.25081939 -0.21906102
0.081177406 -0.25007939 -0.219061
0.19742751 -0.25137743 -0.219061
-0.21906 -0.24695939 -0.2133548
-0.13730402 -0.24994743 -0.219061
0.030787256 -0.24867249 -0.21906102
0.097367108 -0.24557661 -0.219061
0.019911502 -0.23166582 -0.219061
-0.21782614 -0.21647754 -0.219061
-0.19854534 -0.21986707 -0.219061
-0.16152334 -0.21557471 -0.21906102
-0.092848718 -0.21384397 -0.21906099
0.17697243 -0.20054814 -0.219061
-0.21906 -0.19521275 -0.21785603
-0.040066645 -0.18464676 -0.219061
0.10747801 -0.1708889 -0.21906099
0.025207529 -0.1569272 -0.21906102
0.052909378 -0.15087406 -0.219061
0.070376471 -0.14926277 -0.21906099
0.14398751 -0.1423336 -0.21906102
-0.14912874 -0.13248959 -0.21906102
-0.11321257 -0.13728343 -0.219061
-0.20733854 -0.12669799 -0.219061
-0.21906 -0.11630816 -0.21104321
0.024186969 -0.1176261 -0.219061
-0.18843429 -0.10111591 -0.219061
0.017829411 -0.10283384 -0.219061
-0.14057603 -0.092018269 -0.21906099
-0.10833904 -0.092907436 -0.219061
-0.082918853 -0.090997167 -0.219061
0.1321073 -0.098234788 -0.219061
-0.16979104 -0.08617267 -0.219061
-0.1105014 -0.087692223 -0.219061
0.14678131 -0.079207063 -0.21906102
-0.085545212 -0.053972244 -0.219061
-0.068043694 -0.0533292 -0.21906099
0.13545388 -0.052352354 -0.219061
0.17991644 -0.050077721 -0.219061
-0.1072782 -0.048869103 -0.219061
0.051330775 -0.047507986 -0.219061
0.17225772 -0.048302427 -0.21906099
-0.043233186 -0.032656442 -0.219061
-0.14735669 -0.020760082 -0.219061
0.064502485 -0.029375106 -0.21906102
0.027885277 0.0044411533 -0.219061
-0.058682881 0.015498921 -0.21906099
-0.013626948 0.012272805 -0.21906099
0.081126831 0.026554167 -0.21906102
-0.15825456 0.036547773 -0.21906102
-0.12133866 0.031621844 -0.219061
-0.20022267 0.043412484 -0.219061
-0.1307012 0.041949783 -0.219061
-0.085929856 0.048795506 -0.219061
0.21906 0.066174254 -0.21530789
-0.088141359 0.070900366 -0.21906099
0.16169691 0.071893156 -0.21906099
-0.077504084 0.082262449 -0.21906102
0.058349438 0.10564851 -0.21906102
0.16458432 0.1031173 -0.219061
0.20900486 0.10384208 -0.21906099
0.049783319 0.11854911 -0.219061
0.095786251 0.11958357 -0.219061
0.11321194 0.1150456 -0.21906099
0.2136838 0.11552198 -0.219061
0.014726199 0.12012234 -0.219061
-0.21906 0.13281493 -0.21811737
-0.17167075 0.13539356 -0.219061
0.032312423 0.13765584 -0.219061
0.15404865 0.13828492 -0.219061
-0.21906 0.14622389 -0.2166208
0.20043954 0.14447418 -0.219061
-0.20345272 0.15373635 -0.219061
-0.16526014 0.15345815 -0.21906099
0.0076377764 0.15880342 -0.21906099
0.1867926 0.15838955 -0.21906099
0.046265196 0.16304515 -0.21906102
0.14351282 0.16589813 -0.21906102
-0.07558918 0.17686433 -0.219061
0.10502753 0.17256378 -0.219061
0.1438157 0.17273186 -0.21906099
-0.18295413 0.1826046 -0.21906102
-0.039539799 0.19938947 -0.219061
0.029625323 0.19030041 -0.219061
0.196334 0.19338377 -0.219061
-0.1687772 0.20923035 -0.219061
0.023923427 0.21894714 -0.219061
0.069198385 0.21151678 -0.219061
0.11475128 0.21538505 -0.219061
-0.12068866 0.22312503 -0.219061
-0.21906 0.23757848 -0.21833311
-0.078563578 0.2304754 -0.21906102
0.045906655 0.24469954 -0.21906102
0.21609588 0.26296365 -0.21906099
-0.2070664 0.27702001 -0.21105464
-0.035116814 0.27327076 -0.21906102
0.083853468 0.2715255 -0.219061
-0.14391778 0.31460601 -0.21075675
0.11130185 0.31460601 -0.21423644
0.14744976 0.31460601 -0.21809109
-0.22224468 0.32312122 -0.21958801
-0.2106179 0.34831697 -0.21641292
-0.14557861 0.34425581 -0.21870083
0.010995645 0.34396896 -0.21978779
-0.18823719 0.35730729 -0.21518034
-0.16298948 0.35667163 -0.21594179
-0.15019871 0.35623336 -0.21628299
-0.16851245 -0.37488803 -0.20429328
-0.15810473 -0.34864801 -0.2072701
0.12540936 -0.34864801 -0.20447335
-0.21906 -0.021682985 -0.20955172
0.21906 -0.020116597 -0.20649689
-0.21906 -0.0079153478 -0.20453063
0.21906 0.075333767 -0.20145966
-0.085905522 0.27702001 -0.20830858
0.19428937 0.27702001 -0.20700695
-0.19087704 0.31460601 -0.20342293
0.055345617 0.31460601 -0.20330861
0.063181154 0.31460601 -0.2011838
0.14607136 0.31460601 -0.20248495
0.15703797 0.33243978 -0.20485356
-0.1925271 0.37145054 -0.20681582
-0.111466 0.37048018 -0.20456785
0.16605565 -0.35832801 -0.19115356
-0.18504792 -0.34729874 -0.19582419
-0.21906 -0.29729778 -0.19048588
-0.21906 -0.23878808 -0.19848454
0.21906 -0.21363497 -0.19956085
-0.21906 -0.13797899 -0.19452098
0.21906 0.24183597 -0.19410293
0.023637021 0.27702001 -0.19784871
0.092369355 0.27702001 -0.19524063
0.18657957 0.27702001 -0.19340013
0.223171 0.27839071 -0.19259876
-0.056829788 0.31460601 -0.19569257
0.11416116 0.34223756 -0.19820993
0.011817668 0.35971755 -0.19581029
0.06470257 0.35159969 -0.19112965
-0.001027989 0.36136332 -0.19826862
-0.20641835 -0.38780099 -0.18318215
0.16399592 -0.37642074 -0.18525372
-0.15071569 -0.34864801 -0.18024693
-0.11119354 -0.34864801 -0.18876968
0.21906 -0.28654343 -0.18418688
0.21906 -0.22489008 -0.18777356
-0.21906 -0.11402257 -0.18527585
-0.21906 -0.10075286 -0.18727916
-0.18058552 0.27702001 -0.18788669
-0.13885325 0.27702001 -0.18145391
-0.094407819 0.27702001 -0.18435225
-0.071323819 0.27702001 -0.18678196
0.052265521 0.27702001 -0.18016528
0.14763185 0.27702001 -0.18972197
-0.038160969 0.31460601 -0.18934441
-0.2191557 0.35151702 -0.18284969
0.067463368 0.35420293 -0.18901995
-0.10374415 0.37962478 -0.18943587
-0.18013301 -0.34864801 -0.17995986
-0.12270156 -0.34864801 -0.17729887
-0.10692575 -0.34864801 -0.17208923
-0.0057159066 -0.34864801 -0.17875354
0.0062868372 -0.34864801 -0.17612869
0.12962219 -0.34864801 -0.17499191
0.19593784 -0.34864801 -0.1745705
-0.21906002 -0.32450429 -0.1726685
-0.21906 -0.278099 -0.17286843
-0.21906 -0.15216748 -0.17451224
0.024446022 -0.1119471 -0.17061983
0.013677465 -0.09006945 -0.17203745
-0.028190788 -0.056328662 -0.17012687
0.012945268 -0.057834204 -0.17213383
-0.025829516 -0.030702809 -0.17043772
-0.011749307 -0.021830961 -0.17229128
-0.016112532 0.019945964 -0.1717169
-0.0070635378 0.015767828 -0.17290813
0.0094668847 0.069796696 -0.17259175
-0.016055308 0.18134175 -0.17172441
-0.21906 0.19838834 -0.17930542
-0.017501216 0.21127693 -0.17153408
0.01981486 0.21980467 -0.1712295
-0.1501701 0.27702001 -0.17122738
0.069726177 0.27702001 -0.17251953
0.12492153 0.27702001 -0.17889866
-0.21796873 0.31460601 -0.17692646
0.19749629 -0.35339314 -0.16748798
0.12216789 -0.34864801 -0.1651175
0.21905999 -0.27505273 -0.16334152
0.21906 -0.24355525 -0.16486083
-0.034334384 -0.11453091 -0.16931809
-0.030797575 -0.091355965 -0.1697837
-0.21906 -0.028661996 -0.16235407
0.047010139 -0.026474997 -0.1670793
0.055243108 0.01358366 -0.16366896
-0.21906 0.056247808 -0.1618893
0.040714655 0.071004823 -0.16847818
0.029256275 0.09225259 -0.16998659
-0.03183018 0.11678688 -0.16964775
-0.037138395 0.14398418 -0.16894896
-0.03623103 0.16418782 -0.1690684
0.059721388 0.16316941 -0.16181393
-0.047623359 0.18392196 -0.16682526
0.21906 0.20764907 -0.16663428
0.059314981 0.24052201 -0.16198228
-0.030061677 0.27702001 -0.16429764
0.19989017 0.32533628 -0.16883366
0.20891172 0.32206643 -0.16293898
-0.014652451 0.37769949 -0.16025096
-0.14873648 -0.34864801 -0.15999159
0.014157914 -0.34864801 -0.15560877
0.16462469 -0.34864801 -0.15653908
0.21906 -0.31550425 -0.15990172
0.068169594 -0.1241281 -0.15831444
-0.21906 -0.11436105 -0.15250917
0.21906 -0.073879376 -0.15989274
-0.21906 -0.020520737 -0.15681179
0.068047173 -0.025675014 -0.15836516
-0.07614471 0.0011377763 -0.15501107
0.07016094 0.076354846 -0.15748957
-0.21906 0.11440648 -0.15767576
-0.21906 0.14216554 -0.15457322
0.069523335 0.15945667 -0.15775368
-0.21906 0.16463053 -0.15181485
-0.21906 0.1796978 -0.15819891
0.074428596 0.19720137 -0.1557218
0.0047935573 0.27702001 -0.15417719
0.14480993 0.34332964 -0.15238003
-0.18841632 -0.34864801 -0.14917468
-0.21906002 -0.21653508 -0.14139253
-0.21906 -0.1120251 -0.14384773
0.099375792 -0.07306233 -0.14098948
-0.21906 -0.058636203 -0.14031313
0.21906 0.18288249 -0.14275658
0.088026039 0.2294645 -0.14969838
0.21906 0.22966561 -0.14178501
0.089718096 0.24367538 -0.14840004
-0.09265092 0.2596502 -0.14614995
-0.19286115 0.27702001 -0.14871678
-0.16477709 0.27702001 -0.14069144
0.0095778434 0.27702001 -0.14472219
-0.098399788 0.31460601 -0.14229155
0.11050145 0.31460601 -0.14064091
-0.22240493 0.32164809 -0.14586355
0.12283728 0.3496145 -0.14075783
0.11729445 -0.34864804 -0.13379622
0.21906 -0.20002206 -0.13206699
0.016340565 -0.13016801 -0.13158226
0.21906 -0.11599462 -0.13217542
-0.21906 -0.001576297 -0.13147064
0.10566977 0.019916423 -0.13616
-0.10411604 0.08228375 -0.13735239
0.10696479 0.081126407 -0.13516632
-0.10344329 0.12861741 -0.13786861
0.21906 0.15460348 -0.13198948
-0.21906 0.21205011 -0.13458182
0.10464306 0.22947857 -0.13694781
0.082969651 0.27702001 -0.13589875
0.079617463 0.31460601 -0.13111
0.22317098 0.31639344 -0.13379864
0.039983027 0.3688311 -0.13928558
-0.21537454 0.38627255 -0.13333975
-0.2080781 -0.34864801 -0.12820359
0.21906 -0.33205906 -0.12095674
0.21906 -0.2437157 -0.12216002
0.21906 -0.18642324 -0.12221082
-0.21906 -0.16282445 -0.12369235
-0.019345336 -0.13016801 -0.12808843
0.014774229 -0.13016801 -0.12620305
0.029184418 -0.13016801 -0.12187245
0.038689476 -0.13016801 -0.12953597
-0.044062916 -0.127819 -0.12907191
-0.21906 -0.0004458949 -0.12842208
-0.12130541 0.045113429 -0.12416245
0.11775289 0.11724803 -0.12688836
0.21906 0.12981021 -0.12151494
-0.21906 0.13663644 -0.12047722
0.21906 0.25984597 -0.12276681
0.10422198 0.35447133 -0.12015066
-0.026279673 0.37934217 -0.12425192
-0.075746894 0.3843748 -0.12959932
0.21906002 -0.29527038 -0.11546767
0.040254869 -0.127819 -0.11888094
0.072483748 -0.127819 -0.11794849
0.21906 -0.0034598485 -0.11538824
0.13090615 0.017662361 -0.11251724
0.21906 0.10030666 -0.11968681
-0.21906 0.22149888 -0.11598808
-0.12621452 0.23052375 -0.11863127
0.21906 0.24246477 -0.11819632
-0.13172977 0.26868224 -0.11144391
0.14205217 0.27702001 -0.11708354
0.19829111 0.27702001 -0.1115356
0.21199876 0.27702001 -0.11903948
0.077771336 0.30018592 -0.11646781
-0.18047673 0.38772351 -0.11349148
-0.12331327 0.38708308 -0.11532799
-0.14690477 -0.34864801 -0.10001628
0.21400836 -0.34864801 -0.10716517
-0.21906 -0.33438915 -0.10795815
-0.21906 -0.30870807 -0.10684571
0.21906 -0.25328657 -0.10637163
-0.21906 -0.21610513 -0.10256309
-0.015845278 -0.127819 -0.10268752
0.13557005 0.2359398 -0.10643932
-0.13462478 0.25694615 -0.10767119
0.16640513 0.27702001 -0.10109331
-0.223171 0.28774267 -0.10555269
-0.12651353 0.31460601 -0.10762451
0.0041049337 0.37504944 -0.10613186
-0.16764838 -0.34864801 -0.097104609
0.024606295 -0.34864801 -0.09521763
0.12764901 -0.34864801 -0.093872562
0.21319598 -0.34864801 -0.098818347
0.21906 -0.30588442 -0.098828316
0.21906 -0.28585082 -0.092223346
-0.21906 -0.24586214 -0.096521921
-0.10647924 -0.13016801 -0.090485901
0.046273015 -0.13016801 -0.0927843
0.21906 -0.13032392 -0.090312585
-0.14199694 -0.11005707 -0.098063961
0.14308377 0.011523775 -0.096647643
-0.1422191 0.093125358 -0.097774431
-0.14814496 0.14567363 -0.090051986
0.14419033 0.15267703 -0.095205583
-0.14300245 0.16637026 -0.096753597
-0.19425344 0.27702001 -0.094607323
-0.15078594 0.27702001 -0.096859567
-0.10100845 0.29110807 -0.097917601
-0.18801911 0.31460601 -0.095052198
-0.12703815 0.31460601 -0.098544285
-0.21906 -0.27346918 -0.086578891
-0.054942191 -0.13016801 -0.089371443
-0.048227891 -0.13016801 -0.080793321
0.015883965 -0.13016801 -0.086517662
0.035163514 -0.13016801 -0.08683832
-0.21906 -0.075248957 -0.0897725
0.14886406 0.01782091 -0.089114875
-0.21906 0.10384685 -0.087315761
0.21906 0.16670632 -0.089136407
-0.18970388 0.27702001 -0.084568188
0.15448633 0.27695179 -0.086693294
-0.20035766 0.31460601 -0.088040501
0.11686409 0.3513228 -0.082832888
-0.17916536 0.38776615 -0.084641501
-0.21906 -0.34232467 -0.079832338
-0.018126512 -0.34864801 -0.079246834
0.21906 -0.24313562 -0.073049232
-0.0086233597 -0.13016801 -0.073014736
-0.055692837 -0.127819 -0.071508721
0.01029139 -0.127819 -0.070255689
0.098074995 -0.127819 -0.074971348
-0.21906 -0.075785331 -0.07932473
0.15519941 -0.048327811 -0.07569176
-0.21906 0.021319449 -0.07017383
0.15649514 0.068347313 -0.072563514
-0.15717982 0.11586266 -0.070910521
0.21906 0.20435587 -0.071405396
0.15625541 0.21665095 -0.073142268
-0.15653762 0.23733008 -0.072460927
-0.15576483 0.25532013 -0.074326664
0.14948852 0.34199125 -0.077651866
0.086393148 0.35891098 -0.076952137
0.067734256 0.36308494 -0.073977806
-0.20328608 0.3869819 -0.073504239
-0.14289463 -0.34864801 -0.065040253
-0.21906 -0.31485355 -0.065117657
0.21906 -0.30908614 -0.066046067
0.21906 -0.21216717 -0.060641274
0.21906 -0.17814888 -0.06878788
0.21906 -0.14404251 -0.065477438
-0.1271652 -0.13016801 -0.060735434
-0.038905341 -0.13016801 -0.067302428
-0.0032973175 -0.13016801 -0.060189694
0.023532443 -0.13016801 -0.068067402
-0.15942679 0.043367647 -0.065485701
-0.15978914 0.086006865 -0.064610913
0.16138153 0.13159765 -0.060766451
0.15887433 0.16664228 -0.066819504
0.15910278 0.17648692 -0.06626796
0.16012532 0.18165764 -0.063799269
0.21906 0.19593075 -0.067016914
0.17547774 0.27702001 -0.062989108
0.2053898 0.27702001 -0.063213736
-0.12368743 0.2800324 -0.066560403
0.13174023 0.31460601 -0.066151612
0.20844217 0.32223627 -0.062198937
0.048581742 0.36715597 -0.068581834
-0.040781073 0.38098907 -0.069443934
-0.02544637 -0.34864801 -0.055737637
-0.21906 -0.13578264 -0.056041077
-0.052042279 -0.13016801 -0.051299214
-0.016956937 -0.13016801 -0.052719213
0.012168806 -0.13016801 -0.056512952
0.099199757 -0.13016801 -0.058180083
0.21906 -0.11456353 -0.055478863
-0.21906 -0.10433969 -0.05454091
-0.16200906 -0.10066317 -0.059251435
-0.16181588 -0.096806943 -0.059717789
-0.21906 -0.061588235 -0.059957586
0.16501094 0.072774179 -0.052004062
0.13702507 0.27702001 -0.059283175
0.14114788 0.31460601 -0.058739275
-0.013720606 0.37756783 -0.059604108
0.055488881 -0.34864801 -0.040657889
-0.0058238744 -0.13016801 -0.041511096
0.084701709 -0.13016801 -0.046291329
-0.025350384 -0.127819 -0.04886242
0.11090166 -0.127819 -0.047810748
-0.16725042 -0.075851403 -0.046597373
-0.21906 -0.060748681 -0.044674926
0.21906 -0.024429582 -0.047941916
-0.21906 0.049446005 -0.046605181
-0.16809341 0.062852919 -0.043637604
0.16698319 0.091653243 -0.047242526
0.21906 0.16037825 -0.049761802
0.16811721 0.21122566 -0.043456968
0.1827905 0.27702001 -0.049247086
-0.19328749 0.31460601 -0.043712273
0.18254319 0.31460601 -0.040674254
0.066131137 0.3634257 -0.045195896
-0.18600941 -0.34864801 -0.038781121
-0.21906 -0.31325546 -0.034089908
-0.21906 -0.24734686 -0.03704612
-0.16379729 -0.13016801 -0.033201374
0.046767563 -0.13016801 -0.034377959
0.089689866 -0.13016801 -0.037339918
0.14748053 -0.13016801 -0.030768227
0.16918954 -0.040650435 -0.035311211
-0.1691629 0.13120948 -0.03551358
-0.21906 0.15447679 -0.034558918
-0.16857482 0.1843105 -0.039980769
0.16963887 0.19663683 -0.031898126
0.16939539 0.25635684 -0.033747494
0.19509634 0.32707384 -0.033609584
0.1049453 0.3542912 -0.035569943
0.0092279222 0.37426594 -0.033975426
-0.095383875 0.38577589 -0.033134215
-0.19970456 -0.34864801 -0.02737727
0.21906 -0.32818845 -0.022169881
-0.21906 -0.28788778 -0.026394643
0.11282943 -0.13016801 -0.024899606
0.17013437 -0.12557301 -0.028134011
0.1710521 -0.11619401 -0.021162799
-0.011236633 -0.090309538 -0.023076622
0.21906 -0.076719157 -0.029721782
0.17019048 0.0098533444 -0.027707722
-0.21906 0.014441975 -0.024923533
-0.17108296 0.014376603 -0.020928292
0.0073986938 0.053467751 -0.024666231
-0.17006546 0.08353857 -0.028657455
-0.17064832 0.10758071 -0.024229903
0.0063580279 0.12578413 -0.025004024
0.21906 0.1309507 -0.02622753
-0.013566902 0.14007986 -0.021883279
-0.0075257756 0.18114217 -0.024613619
0.15161732 0.27702001 -0.021543749
-0.13745736 0.2965222 -0.026527699
0.15202983 0.31460601 -0.028542565
0.11392787 0.35205439 -0.027254969
0.059664149 0.3648003 -0.023450004
-0.011016237 0.37718576 -0.025779042
0.013668964 0.37348115 -0.023362987
-0.14182383 -0.34864801 -0.017160825
-0.018454723 -0.34864801 -0.011721256
-0.0093163103 -0.34864801 -0.019993186
0.21906 -0.2858648 -0.017550178
-0.21906 -0.24963319 -0.016922608
0.21906 -0.2471399 -0.011210956
-0.21906 -0.23995516 -0.01864741
-0.21906 -0.21421343 -0.019582011
0.039434761 -0.127819 -0.014543593
-0.022713147 -0.087886028 -0.012113396
-0.21906 0.030084647 -0.014205858
0.023579296 0.042228751 -0.010022249
-0.019694226 0.052367419 -0.016419698
-0.023021843 0.066617094 -0.01136831
0.21906 0.083925135 -0.016928501
-0.022854179 0.14920233 -0.011772989
0.01048973 0.185403 -0.018956272
-0.17224309 0.26301643 -0.012115729
0.1774593 0.27702001 -0.019133974
0.13944478 0.30797994 -0.011432728
-0.21961978 0.34725088 -0.01488582
-0.07539352 0.38434958 -0.019545831
0.21906 -0.33699536 -0.0090241805
0.068477578 -0.13016801 -0.004594177
-0.21906 0.0063542575 -0.0063911751
-0.025735185 0.010854617 -0.00080362178
0.025817148 0.062059853 -0.00018067491
-0.21906 0.076784551 -0.0070490278
0.21906 0.094155952 -0.0043298528
-0.02572442 0.11196634 -0.00088543602
0.21906 0.14771931 -0.0085798055
0.025724554 0.17054518 -0.0008839214
0.21906 0.2714546 -0.0093860179
0.061257817 0.36446157 -0.0066526756
-0.16504917 -0.34864801 0.0053343941
-0.15786371 -0.34864801 0.0092061795
0.073183835 -0.34864801 0.00030998886
0.10246873 -0.34864801 0.0082029663
-0.09628354 -0.13016801 0.00034948438
0.15896092 -0.13016801 0.0014979374
-0.17277332 -0.089022532 0.0080873519
0.025595155 -0.019463204 0.0018661241
-0.21906 0.012479946 0.0038563311
0.025613373 0.116359 0.0017277605
-0.21906 0.13108723 0.0020076334
0.21906 0.15891334 0.0017104223
0.21906 0.17688599 0.0051632747
-0.21906 0.20120868 0.0086273253
0.14485854 0.27702001 0.0065143984
-0.1366156 0.38756987 0.0060860664
0.037771501 -0.34864801 0.016393585
0.089320891 -0.34864801 0.01050359
-0.21906 -0.29899684 0.013293572
-0.061463822 -0.13016801 0.017914642
0.046878982 -0.13016801 0.015364936
0.13326086 -0.13016801 0.015275981
-0.022699395 -0.127819 0.01696663
-0.21906 -0.08918485 0.016224604
-0.020438271 -0.086020738 0.015449848
0.17198563 -0.086169362 0.014071078
-0.17162398 -0.051900297 0.016818272
0.21906 0.074245416 0.016014338
-0.21906 0.087105207 0.017014369
-0.21906 0.1030255 0.015745461
-0.21906 0.13122651 0.016790941
0.0226564 0.16685903 0.01225018
-0.014492989 0.185403 0.017811503
0.21906 0.22714373 0.017680027
-0.20182703 0.31460601 0.014993727
0.22202815 0.31460601 0.016668594
0.0050527202 0.37489963 0.018461121
0.20048717 -0.34864801 0.022916296
-0.21906 -0.19684234 0.02513862
-0.074246958 -0.13016801 0.029538998
0.01471254 -0.13016801 0.029260071
0.010914523 -0.127819 0.028516952
0.030528901 -0.127819 0.027273186
0.21906 -0.10942742 0.028094113
0.21906 -0.054890007 0.024073675
0.0024212319 0.011001952 0.025522018
0.01531842 0.033907007 0.020538885
-0.21906 0.081276834 0.025777297
0.0016473337 0.12577239 0.025623847
0.17103988 0.12274925 0.021255247
-0.17118365 0.208682 0.020163227
-0.223171 0.27910575 0.025943056
-0.19084036 0.27702001 0.025606854
0.040825684 0.36868224 0.029793613
0.0071380911 0.37462094 0.020440824
-0.087219022 0.38519335 0.028124759
-0.064901568 0.38354835 0.022318292
-0.21906 -0.31181642 0.036251277
0.21906 -0.20196989 0.030096967
-0.13482727 -0.13016802 0.033222463
0.010580128 -0.13016801 0.03412962
0.12703368 -0.13016801 0.037965443
-0.21906 -0.08591406 0.034513228
-0.16945204 -0.080386594 0.03331716
0.16904865 0.053823344 0.036381349
-0.21906 0.17304499 0.037195437
-0.16920453 0.17950334 0.035197191
-0.1690425 0.19948405 0.036428131
0.16921921 0.20831691 0.035085555
-0.19253439 0.27702001 0.038738418
0.15270278 0.34107095 0.039993934
-0.21846476 -0.34864801 0.048891254
-0.20784083 -0.34864801 0.048430778
-0.010917261 -0.34864801 0.049521152
0.19645506 -0.34864801 0.049522717
0.20299405 -0.34864801 0.048119392
0.21906 -0.22194332 0.04484551
-0.21906 -0.18291317 0.04664021
0.0082345232 -0.13016801 0.049403455
0.11104666 -0.13016801 0.044455677
0.16855057 0.024543641 0.04016494
-0.21906 0.0436785 0.048193097
0.21305734 0.32056385 0.044212893
-0.024182629 0.37904587 0.0403644
-0.10102274 0.38617808 0.046421584
-0.063881762 0.38344014 0.04699859
-0.055192143 -0.34864801 0.059106566
-0.21906 -0.27303523 0.054497436
0.21906 -0.2133716 0.057563446
-0.21906 -0.13236105 0.058242075
-0.14335907 -0.13016801 0.050953411
0.10647282 -0.13016801 0.050749529
-0.21906 0.23888227 0.051040687
0.21906 0.24291311 0.051378563
-0.16492483 0.25820157 0.052211978
-0.21906 0.27433324 0.056162283
0.15650129 0.33984089 0.057944223
-0.10020611 -0.34864801 0.064525947
0.21906 -0.19574124 0.068241909
-0.013365943 -0.13016801 0.061290231
0.092365026 -0.127819 0.06193994
0.10087666 -0.127819 0.066013485
0.21906 -0.036331423 0.067215174
-0.16154863 0.045193031 0.060363039
0.21906 0.06212315 0.067873605
-0.15870568 0.20630388 0.067226656
0.21906 0.25548044 0.06234023
0.16235998 0.33794367 0.061195187
-0.15624282 0.38775587 0.069720827
-0.21906 -0.26609686 0.074894644
-0.21906 -0.22286527 0.071104653
-0.21906 -0.21122408 0.070714079
0.016668804 -0.13016801 0.071374863
0.0355663 -0.13016801 0.074222207
0.071646936 -0.13016801 0.07927952
-0.086551145 -0.127819 0.07567668
0.21906 0.036029391 0.070546798
-0.15538561 0.16727071 0.075242162
-0.1547592 0.20544554 0.07675454
0.15456386 0.22953397 0.077226169
-0.18167406 0.27702001 0.071214885
0.0098928493 0.37414843 0.076656654
-0.21906 -0.32698217 0.083426714
-0.10070732 -0.13016801 0.08106596
-0.024054427 -0.127819 0.089246958
0.00025856867 -0.127819 0.088200711
-0.21906 -0.033944074 0.088901989
0.15194124 0.081728756 0.083557822
-0.21906 0.13175818 0.087658845
-0.21906 0.19167779 0.083524652
0.15149701 0.22196876 0.084630318
-0.18155634 0.27702001 0.085933372
-0.17982864 0.27702001 0.084708177
-0.21018533 0.31460601 0.082371488
-0.057179689 -0.34864801 0.096344963
0.11267008 -0.34864801 0.091894835
0.096661553 -0.13016801 0.092525795
0.043207902 -0.127819 0.09356606
-0.14651498 -0.077010602 0.092176154
-0.21906 -0.017046526 0.095444441
0.21906 -0.0024295226 0.091587052
0.14447805 0.0020139236 0.094830617
0.14705004 0.15481853 0.091478847
-0.14363442 0.18048567 0.09593001
-0.18364589 0.27702001 0.094015464
-0.096557103 0.38585958 0.09845002
-0.056796111 0.38268834 0.090750366
0.21906 -0.26050535 0.10068452
0.21906 -0.1517628 0.10213745
0.011612289 -0.13016801 0.10619324
0.059668705 -0.127819 0.10138018
0.084423237 -0.127819 0.1001959
0.21906 -0.11359232 0.1015697
-0.13390295 0.022912689 0.10861186
-0.13658459 0.082751915 0.10511722
-0.1384477 0.16560471 0.10268924
-0.21906 0.25770584 0.10921764
-0.17016295 0.27702001 0.10417186
0.11982634 0.31460601 0.10834259
0.10514236 0.35424215 0.10979613
0.0064926082 0.37471217 0.10937662
-0.095778428 0.38580403 0.10987792
-0.081850864 -0.34864801 0.11573803
0.12858135 -0.34864801 0.11769
0.21906 -0.31166178 0.1154573
0.21906 -0.19217144 0.11855332
-0.21906 0.029802442 0.11621632
-0.10684377 0.27702001 0.11402066
-0.21531264 0.31460601 0.11150528
-0.12073606 0.31460601 0.11743008
0.1633673 -0.34864801 0.12259713
-0.057447374 -0.13016801 0.1279031
-0.019294921 -0.127819 0.12972626
0.21906 -0.10514741 0.12096308
-0.11389473 -0.071877457 0.12984891
-0.11958503 -0.068806857 0.12548257
0.21906 -0.047105681 0.12193162
-0.21906 -0.035041764 0.12362109
0.21906 0.022067718 0.12741399
-0.12496448 0.11953766 0.12026029
0.21906 0.11218686 0.12304558
-0.12287296 0.1446725 0.12295964
-0.17000194 0.27702001 0.12318209
-0.13071541 0.27702004 0.12583694
-0.11522272 0.27702001 0.1252511
0.13916235 0.27702001 0.12289688
-0.068694934 0.2962395 0.12280341
-0.060295559 0.31460601 0.12987573
0.012946537 0.3736088 0.12136734
-0.19710787 -0.34864801 0.13455884
-0.095712855 -0.34864801 0.13586728
0.11913204 -0.34864801 0.13868757
0.15385282 -0.34864801 0.13471752
-0.21906 -0.31732312 0.13611266
-0.21906 -0.22277451 0.13052863
0.084120221 -0.13016801 0.13218364
-0.1055918 0.085963428 0.13622001
-0.21906 0.094317198 0.13961726
0.10918432 0.13014314 0.1334632
-0.21906 0.14571965 0.13479969
-0.21906002 0.24923263 0.13279772
-0.083270416 0.27702001 0.13984646
0.023767069 0.31195307 0.13782144
0.00069864374 0.37553072 0.13544834
-0.056425504 0.382649 0.13450974
-0.080635205 -0.34864801 0.14150567
-0.060364854 -0.34864801 0.14643043
0.12833813 -0.34864801 0.14201096
-0.21906 -0.32753608 0.14895482
-0.21906 -0.19044842 0.14856966
0.09183082 -0.0026957244 0.1467789
-0.21906 0.19507855 0.14836891
-0.097026378 0.25388995 0.14279252
-0.19657266 0.27701998 0.14049669
-0.083777726 0.27702001 0.1428729
-0.010976864 0.27702001 0.14385527
0.087277547 0.27702001 0.14007385
0.12777901 0.31460601 0.14386052
-0.16960457 0.38778347 0.14940712
-0.15948486 0.38776255 0.140635
-0.046710584 0.3816182 0.14634937
0.13256562 -0.34864801 0.15178226
0.21906 -0.29002345 0.15547734
-0.067592703 0.018953919 0.15855351
-0.07821013 0.073297828 0.15415554
-0.21906 0.15836328 0.15472448
-0.081056207 0.17917684 0.15297663
-0.20038615 0.27702001 0.15549342
-0.1155854 0.27702001 0.1536459
-0.074111596 0.27702001 0.15217717
0.13815288 0.27702001 0.15852411
0.16637161 0.27702001 0.15203443
-0.16177554 0.31460601 0.15203127
0.19339022 0.32769221 0.15196882
-0.037723728 0.38066468 0.15713368
0.19132593 -0.38524318 0.16359305
-0.17971185 -0.36905554 0.16806783
0.19847536 -0.35398054 0.16775653
-0.21093927 -0.34864801 0.1679969
-0.08752732 -0.34864801 0.16911279
0.16856143 -0.34864801 0.16965997
0.19781449 -0.34864801 0.16601956
0.21906 -0.15709114 0.16304749
0.033115618 -0.12128766 0.16947854
0.03942921 -0.018804818 0.16864739
0.057796456 -0.0075290576 0.16261129
0.21906 -0.0068936646 0.16471657
-0.053072013 0.089315563 0.16456832
0.21906 0.20687105 0.16649549
-0.1257709 0.27702001 0.16845039
0.21230149 0.27702001 0.16430143
-0.19282597 0.31460601 0.16988377
0.19811113 0.31460601 0.1692832
0.13848671 0.34513849 0.16016039
0.050318126 0.3667869 0.16806214
-0.20187385 0.38702783 0.16655399
0.20926021 -0.36529946 0.17691651
-0.18272322 -0.34864801 0.17327341
-0.15041465 -0.34864801 0.17857078
-0.090743162 -0.34864801 0.1712873
0.21906 -0.28067881 0.17436582
0.21906 -0.26542431 0.17869368
-0.21906 -0.20048964 0.17390798
-0.21906 -0.19860661 0.17466007
0.017324021 -0.13016801 0.17101583
-0.014095579 -0.11009548 0.17198241
0.016158562 -0.097229205 0.17171082
-0.0058505475 -0.088523276 0.17306782
0.0018279544 -0.073683068 0.17359737
0.21906 -0.041950807 0.17531529
0.013622772 -0.03636831 0.17204463
-0.0036041213 0.0083081126 0.17336354
0.015720749 0.025980607 0.17176847
-0.0011688878 0.043487541 0.17368412
-0.018525651 0.066279672 0.17139922
-0.023228807 0.10549788 0.17078009
-0.0089396276 0.18372907 0.17266116
-0.024816839 0.19933832 0.17057103
-0.02336213 0.21665175 0.17076251
-0.04862304 0.27702001 0.17381397
-0.0036708843 0.27702001 0.17616268
0.058638062 0.27702001 0.1707322
0.067770436 0.27702001 0.17308569
0.040846456 0.31460601 0.17805451
0.11003698 0.31460601 0.17171218
0.13973562 0.34478122 0.17006168
-0.21929049 0.35027787 0.17558442
-0.14402393 0.38773063 0.17767146
-0.2113193 -0.36604396 0.18159303
0.21272895 -0.36256939 0.188658
0.16640645 -0.35665065 0.18465477
-0.19007225 -0.34864801 0.18948738
-0.1866411 -0.34349364 0.18200338
-0.10815287 -0.34864801 0.18900476
0.093575843 -0.34864801 0.18785033
-0.21906 -0.21031643 0.18473163
-0.21906 -0.10125753 0.18190375
-0.21906 0.12039469 0.18190601
0.21906 0.14897126 0.18816105
0.21906 0.23503248 0.1809451
-0.15973701 0.27702001 0.18708909
0.13932933 0.27702001 0.18775186
0.024872817 0.31460601 0.18753728
0.223171 0.31564403 0.18027914
0.14053164 0.33631971 0.18989819
0.16229814 0.33317327 0.18870389
-0.19813499 0.38714939 0.18233135
0.16852735 -0.35736412 0.19987047
-0.044385374 -0.34864801 0.19915581
0.033524513 -0.34864801 0.1990349
0.20308621 -0.34864801 0.19390361
0.21906 0.055937327 0.19429609
0.21906 0.12505704 0.19634305
-0.21906 0.17744525 0.19119135
0.1559366 0.27702001 0.19438171
0.16843805 0.27702001 0.19704314
0.1731818 0.27702001 0.19016376
0.18693762 0.27702001 0.19206473
0.193808 0.27702001 0.19325884
-0.18495955 0.37160987 0.19511017
-0.13978389 0.375451 0.19140397
0.017546842 0.37022039 0.19003467
-0.1581617 -0.34864801 0.20537148
-0.0077791736 -0.34864801 0.20549454
-0.21906 0.076654211 0.20754382
-0.1191151 0.27702001 0.20415206
0.13965963 0.27702001 0.20622678
0.14422369 0.27702001 0.20535475
0.1594557 0.27702001 0.20438512
0.055100158 0.31460601 0.20165664
0.18592317 0.31460601 0.2054528
0.095389485 0.34594142 0.20841007
-0.2190547 0.35244539 0.20998752
-0.089314587 -0.34864801 0.21343863
0.0011540353 -0.34864801 0.21682838
0.21719174 -0.34864801 0.21881928
-0.044799335 -0.33794552 0.21906
-0.030732535 -0.33508787 0.21906
-0.069078244 -0.32581067 0.21906
0.21906 -0.32933512 0.21727645
-0.093791977 -0.31454253 0.21906
0.019822927 -0.31784558 0.21906
0.084765807 -0.30623782 0.21906
-0.16715688 -0.29458717 0.21906
-0.056382045 -0.29878303 0.21906
-0.16970341 -0.28895834 0.21906
-0.15774468 -0.28740475 0.21906
-0.095793724 -0.28102961 0.21906
-0.14313112 -0.27842465 0.21906
-0.077810034 -0.27537081 0.21906
-0.16204447 -0.26464257 0.21906
-0.1385031 -0.26924893 0.21906
0.13475154 -0.26325539 0.21906
-0.15740968 -0.25998715 0.21906
0.072178468 -0.25937325 0.21906
-0.19382437 -0.23885757 0.21906
-0.14781675 -0.23430252 0.21906
0.18205523 -0.2385307 0.21906
0.1891835 -0.22733624 0.21906
-0.065131858 -0.19665961 0.21906
0.011883438 -0.1994054 0.21906
0.14090794 -0.19391334 0.21906
0.091078304 -0.18944532 0.21906
0.12076265 -0.18840939 0.21906
-0.20353526 -0.17162974 0.21906
0.11800423 -0.17020148 0.21906
-0.172878 -0.16720191 0.21906
-0.13827144 -0.16793284 0.21906
0.093714938 -0.16517696 0.21906
0.15524116 -0.16397417 0.21906
0.20719963 -0.15725897 0.21906
0.035783727 -0.13860285 0.21906
0.21878147 -0.13536559 0.21906
0.044657473 -0.12786128 0.21906
0.15653557 -0.12290343 0.21906
-0.21057212 -0.10836259 0.21906
-0.10317953 -0.10419758 0.21906002
-0.037031911 -0.10195219 0.21906
-0.0078991354 -0.1086082 0.21906
-0.13767566 -0.080073036 0.21906
-0.11256979 -0.086510949 0.21906
0.13949032 -0.083188437 0.21906
-0.13366906 -0.077924311 0.21906
0.032530263 -0.07949128 0.21906
-0.05286314 -0.067242324 0.21906
0.006687738 -0.067941338 0.21906
0.035426132 -0.055455953 0.21906
0.2145786 -0.053859308 0.21696758
-0.16604483 -0.040314347 0.21906
0.0093308138 -0.0380041 0.21906
0.018197624 -0.035469931 0.21906
-0.16832808 -0.025334962 0.21906
-0.05894015 -0.023546465 0.21906
0.20234366 -0.020157889 0.21906
0.076818563 -0.017573223 0.21906
0.20277208 -0.018057421 0.21906
-0.16665596 -0.0053542405 0.21906
-0.072187975 0.00049719959 0.21906
0.17824781 0.0032902509 0.21906
0.19250137 0.0078433156 0.21906
-0.15407372 0.011929221 0.21906
-0.14434002 0.022027917 0.21906
0.21906 0.0252534 0.21853961
-0.16977407 0.030497521 0.21906
-0.134574 0.038232818 0.21906
0.041087266 0.034784824 0.21906
0.1417717 0.046954691 0.21906
0.1849945 0.045509405 0.21906
-0.10030142 0.055051319 0.21906
-0.019994078 0.055006135 0.21906
0.17825076 0.05002898 0.21906002
0.19192977 0.052675873 0.21906
-0.027580617 0.066021249 0.21906
0.028242931 0.062353745 0.21906
0.13031177 0.068624683 0.21906
0.20506555 0.067460798 0.21906
-0.13092151 0.088188693 0.21906
-0.012733441 0.084506817 0.21906
0.17601715 0.086606257 0.21906
-0.15747356 0.097128652 0.21906
-0.022933284 0.12448212 0.21906
0.14184481 0.14631656 0.21906
0.10238595 0.15223809 0.21906
-0.20338508 0.16567466 0.21906
-0.014372131 0.16078711 0.21906
0.053337857 0.1801507 0.21906
-0.034711584 0.20277894 0.21906
0.091920242 0.20306081 0.21906
-0.21792622 0.21585125 0.21906
-0.14869404 0.22590885 0.21906
0.19238049 0.22753245 0.21906
0.2119801 0.22762178 0.21906
-0.026985787 0.2574037 0.21906
0.022150414 0.25104791 0.21906
0.093858369 0.25151873 0.21906
-0.13701481 0.26554435 0.21906
-0.10101765 0.26010329 0.21906
-0.1107464 0.27387115 0.21906
-0.065400288 0.27702001 0.21252985
0.03011971 0.27572298 0.21906
0.050069802 0.27219829 0.21906
0.12477294 0.27702001 0.21703969
-0.15204105 0.31460601 0.21709682
-0.015421927 0.31460601 0.21023846
0.0114327 0.31460601 0.21198261
0.02111442 0.31460601 0.21382576
-0.13698682 0.34162828 0.21936804
-0.10901868 0.34299177 0.21941283
-0.19175826 0.35948637 0.21478131
-0.070040315 0.36097786 0.21670234
-0.056723051 0.3643465 0.21625629
-0.0088349953 0.2830323 0.22316998
0.15996072 0.28242522 0.22317
0.22179067 0.28029212 0.22317
-0.223171 0.29215267 0.22107843
-0.041997969 0.29429621 0.22316998
-0.023560742 0.3008101 0.22316998
0.092753939 0.30179563 0.22317
0.13816717 0.30901405 0.22316998
-0.072452076 0.31460601 0.2217028
-0.14987794 0.32575104 0.22186214
-0.087973684 0.33745807 0.22041652
-0.004687231 0.34238362 0.22002003
