# .PCD v0.7 - Point Cloud Data file format
VERSION 0.7
FIELDS x y z
SIZE 4 4 4
TYPE F F F
COUNT 1 1 1
WIDTH 983
HEIGHT 1
VIEWPOINT 0 0 0 1 0 0 0
POINTS 983
DATA ascii
-0.17359366 -0.35614735 -0.25753799
-0.092119358 -0.35463718 -0.25753799
-0.022659026 -0.35742801 -0.25020555
0.041360579 -0.35151851 -0.25753799
0.10822067 -0.35742801 -0.25720778
0.15565987 -0.35742801 -0.25261819
-0.14968179 -0.34607041 -0.25753799
0.060229748 -0.34417459 -0.25753799
-0.16691507 -0.33713037 -0.25753802
0.12122737 -0.33359918 -0.25753799
0.02802249 -0.32238078 -0.25753799
-0.072781421 -0.3139832 -0.25753799
0.17642398 -0.31082794 -0.25753799
-0.2099065 -0.30232796 -0.25753799
-0.10367567 -0.30606556 -0.25753799
-0.050685886 -0.30267113 -0.25753799
-0.14549343 -0.29592896 -0.25753799
0.15279363 -0.29920998 -0.25753799
-0.14994678 -0.28544036 -0.25753799
0.11318416 -0.2867997 -0.25753799
0.21502972 -0.28217626 -0.25753799
-0.14192185 -0.27924463 -0.25753799
-0.056085393 -0.27897704 -0.25753796
0.0040118471 -0.27697161 -0.25753799
0.057116885 -0.27747646 -0.25753799
0.030277923 -0.26247686 -0.25753799
0.16309318 -0.26917741 -0.25753799
0.20732328 -0.2641969 -0.25753799
-0.058123067 -0.250911 -0.25753799
0.016781135 -0.25065157 -0.25753799
0.21619916 -0.25879499 -0.25191042
-0.038079977 -0.24234526 -0.25753799
0.075171404 -0.24185801 -0.25753799
0.12329869 -0.24779296 -0.25753799
-0.22064176 -0.23852237 -0.25753799
-0.052334584 -0.2397441 -0.25753799
-0.1535438 -0.22625226 -0.25753799
0.14404541 -0.22430506 -0.25753799
-0.14684626 -0.213127 -0.25753799
0.22696 -0.21225619 -0.25602853
-0.23522142 -0.20613906 -0.25753799
-0.21566397 -0.20567113 -0.25753799
0.011299767 -0.20518863 -0.25753799
0.039414912 -0.19961743 -0.25753799
0.20071059 -0.19762796 -0.25753799
0.12952687 -0.18681806 -0.25753799
-0.10845058 -0.17499419 -0.25753799
0.012274988 -0.17500302 -0.25753799
0.20947042 -0.17899911 -0.25753799
0.22696 -0.17208451 -0.25038955
-0.10104229 -0.16704407 -0.25753799
-0.036266893 -0.16118333 -0.25753799
0.084494814 -0.16842738 -0.25753799
0.15473314 -0.1696277 -0.25753799
-0.03103517 -0.15211523 -0.25753799
0.19061898 -0.15528868 -0.25753799
0.18868795 -0.14150271 -0.25753799
-0.23106089 -0.13033716 -0.25753799
0.15312476 -0.13690528 -0.25753799
-0.054911099 -0.12975223 -0.25753799
-0.21736535 -0.11701511 -0.25753799
-0.16374074 -0.11805172 -0.25753799
-0.0051036216 -0.11351983 -0.25753799
0.19438618 -0.1124127 -0.25753799
0.016959548 -0.10821312 -0.25753799
-0.12635659 -0.093416072 -0.25753799
0.11069466 -0.099576883 -0.25753799
0.15942845 -0.093913972 -0.25753799
0.19515266 -0.09901914 -0.25753799
-0.2054078 -0.067715883 -0.25753799
-0.12747538 -0.053789519 -0.25753799
-0.037728101 -0.05093028 -0.25753799
-0.15686278 -0.046547174 -0.25753799
-0.1241632 -0.040305644 -0.25753799
0.18904687 -0.043766707 -0.25753799
-0.098378226 -0.032400265 -0.25753799
0.010264568 -0.038712621 -0.25753799
-0.009821862 -0.021972418 -0.25753799
0.0038157627 -0.02324298 -0.25753799
0.13458747 -0.029653698 -0.25753799
-0.083866388 0.0012040362 -0.25753799
-0.033455387 0.0071660578 -0.25753799
0.01592502 0.0090288427 -0.25753799
-0.12308712 0.010249108 -0.25753799
-0.083289608 0.013986006 -0.25753799
0.075354695 0.011825763 -0.25753799
0.0049458742 0.02777186 -0.25753799
-0.22717451 0.035740882 -0.25753799
0.0094729513 0.039253399 -0.25753799
0.059746884 0.032437161 -0.25753799
-0.19437361 0.061509863 -0.25753799
0.15864955 0.060529076 -0.25753799
0.20463437 0.064776942 -0.25753799
-0.056962218 0.071299583 -0.25753799
-0.22458331 0.087352931 -0.25753799
-0.17015892 0.084590256 -0.25753799
-0.0073400289 0.0846624 -0.25753799
0.050753579 0.084316105 -0.25753799
0.072411932 0.081182249 -0.25753799
0.22696 0.080176838 -0.25571477
-0.073794477 0.094732851 -0.25753799
0.16610056 0.097862795 -0.25753799
0.22696 0.09639027 -0.25165579
-0.19636497 0.10422387 -0.25753799
-0.10143244 0.12664177 -0.25753799
-0.19634262 0.14994097 -0.25753799
0.023538448 0.14410257 -0.25753799
-0.074598603 0.1587864 -0.25753799
0.15621275 0.15771449 -0.25753799
-0.062138774 0.16764294 -0.25753799
0.11449124 0.16724807 -0.25753799
0.018899374 0.17409399 -0.25753799
0.12055092 0.17732446 -0.25753799
-0.094384462 0.1896515 -0.25753799
-0.0058395043 0.18338233 -0.25753799
0.061330818 0.18546134 -0.25753799
0.083314486 0.19855548 -0.25753799
-0.18840371 0.20628157 -0.25753799
0.049957648 0.20395856 -0.25753799
-0.028729346 0.21244046 -0.25753799
-0.1819011 0.22836447 -0.25753799
0.13113543 0.23685949 -0.25753802
-0.12594664 0.24011265 -0.25753799
-0.10109037 0.24397305 -0.25753799
-0.020687215 0.24877961 -0.25753799
0.044332754 0.24254707 -0.25753799
0.16316062 0.2755869 -0.25753799
0.17712256 0.27587125 -0.25753799
0.20246308 0.27601075 -0.25753799
-0.1830048 0.28833804 -0.25753799
0.01949773 0.28340945 -0.25753799
0.15495957 0.28363308 -0.25753799
-0.16124712 0.29116315 -0.25753799
-0.11010136 0.29619411 -0.25753799
0.049372211 0.30830467 -0.25753796
-0.060141094 0.323836 -0.25753799
-0.07135389 0.33621362 -0.25753799
0.043952331 0.34080654 -0.25753799
0.17071508 0.3490454 -0.25753799
-0.14353558 0.35742801 -0.25138351
-0.011979267 0.35468733 -0.25449499
0.22696 0.35261649 -0.25134206
0.021426918 -0.35742801 -0.2454659
0.20801146 -0.35702646 -0.24163881
-0.23647299 -0.18068832 -0.24339962
-0.23647299 -0.082890287 -0.24755919
0.22696 0.081173971 -0.24419796
0.22696 0.106707 -0.24735245
0.22696 0.2396256 -0.2478371
0.22696 0.24752176 -0.24950258
-0.22191375 0.35742801 -0.24186006
-0.053088345 0.35742801 -0.24616849
-0.21774314 -0.35742801 -0.23774315
0.22439092 -0.27211335 -0.23025267
0.22696 -0.2150591 -0.23572184
-0.23647299 -0.15517604 -0.2392863
0.22696 -0.069844514 -0.23689131
0.030942192 0.056124222 -0.23139976
-0.23647299 0.13649383 -0.23042357
0.22696 0.24290583 -0.23262095
0.22696 0.29324943 -0.23151328
0.086829841 -0.35742801 -0.22123171
0.22031513 -0.29324287 -0.224969
0.20793401 -0.27608836 -0.22696719
-0.23647299 -0.23198712 -0.22786969
0.22696 -0.17682035 -0.22071017
-0.23647299 -0.15337206 -0.22909066
0.22696 -0.10049061 -0.22370958
0.10542899 0.0080041494 -0.22200985
0.10352868 0.019245725 -0.224388
0.21409313 0.042377058 -0.22415379
0.1033248 0.090495907 -0.22629318
0.22696 0.19608873 -0.22442308
0.22696 0.20885777 -0.22962657
-0.23647299 0.33135867 -0.22225881
0.22696 0.3334876 -0.22536688
-0.16854507 0.35742801 -0.22901028
-0.10356797 0.35742801 -0.22293931
-0.053768672 0.35742801 -0.22114465
0.051989138 0.35742801 -0.22784078
0.1102965 0.35742801 -0.22068679
0.22696 0.35397837 -0.22650312
-0.003059119 -0.35742801 -0.21607932
0.0016191974 -0.35742801 -0.21098283
0.16178641 -0.35742801 -0.21170616
-0.23647299 -0.2842989 -0.21807048
-0.23647301 -0.17723668 -0.21855387
0.097190507 -0.0012891851 -0.21840329
0.20571521 -0.0013999585 -0.2151368
0.21809198 -0.0080912989 -0.2119967
0.15948819 0.12925309 -0.21497816
0.0052199443 0.13335139 -0.21785797
0.088595837 0.13782524 -0.21352986
0.065209195 0.35742801 -0.21671516
-0.23647299 -0.34155542 -0.20970547
0.22696 -0.20825136 -0.20330311
0.22696 -0.18287596 -0.20825921
0.22696 -0.15257098 -0.20698279
0.22696 -0.079240575 -0.2059817
0.22696 -0.054874152 -0.20103773
0.063365176 -0.025669232 -0.20930427
0.21256278 -0.019546293 -0.20741397
0.14351673 0.14253804 -0.20994711
-0.0065811039 0.15589727 -0.20293024
0.14110014 0.15694694 -0.2040481
0.10434436 0.16022047 -0.20378235
-0.23647299 0.19178098 -0.20862672
0.22696 0.21272534 -0.20828581
-0.23647299 0.26455981 -0.20845136
0.229678 0.34582093 -0.20223233
0.13959603 0.35742801 -0.20668131
-0.11021326 -0.35742801 -0.19617561
0.20793401 -0.28454435 -0.19893739
0.21082655 -0.25879499 -0.19386837
0.0077652829 -0.045987744 -0.19923182
0.11745355 -0.043705113 -0.19772884
0.1914387 -0.040745966 -0.1978049
-0.23647299 -0.033484817 -0.19771783
-0.23647299 -0.0051418543 -0.19521068
0.22696 0.055606581 -0.19491102
-0.23647299 0.07576412 -0.19959497
0.15452245 0.16597772 -0.19807807
0.22773713 0.29444349 -0.19968407
-0.10897955 0.35742798 -0.19341573
0.12661666 0.35742801 -0.19405411
0.15591522 0.35742801 -0.1922666
0.16277595 0.35742801 -0.19245738
0.092997596 -0.35742801 -0.1884463
0.16849779 -0.35742801 -0.18206784
0.21307462 -0.33077845 -0.18497528
-0.23647299 -0.25612867 -0.18505877
-0.23647299 -0.20980671 -0.18608843
0.22696 -0.16635182 -0.18802358
-0.23647299 -0.13311748 -0.18329716
0.23477606 -0.085541211 -0.18148795
0.080771737 -0.062779889 -0.18417472
-0.0071855355 0.017133269 -0.18256056
-0.23647299 0.086452454 -0.18657404
0.23647299 0.12733522 -0.1873592
-0.23647299 0.15189344 -0.18513387
0.22696 0.27406612 -0.18073787
-0.12445603 0.35742801 -0.18219174
0.11200827 0.35742801 -0.18433362
0.17589922 0.35742801 -0.18937586
-0.21453008 -0.35742801 -0.17746079
-0.17602116 -0.35742801 -0.17106867
-0.1241051 -0.35742801 -0.17466617
-0.037982214 -0.35742801 -0.1773468
0.17002028 -0.35742801 -0.17969142
0.21583825 -0.31645149 -0.17414266
0.22061926 -0.29166624 -0.17067578
0.22240913 -0.28238726 -0.17509289
0.21627697 -0.25879499 -0.1755141
-0.23647299 0.12283341 -0.17510349
0.13566746 0.19786383 -0.17415936
0.22696 0.20543428 -0.17071077
-0.23647299 0.29903102 -0.17481223
-0.23647299 0.32547677 -0.17675078
0.21534489 0.35742801 -0.17040385
0.03801753 -0.35742801 -0.16390698
0.21663724 -0.31230944 -0.16805752
0.22696 -0.22940108 -0.16200589
0.22696002 -0.10163851 -0.16780312
-0.23647299 -0.050568104 -0.16185842
0.23647299 -0.045654245 -0.16594166
-0.23647299 0.1377342 -0.16030768
0.13373931 0.19670483 -0.16357107
0.021836746 0.20956548 -0.16187829
0.047469489 0.20784897 -0.1652274
0.10300226 0.20635745 -0.1671502
0.15966718 0.20447594 -0.16997242
0.19947943 0.20302415 -0.1675882
0.22696 0.20821559 -0.1699114
-0.23647299 0.34431654 -0.16108152
-0.067020252 0.35742801 -0.16047275
-0.030976236 0.35742801 -0.16950244
0.026545249 0.35742801 -0.16606532
0.22302173 0.35742801 -0.16294083
-0.12853491 -0.35742801 -0.1591429
-0.055382416 -0.35742801 -0.15539411
0.19615099 -0.35742801 -0.15585867
-0.23647299 -0.27652818 -0.15684496
0.2231154 -0.2787258 -0.15391368
-0.23647299 -0.22416897 -0.15114389
0.22696 -0.22348294 -0.15726121
-0.00018036575 -0.095224813 -0.15218315
-0.0052665458 -0.089640647 -0.15961504
-0.23647299 -0.048113078 -0.15714808
-0.23647299 0.084602088 -0.15821198
-0.23647299 0.13373396 -0.15109226
0.047276899 0.18886447 -0.15221041
0.15167439 0.19315094 -0.15837452
0.048343621 0.21294776 -0.15299582
0.066340446 0.21164909 -0.15557012
0.082431518 0.21728125 -0.15247408
0.17182346 0.21104717 -0.15794885
0.22696 0.22605686 -0.15212525
-0.16195279 0.35742801 -0.15850973
0.01682464 0.35742801 -0.15391202
0.032011278 0.35742801 -0.15604688
-0.15830784 -0.35742801 -0.14953907
0.12089254 -0.35742801 -0.1415112
0.21659666 -0.31251985 -0.14686584
0.20793401 -0.27287391 -0.14365768
-0.23647299 -0.24378295 -0.14264706
0.024741704 -0.10109945 -0.14378391
0.070876263 -0.10037331 -0.1433616
0.23647299 -0.044614378 -0.14259453
-0.23647299 -0.011647306 -0.14316002
-0.0084079327 0.029178562 -0.14136592
0.20929199 0.059428304 -0.1416845
0.21928677 0.05985678 -0.14739083
-0.0084287496 0.080150276 -0.14066243
0.06734661 0.19586821 -0.1475379
0.15367295 0.20348871 -0.14399685
0.17181765 0.20857579 -0.14280482
0.12856892 0.21520738 -0.14520624
0.20305432 0.2160324 -0.14091983
0.015250614 0.22254375 -0.14760664
0.020776674 0.22429723 -0.14515638
0.03300155 0.22774588 -0.14029697
-0.14985885 0.35742801 -0.14216432
-0.017668534 0.35742801 -0.1478814
0.068899192 -0.35742801 -0.13083833
0.20793402 -0.32784602 -0.1379524
0.22696 -0.23950379 -0.13951159
-0.23647299 -0.19369362 -0.13408659
0.17797714 -0.10293332 -0.13684538
0.18453845 -0.10490727 -0.13407695
-0.23647299 -0.057923734 -0.13234273
0.21472795 -0.032579295 -0.13513373
0.22348207 -0.029432092 -0.13646595
-0.23647299 0.12409817 -0.13728766
-0.23647299 0.15080458 -0.13396858
-0.23647299 0.35383028 -0.13019904
-0.069905438 0.35742801 -0.13388921
-0.035456613 0.35742801 -0.13363737
-0.00093910098 -0.35742801 -0.12987819
0.12192088 -0.35742801 -0.12822996
0.20793401 -0.29034871 -0.12576616
0.22696 -0.19151643 -0.12695116
-0.23647299 -0.15349236 -0.12180769
0.0066117081 -0.11063951 -0.12995648
-0.0088171205 -0.083597064 -0.12758361
-0.23647299 -0.078131542 -0.12130306
0.23647299 -0.034763884 -0.12958921
-0.0088765053 0.068473458 -0.12556787
-0.0088289045 0.15401694 -0.12718233
-0.23647299 0.1782597 -0.12695178
0.22696 0.33222634 -0.12342888
-0.18890575 0.35742801 -0.12238735
-0.15884398 0.35742801 -0.12444653
-0.069118455 0.35742801 -0.12469602
-0.016644448 0.35742801 -0.12144376
0.075104505 0.35742801 -0.12021916
0.20916611 0.35742801 -0.12144509
-0.23149888 -0.35742801 -0.11603523
-0.12328981 -0.35742798 -0.1111993
-0.013720982 -0.35742801 -0.11156681
0.17955613 -0.35742801 -0.11911149
0.22695999 -0.2411252 -0.11120637
0.22696 -0.18581042 -0.11567201
0.02145762 -0.11782987 -0.11214957
0.060562141 -0.11518374 -0.11738013
0.092271522 -0.1158105 -0.1149253
0.20318651 -0.11576948 -0.11173256
0.21982321 0.0068501863 -0.11183883
0.21520549 0.015290383 -0.11059709
-0.23647299 0.10381803 -0.11791942
-0.0091141574 0.15505841 -0.11758634
0.22696 0.17484817 -0.1192387
0.1648009 0.24002962 -0.11263078
0.22696 0.2828435 -0.11373937
-0.23647299 0.33809984 -0.11876144
0.20793402 -0.33954328 -0.10712944
0.2120755 -0.33595791 -0.1045603
0.20793401 -0.31194201 -0.10119222
0.21320005 -0.25879499 -0.10265199
-0.23647299 -0.19398563 -0.10838116
0.0093538668 -0.12142363 -0.10382882
0.14681359 -0.10148104 -0.10814308
0.069729358 -0.095244944 -0.10190668
0.16129844 -0.096722677 -0.10120887
0.18190221 -0.097335301 -0.10143477
0.23647299 -0.080465026 -0.10802341
0.23647299 -0.0083161611 -0.10670426
0.22696 0.20099308 -0.10464976
0.12960078 0.24525943 -0.10104456
0.13982108 0.24551058 -0.10013469
-0.057154372 0.35742801 -0.10841247
-0.037670586 0.35742801 -0.10632055
-0.060753524 -0.35742801 -0.097558528
0.13583362 -0.35742801 -0.096745238
0.20986858 -0.34739888 -0.095787041
-0.23647299 -0.24507208 -0.095436253
0.10205694 -0.12439227 -0.093574569
0.1522692 -0.12520455 -0.090455353
0.1751176 -0.12461986 -0.091189414
-0.0097328527 -0.10518224 -0.096717969
0.08448641 -0.094982222 -0.098571971
0.13311774 -0.09533906 -0.096583828
-0.0098049697 -0.035349734 -0.094301157
-0.23647299 -0.025519978 -0.094724551
0.23647299 -0.021888401 -0.093669631
0.23647299 0.034822594 -0.092607573
-0.0097624185 0.082709774 -0.095735133
0.20832163 0.24686661 -0.094826639
-0.16420662 0.35742801 -0.098058879
-0.078896806 0.35742801 -0.097493812
-0.23647299 -0.35561481 -0.089205176
-0.15709442 -0.35742801 -0.089128576
0.22029042 -0.29337087 -0.089098215
0.18059474 -0.12771845 -0.083542913
-0.010129251 0.002261986 -0.083359987
0.22696 0.33883762 -0.085315369
-0.029710364 0.35742801 -0.084371023
0.18263526 0.35742801 -0.088177547
-0.20510526 -0.35742801 -0.078040794
0.089041591 -0.35742801 -0.074459456
0.16333959 -0.35742801 -0.072318003
-0.23647299 -0.29749697 -0.078093
-0.23647299 -0.2445931 -0.072410241
0.22696 -0.1950303 -0.076841541
0.23647299 -0.08586099 -0.073428258
0.23647299 0.028694717 -0.070381261
0.23647299 0.16557021 -0.077116698
0.052745286 0.2536228 -0.078814134
0.14466721 0.25422052 -0.071543448
-0.13291074 0.35742801 -0.076343
-0.23647299 -0.31229562 -0.06220293
0.22696002 -0.2501879 -0.065579645
0.22696 -0.19490498 -0.06489303
0.22696 -0.16417578 -0.062082395
0.0060322965 -0.1314052 -0.065431185
0.088555552 -0.13109612 -0.065331027
0.17392118 -0.13090797 -0.064227365
-0.010660537 0.043206189 -0.065475665
-0.010677347 0.080771379 -0.064913377
-0.010798052 0.1428044 -0.060855091
0.229678 0.31419939 -0.06567587
0.229678 0.3210485 -0.066013537
-0.17085463 0.35742801 -0.061013222
-0.067697912 0.35742801 -0.064097062
0.028856579 0.35742801 -0.064780153
0.22696 0.35333675 -0.066494934
-0.14827253 -0.35742801 -0.051387392
0.048447009 -0.35742801 -0.051806532
0.11659288 -0.35742801 -0.051133011
0.20793402 -0.30491352 -0.054250516
-0.23647299 -0.26185378 -0.059925787
0.20793401 -0.26335141 -0.059144467
0.22696 -0.22451811 -0.056053147
0.22696 -0.14314945 -0.053827271
0.22732297 -0.13420121 -0.056617692
-0.011051944 -0.12142711 -0.052267972
-0.23647299 -0.089671016 -0.058613725
0.23647299 0.16496386 -0.051185306
-0.010922018 0.18211776 -0.056650773
0.229678 0.287045 -0.055888202
-0.20055766 0.35742801 -0.050570801
0.06808801 -0.35742801 -0.042005878
0.099325538 -0.35742801 -0.045650203
0.11184825 -0.35742801 -0.043690249
0.13408139 -0.35742801 -0.041867249
0.15702906 -0.13348345 -0.045155797
0.23647299 -0.11112902 -0.042610127
0.23647299 -0.016775908 -0.046999544
0.229678 0.28994852 -0.040460669
0.229678 0.31023911 -0.049847633
0.22696 0.33272907 -0.048874158
0.22696 0.34284171 -0.044317719
-0.16315711 -0.35742801 -0.035722971
-0.046382908 -0.35742801 -0.039575387
0.22696 -0.25401384 -0.038817592
0.11066956 -0.13534904 -0.032353777
-0.011496227 0.11828752 -0.037310831
-0.011434582 0.12287604 -0.039387256
0.23647299 0.16408131 -0.038992707
0.23647299 0.18656865 -0.035003606
0.22696 0.24773879 -0.036709614
-0.23463653 0.35742801 -0.03522969
-0.06601651 -0.35742801 -0.029641025
0.19965723 -0.35742801 -0.020201594
0.20793401 -0.35501176 -0.029351912
0.22696 -0.22962777 -0.027093418
-0.23647299 -0.16614629 -0.023408972
0.22696 -0.16424833 -0.023788683
0.13058832 -0.1345346 -0.025451949
-0.011732101 -0.011413084 -0.029361617
0.23647299 0.0036382766 -0.023530222
0.23647299 0.10766663 -0.023562891
-0.011733695 0.12546346 -0.029316887
-0.011951682 0.16674046 -0.021977646
-0.23647299 0.18314607 -0.026961524
-0.23647299 0.22103839 -0.023506057
-0.23647299 0.23313543 -0.023616619
0.22696 0.23113117 -0.024492562
0.11226039 0.2583549 -0.023406766
-0.022607703 0.35742801 -0.028277308
0.039516434 0.35742801 -0.028327676
0.17671642 0.35742801 -0.027429644
-0.19676773 -0.35742801 -0.011742488
-0.18899909 -0.35742801 -0.010280997
-0.15967929 -0.35742801 -0.012148894
0.084347099 -0.35742801 -0.018511705
-0.23647299 -0.26515967 -0.011141844
0.22696 -0.17893118 -0.019395776
0.18584217 -0.13302949 -0.012373805
0.23647299 -0.13540015 -0.013361524
0.23647299 -0.056297198 -0.014989316
-0.012108885 -0.040882856 -0.016676532
0.23647299 0.124878 -0.016802497
-0.01221036 0.18626115 -0.01326138
-0.012213242 0.2057455 -0.01316053
-0.23647299 0.2246263 -0.016896594
-0.11382976 -0.35742801 -0.0058245827
-0.06633687 -0.35742801 -0.0096269846
0.14062172 -0.35742801 -0.003980346
-0.23647299 -0.27722889 -0.0064559951
0.026871379 -0.1320774 -0.0098563964
0.09835846 -0.13161151 -0.0041942419
0.18281892 -0.13185349 -0.0035262778
-0.012400647 -0.070609465 -0.0068373824
-0.012529232 0.073910512 -0.0025179298
0.23105188 0.18899465 -0.004853324
-0.012586626 0.20070478 -0.00057999417
-0.012578042 0.21324545 -0.00086685363
0.0080968244 0.25508898 -0.0016785343
0.22696 0.33632752 -0.0054487754
0.042236008 0.35742801 -0.0026020184
0.13424227 0.35742801 -0.001921054
-0.15929472 -0.35742801 0.0081689879
0.20793401 -0.27910417 0.0015393943
0.22506034 -0.26864311 0.0050520822
0.2174899 -0.25879499 0.0030206218
0.23647299 0.14648987 0.0025754408
-0.012686928 0.17014636 0.0027961791
-0.012812804 0.19801554 0.0070426762
0.229678 0.28865367 0.0056860754
-0.0050940476 0.35742801 0.0085215755
-0.019489221 -0.35742801 0.014708771
0.20793401 -0.31031761 0.016440671
-0.23647299 -0.2835342 0.012242153
0.22696 -0.25052416 0.018013887
-0.23647299 0.057436261 0.015662912
0.22696 0.20703904 0.010969779
0.066473536 0.2534467 0.012535028
0.15858746 0.2531147 0.017792048
-0.23647299 0.27065855 0.011869639
-0.15323408 -0.35742801 0.024091981
-0.019312305 -0.35742801 0.021127742
0.18084508 -0.35742801 0.028609879
0.22005072 -0.29461354 0.021218427
-0.23647299 -0.090385526 0.020769022
-0.013319837 -0.092135787 0.024132866
0.23647299 -0.030801296 0.029456688
-0.23647299 -0.015648365 0.024196915
-0.013427008 0.071505278 0.02773702
-0.23647299 0.080234386 0.020655792
0.22696 0.18911262 0.02266656
-0.23647299 0.24206652 0.025383554
-0.23647299 0.3277536 0.026041135
0.035774186 0.35742801 0.023717672
0.16865508 0.35742801 0.020241784
-0.00044699758 -0.35742801 0.039587051
0.20793401 -0.34095857 0.037763506
0.22104634 -0.25879499 0.039257415
-0.23647299 -0.20072158 0.038888253
0.22696 -0.17340577 0.031463273
0.22696 -0.15956771 0.039757155
0.17798366 -0.12428684 0.03131777
-0.013688544 -0.0022191629 0.036558505
0.23647299 -0.0013688009 0.031635247
-0.23647299 0.11216142 0.033203796
-0.013506091 0.17727467 0.030400198
-0.013596386 0.19793648 0.033445656
-0.23647299 0.30933768 0.034365959
-0.23647299 0.31428862 0.032785229
-0.22148833 0.35742801 0.035389088
-0.016194008 0.35742801 0.0318918
0.12184781 0.35742801 0.030982181
0.20793401 -0.34825352 0.049579531
-0.23647299 -0.31243527 0.046935137
0.22696 -0.22222832 0.041832142
0.22696 -0.15069911 0.046811901
0.060900997 -0.11789288 0.043286018
0.23647299 -0.013171108 0.048323147
0.23647299 0.038947579 0.041284233
-0.23647299 0.16389693 0.047029991
-0.23647299 0.23394616 0.044825222
-0.01368881 0.35742801 0.046520516
-0.20883301 -0.35742801 0.050236419
-0.096560493 -0.35742801 0.051344067
0.20793401 -0.35289472 0.055186436
0.20793401 -0.29612991 0.055548169
-0.23647299 -0.28458619 0.051480748
0.22696 -0.24122661 0.054920204
0.15702148 -0.11526639 0.052482523
-0.014201134 -0.1080724 0.053817734
-0.23647299 -0.087467112 0.052912705
-0.014119113 -0.078711115 0.051063415
0.23647299 -0.065721571 0.057155773
-0.23647299 0.057547055 0.052724328
-0.23647299 0.10851576 0.059767127
-0.014114461 0.19478846 0.050902657
0.050439104 0.23721632 0.054657817
-0.23647299 0.31252643 0.057355165
0.062405832 0.35742801 0.057007004
0.14864753 0.35742801 0.053263102
0.21896397 0.35742801 0.057241291
-0.069756746 -0.35742801 0.069935799
-0.23647299 -0.016552694 0.060697921
0.22696 0.23930426 0.064303577
0.22696 0.24351737 0.066812158
0.22696 0.29536313 0.068251744
0.22696 0.33266097 0.06557329
-0.23647299 0.34484565 0.063844711
-0.23647299 0.35688239 0.064829908
0.211908 0.35742801 0.062430274
-0.23647299 -0.29611063 0.072684847
0.2263912 -0.26174375 0.07018958
-0.23647299 -0.24001645 0.078715459
0.22696 -0.15421961 0.072828874
0.057429399 -0.10462525 0.070470273
0.10030286 -0.10238842 0.074658997
0.15965693 -0.10062343 0.078721702
-0.014951241 0.074761271 0.079103097
0.055546694 0.22584422 0.074248597
0.22696 0.32360625 0.070695758
-0.19202173 0.35742801 0.074783824
-0.027832175 0.35742801 0.078871712
-0.17828675 -0.35742801 0.088669024
0.22589432 -0.26431963 0.084106475
-0.23647299 -0.22241503 0.081125766
-0.23647299 0.0098659545 0.087645352
-0.23647299 0.025026083 0.084925324
0.0080989916 0.21605387 0.085604571
0.083042167 0.21772946 0.085644186
0.17102191 0.2213372 0.083551951
0.10984405 0.35742801 0.086145207
0.18914081 0.35742801 0.086213082
-0.21268916 -0.35742801 0.094779551
-0.15132378 -0.35742801 0.09318389
0.20793401 -0.3146202 0.099840388
0.20793401 -0.2744565 0.091061175
0.22374521 -0.2754609 0.094330467
0.21323848 -0.25879499 0.098763406
0.23647299 -0.11566538 0.099443287
0.23647298 0.075362779 0.091252379
0.22695999 0.25214756 0.091169409
-0.10482205 0.35742801 0.090812802
0.14973164 -0.35742801 0.10697255
-0.23647299 -0.32399744 0.10000862
-0.23647299 -0.16086283 0.10693488
0.03817701 -0.081112616 0.10055434
0.025653359 -0.078804553 0.10319189
0.039474003 0.20237216 0.10437351
-0.23647299 0.33123255 0.1039594
-0.20930929 0.35742801 0.10385311
0.16570108 0.35742801 0.10861295
-0.095281161 -0.35742801 0.11692155
0.056921087 -0.35742801 0.11937886
0.074306481 -0.35742801 0.11923623
0.08813791 -0.071391679 0.11142077
0.094674625 -0.063933454 0.11734019
0.13188311 -0.06891457 0.11462091
-0.23647299 0.041330576 0.11523787
0.23647299 0.052732356 0.1176178
0.23647299 0.064684197 0.11500859
0.00890241 0.18890089 0.11417425
-0.23647299 0.22919132 0.11867741
0.22696 0.228917 0.11820333
-0.23647299 0.30407715 0.11127408
-0.23101965 -0.35742801 0.12458608
-0.12910603 -0.35742801 0.12419391
-0.11143027 -0.35742801 0.12792975
-0.064767204 -0.35742801 0.12707815
-0.017212268 -0.35742801 0.12255996
-0.23647299 -0.2467522 0.12104548
0.22696 -0.20058322 0.12274244
-0.23647299 -0.1320526 0.12227205
0.046781473 -0.054549877 0.12312219
0.09368144 -0.057307534 0.12239718
0.11829212 -0.058659464 0.1220899
0.16823834 -0.054131851 0.12704821
0.038194485 -0.046872891 0.12876083
-0.016192976 -0.011178757 0.12091883
0.23647299 0.1378665 0.12878227
0.23647299 0.16151489 0.12746094
0.22696 0.17599285 0.12000977
0.22696 0.20923209 0.12314959
-0.23647299 0.21485861 0.12037009
0.188907 0.25616634 0.12222962
-0.15939417 0.35742801 0.1286554
0.18819687 -0.35742804 0.1332482
0.20793399 -0.2855581 0.13740006
0.22690769 -0.25906628 0.13122368
-0.23647299 -0.056771636 0.13309839
-0.016652877 -0.025220366 0.1364384
0.23647299 -0.023181207 0.13698335
0.066931374 0.084185936 0.13773561
0.23647299 0.097147137 0.13369052
0.070949458 0.16518667 0.13422143
0.087579735 0.16862522 0.13207532
-0.23647299 0.21914999 0.13347974
0.14524312 0.35742801 0.13091928
-0.21758534 -0.35742801 0.14842075
-0.047045596 -0.35742801 0.1428076
0.13720685 -0.35742801 0.14280018
0.14882089 -0.35742801 0.14156821
0.22696 -0.24509513 0.14624143
-0.23647299 -0.2364952 0.14265184
0.22696 -0.20874043 0.14784716
0.22696 -0.1122708 0.14672543
0.10981564 -0.024418719 0.14380708
0.088824213 -0.019283775 0.14531192
0.12127423 -0.012486991 0.14909157
0.067228578 0.077936232 0.1466682
0.082789041 0.08005327 0.14232832
0.19947851 0.08382678 0.1417581
0.053510301 0.14645687 0.1430153
0.188907 0.26800495 0.14932439
0.21539229 0.28902996 0.14915535
0.13778052 0.35742801 0.14994085
-0.20374255 -0.35742801 0.15987647
0.22696 -0.20948006 0.1511732
-0.010047899 0.0054181912 0.1526136
0.096192963 0.0054198368 0.15576755
0.021313593 0.042455819 0.15999442
0.11797838 0.075492725 0.15371691
-0.009361947 0.091962807 0.15773323
0.035179097 0.10426222 0.15743506
0.090287507 0.10259184 0.15809384
0.060901687 0.11265683 0.15709284
0.23647299 0.14497858 0.15076683
-0.23647299 0.15439089 0.15573138
-0.23647299 0.18379848 0.15845212
0.22696 0.19401225 0.15887995
-0.21056637 0.35742801 0.1507235
0.084906772 0.35742801 0.15721886
0.21085426 -0.34228906 0.16501431
-0.23647299 -0.26096049 0.16277368
0.13237377 0.038892142 0.16282138
0.19100632 0.036225654 0.16421044
0.00051843619 0.057894919 0.16141059
0.10990655 0.075825207 0.16339812
0.12448972 0.078785338 0.16270018
0.20826143 0.08358404 0.16466443
-0.23647299 0.095586725 0.16899566
0.13866271 0.093449987 0.16193047
0.17996576 0.10138207 0.16189013
0.21263763 0.10623714 0.16244192
0.22696 0.18258098 0.16468944
-0.23647301 0.19701648 0.16192789
-0.1382542 0.35742801 0.16373594
-0.082923405 0.35742801 0.16939741
0.047832046 0.35742801 0.16398351
-0.12080416 -0.35742801 0.17154527
-0.23647299 -0.22297373 0.17929019
0.22696 -0.21964474 0.1784496
-0.23647299 -0.10347989 0.17159699
0.22696 -0.10200289 0.17103131
0.23502795 -0.049867794 0.17196999
-0.23647299 -0.0036464036 0.17532328
-0.23647299 0.0085468069 0.17506227
0.22859313 0.035265062 0.17196999
0.188907 0.29233825 0.17109884
-0.23647299 0.30760384 0.17467476
-0.13078523 0.35742801 0.17996119
-0.21342088 -0.35742801 0.18868515
-0.044319931 -0.35742801 0.1861468
0.20793401 -0.31346157 0.18728071
0.22696 -0.23503159 0.18743818
-0.23647299 -0.18188967 0.18605204
-0.23647301 -0.17557561 0.18520539
0.22696 -0.127885 0.18365394
-0.23647301 0.11150595 0.18989499
0.22696 0.13630237 0.18069908
-0.23647299 0.16613817 0.18536949
-0.23647299 0.23908371 0.18270823
0.22696 0.24161234 0.18670397
-0.18950157 0.35742801 0.18775216
0.0985213 0.35742801 0.18958801
-0.23647299 -0.28528666 0.19983472
-0.23647299 -0.24982888 0.19363107
0.22696 -0.24679509 0.19193265
-0.23647299 -0.022852212 0.19961488
-0.23647299 0.30215472 0.19978702
0.22696 0.30404466 0.19793525
-0.22838832 0.35742801 0.19760495
-0.052144185 0.35742801 0.19650874
-0.037264645 0.35742801 0.19209318
0.12951626 0.35742801 0.19658986
-0.13066743 -0.35742801 0.20679754
-0.091019541 -0.35742801 0.20203654
0.15692966 -0.35742801 0.20173073
0.2134421 -0.3288734 0.20584071
0.21534967 -0.31898436 0.20859209
-0.23647299 -0.17960042 0.20827231
0.22696 0.045549829 0.20480908
0.22696 0.21787255 0.20819566
-0.077298671 0.35742801 0.20163885
0.075693473 0.35742801 0.20353663
0.093536928 0.35742801 0.20513979
-0.13160288 -0.35742801 0.21334021
0.005018793 -0.35742801 0.21012162
0.06542147 -0.35742801 0.21922055
-0.23647299 -0.30846578 0.21509013
-0.23647299 -0.28122163 0.21178532
-0.23647299 -0.25798416 0.21066916
-0.23647299 -0.20609868 0.21457732
-0.23647299 -0.1110496 0.2178195
-0.23647299 -0.009600848 0.21633784
0.0078135282 0.35742801 0.21126741
0.033094678 0.35742801 0.21810213
0.19092631 0.35742801 0.21067785
0.22696 0.35702488 0.21489988
-0.05844928 -0.35742801 0.22810438
0.065082692 -0.35742801 0.22181004
0.20793399 -0.32827353 0.22708938
0.22208691 -0.28405774 0.22465777
-0.23647299 -0.18676895 0.22845995
0.22696 -0.16573866 0.22025837
0.22696 0.031903386 0.2259604
-0.23647299 0.13171077 0.22286463
0.22696 0.26225749 0.22032937
-0.18553746 0.35742801 0.22178444
-0.063220523 -0.35742801 0.23375651
-0.23647298 -0.23889534 0.23219219
0.22696 0.02228374 0.23298827
0.22696 0.034759395 0.23419911
0.22696 0.14330672 0.23949566
0.19317797 0.30573598 0.232059
-0.23647299 0.32568967 0.2339066
-0.21590081 0.35742801 0.23866931
0.029653242 0.35742801 0.23444064
0.083816089 -0.35742801 0.24775952
-0.23647299 -0.2246263 0.2474654
0.22696 -0.057964563 0.24653882
0.22696 0.023773886 0.24186623
-0.12371443 0.35742801 0.24396536
0.21947104 0.35742801 0.2474702
-0.099326238 -0.35742801 0.25301465
-0.067830488 -0.35742801 0.25722134
0.15371045 -0.35566089 0.25753799
0.19494322 -0.3525916 0.25753799
-0.057551101 -0.34966165 0.25753799
0.074727684 -0.3410216 0.25753799
-0.22109735 -0.33510223 0.25753799
-0.21451147 -0.33144858 0.25753799
-0.12505464 -0.33536065 0.25753799
-0.0086031929 -0.33932742 0.25753799
0.20719919 -0.33414245 0.25753799
-0.14780751 -0.32919014 0.25753799
0.017551832 -0.30963999 0.25753799
0.21023935 -0.30616915 0.25753799
0.066975966 -0.2932829 0.25753799
-0.17397037 -0.28875607 0.25753799
0.086878791 -0.28191864 0.25753799
0.19186682 -0.2889629 0.25753796
-0.047270261 -0.27771741 0.25753799
0.057253808 -0.27789837 0.25753799
-0.11480609 -0.26615584 0.25753799
-0.073572144 -0.26157823 0.25753799
0.029154912 -0.26854306 0.25753799
0.043447323 -0.25135261 0.25753799
-0.16161045 -0.24013011 0.25753799
-0.12007093 -0.24521568 0.25753799
-0.18986145 -0.23741636 0.25753796
0.05495432 -0.23440897 0.25753802
0.17503594 -0.23976776 0.25753799
-0.11082242 -0.22101255 0.25753799
0.12364304 -0.22177607 0.25753799
-0.20804305 -0.21638092 0.25753799
-0.099992745 -0.20353338 0.25753799
-0.059363768 -0.19942552 0.25753799
0.16665033 -0.17648968 0.25753799
0.22696 -0.17059794 0.25099379
-0.021738812 -0.16635904 0.25753799
0.073756635 -0.16215795 0.25753799
0.13977915 -0.16690136 0.25753799
0.14113578 -0.16168578 0.25753799
0.15659197 -0.16667643 0.25753796
-0.22667477 -0.15231636 0.25753799
0.11328088 -0.15315065 0.25753799
-0.22709778 -0.14115982 0.25753799
-0.2131654 -0.14905909 0.25753799
0.1516006 -0.14828371 0.25753799
0.13463524 -0.13631198 0.25753799
0.16025193 -0.13111231 0.25753799
-0.19252081 -0.12289848 0.25753796
0.024108214 -0.12834156 0.25753799
0.0093954802 -0.11290715 0.25753799
-0.16647141 -0.1052451 0.25753799
-0.15269068 -0.10921974 0.25753799
-0.21520662 -0.09704072 0.25753799
-0.078377351 -0.095571041 0.25753799
0.09896373 -0.091283143 0.25753799
0.14150377 -0.091735877 0.25753799
0.16746393 -0.09853822 0.25753799
0.17810977 -0.099403404 0.25753799
-0.048295818 -0.075488351 0.25753799
-0.1991044 -0.067140073 0.25753799
-0.18849772 -0.063597791 0.25753799
-0.17959464 -0.045498867 0.25753799
0.051451139 -0.048557252 0.25753799
0.22478834 -0.049935512 0.25753799
-0.17619497 -0.036609113 0.25753799
-0.060512081 -0.039423134 0.25753799
-0.03125146 -0.039034516 0.25753799
0.024522625 -0.035075434 0.25753799
-0.11077514 -0.024027906 0.25753799
-0.090490423 -0.012462124 0.25753799
0.01614663 0.0025215191 0.25753802
0.051160883 0.010993306 0.25753799
0.17329697 0.017682716 0.25753799
0.22696 0.019845426 0.25016579
0.17460118 0.025775082 0.25753799
0.17152825 0.034419589 0.25753799
0.022180073 0.041888401 0.25753799
0.0574365 0.044664223 0.25753799
-0.22811522 0.059756547 0.25753799
-0.11102044 0.052138679 0.25753799
-0.052553296 0.057298154 0.25753799
0.15821905 0.051556692 0.25753799
0.1882859 0.051434711 0.25753799
0.071602248 0.061766073 0.25753799
0.14792296 0.062138736 0.25753799
-0.062025145 0.11163396 0.25753799
-0.048217639 0.11685555 0.25753799
-0.02076894 0.11982669 0.25753799
0.13372919 0.11944078 0.25753799
-0.23384674 0.12750597 0.25625214
-0.16208316 0.12333466 0.25753799
0.024417626 0.12599635 0.25753799
-0.028994463 0.14368096 0.25753799
-0.013929784 0.1433478 0.25753799
0.0087126456 0.14465731 0.25753799
-0.09459132 0.16430923 0.25753799
0.017166421 0.16366318 0.25753799
0.21037942 0.16549161 0.25753799
-0.23621182 0.17160571 0.25753799
-0.17497122 0.19692096 0.25753799
-0.12989978 0.19599408 0.25753799
0.0071139708 0.19695288 0.25753799
0.16132933 0.19403879 0.25753799
0.10547104 0.20335621 0.25753799
0.22564375 0.20581198 0.25753799
0.16907613 0.22511305 0.25753799
-0.061176039 0.23864178 0.25753799
-0.016470745 0.2302179 0.25753799
0.031960614 0.23611504 0.25753799
-0.23647299 0.24935225 0.25533882
-0.15198082 0.24414691 0.25753799
0.011919769 0.24009103 0.25753799
-0.22861888 0.25172317 0.25753799
0.091549106 0.25848264 0.25753799
-0.10198756 0.26658928 0.25753799
0.18834361 0.26355943 0.25753799
0.20633326 0.27537066 0.25753799
0.21455617 0.27454162 0.25753799
-0.23647298 0.28493291 0.25521541
0.023788437 0.2826249 0.25753799
0.052453522 0.28750265 0.25753799
-0.10403766 0.30667439 0.25753799
-0.079982854 0.3006627 0.25753799
-0.021532584 0.30217892 0.25753799
-0.057719156 0.31312522 0.25753799
-0.03661643 0.31124252 0.25753799
0.081876628 0.31110162 0.25753799
-0.055486567 0.32115746 0.25753799
0.22299005 0.32216606 0.25753799
-0.11052537 0.33374324 0.25753799
0.11659581 0.33239037 0.25753799
0.066131733 0.34386659 0.25753799
0.14624716 0.3416844 0.25753799
0.15758048 0.34323549 0.25753799
0.17150439 0.34582639 0.25753799
-0.19615604 0.35040602 0.25753799
-0.082958482 0.35200706 0.25753799
-0.026346326 0.35455754 0.25753799
0.18704268 0.3566311 0.25753799
0.20055999 0.35154381 0.25753799
