# .PCD v0.7 - Point Cloud Data file format
VERSION 0.7
FIELDS x y z
SIZE 4 4 4
TYPE F F F
COUNT 1 1 1
WIDTH 966
HEIGHT 1
VIEWPOINT 0 0 0 1 0 0 0
POINTS 966
DATA ascii
-0.23495626 -0.359079 -0.2554827
-0.22161551 -0.35422027 -0.25648499
-0.061473861 -0.35599506 -0.25648499
-0.018538795 -0.359079 -0.25587693
0.10739452 -0.35026643 -0.25648499
-0.096729375 -0.3425968 -0.25648499
-0.12476393 -0.33071065 -0.25648499
-0.10511215 -0.33690968 -0.25648499
-0.16333619 -0.32361943 -0.25648499
0.12875801 -0.32855672 -0.25648499
0.13566251 -0.32718396 -0.25648499
0.16484781 -0.32182699 -0.25648499
0.049510486 -0.3153035 -0.25648499
0.13902599 -0.30618691 -0.25648499
-0.12616354 -0.29272014 -0.25648499
-0.014799528 -0.29491562 -0.25648499
-0.20484899 -0.28867945 -0.25648499
-0.013489567 -0.28236157 -0.25648499
-0.19314343 -0.27608752 -0.25648499
0.042574145 -0.27206081 -0.25648499
-0.22633991 -0.26414925 -0.25648499
-0.0497711 -0.26738518 -0.25648499
0.075201333 -0.26505053 -0.25648499
0.098241255 -0.2697835 -0.25648499
0.15207078 -0.26502448 -0.25648499
-0.18992034 -0.25857207 -0.25648499
-0.064233713 -0.25251362 -0.25648499
-0.03629373 -0.24060115 -0.25648499
0.14879093 -0.24123932 -0.25648499
0.1971952 -0.2447845 -0.25648499
-0.18329404 -0.2346178 -0.25648499
-0.08416225 -0.23080388 -0.25648499
-0.076187789 -0.23549174 -0.25648499
-0.17652336 -0.22703165 -0.25648499
-0.079761617 -0.22288175 -0.25648499
0.096029669 -0.22203344 -0.25648499
-0.17318535 -0.21210134 -0.25648499
-0.050334059 -0.21654777 -0.25648499
-0.040690668 -0.21842073 -0.25648499
-0.049436152 -0.20836905 -0.25648499
0.010540839 -0.19234371 -0.25648499
0.085610688 -0.19173345 -0.25648499
0.10704301 -0.18557486 -0.25648499
0.18108229 -0.1880981 -0.25648499
-0.10394467 -0.17617589 -0.25648499
-0.080387756 -0.1793004 -0.25648499
0.14948498 -0.17215914 -0.25648499
-0.21465844 -0.16987923 -0.25648499
0.1113634 -0.16712746 -0.25648499
0.21551698 -0.16030633 -0.25648499
-0.20994496 -0.153742 -0.25648499
-0.19847104 -0.15840365 -0.25648499
-0.1852162 -0.15702328 -0.25648499
-0.092465535 -0.15301991 -0.25648499
0.10752156 -0.15936358 -0.25648499
0.11039151 -0.157011 -0.25648499
-0.076327696 -0.14974762 -0.25648499
-0.016583435 -0.14936797 -0.25648499
0.11793183 -0.14108987 -0.25648499
0.022889029 -0.13439991 -0.25648499
0.041746229 -0.13298155 -0.25648499
0.22250766 -0.13745099 -0.25648499
-0.18104061 -0.1275447 -0.25648499
-0.075128205 -0.12909395 -0.25648499
-0.2182596 -0.11323175 -0.25648499
-0.0288589 -0.11342868 -0.25648499
-0.12296057 -0.10676289 -0.25648499
-0.098071858 -0.10531455 -0.25648499
0.15384072 -0.10573125 -0.25648499
-0.19831622 -0.092420377 -0.25648499
0.060692228 -0.095645279 -0.25648499
0.11712109 -0.091243565 -0.25648499
-0.012903363 -0.084140442 -0.25648499
0.1096282 -0.08160387 -0.25648499
-0.22721376 -0.073434219 -0.25648499
-0.049883775 -0.070094749 -0.25648499
0.031073809 -0.075837031 -0.25648499
0.19290516 -0.075640172 -0.25648499
0.2027131 -0.075249329 -0.25648499
-0.053077087 -0.060702011 -0.25648499
-0.0088149272 -0.06745021 -0.25648499
-0.22510511 -0.050376207 -0.25648499
0.12372684 -0.052965902 -0.25648499
0.18686229 -0.055433057 -0.25648499
0.16502324 -0.047135148 -0.25648499
0.20218076 -0.048401818 -0.25648499
-0.082879223 -0.033195503 -0.25648499
0.18371072 -0.039214805 -0.25648499
0.095980555 -0.02413889 -0.25648499
-0.05798848 -0.012948111 -0.25648499
0.13933139 -0.012519687 -0.25648499
0.1259926 -0.00088639557 -0.25648499
-0.16390024 0.00059390813 -0.25648499
-0.235111 0.015384525 -0.25192207
-0.12498666 0.019479111 -0.25648499
-0.11505673 0.013841949 -0.25648499
-0.098292202 0.012960888 -0.25648499
-0.027980886 0.010962397 -0.25648499
-0.0058905557 0.015294893 -0.25648499
-0.0040206024 0.029829197 -0.25648499
0.031208172 0.022337034 -0.25648499
-0.21238224 0.032493364 -0.25648499
0.0072322432 0.038669705 -0.25648499
-0.080121182 0.058656 -0.25648499
-0.036503453 0.053322975 -0.25648499
-0.018768072 0.058069848 -0.25648499
0.22379547 0.057562843 -0.25648499
0.16927934 0.064812884 -0.25648499
-0.072195098 0.073201679 -0.25648499
-0.19323434 0.083563618 -0.25648499
-0.070689008 0.089275986 -0.25648499
0.034505889 0.082382262 -0.25648499
-0.1692362 0.11831358 -0.25648499
-0.22424725 0.12422748 -0.25648499
0.009185154 0.12591952 -0.25648499
0.082852706 0.12704322 -0.25648499
0.14928198 0.12390438 -0.25648499
0.19221729 0.12877995 -0.25648499
-0.20381702 0.1389465 -0.25648499
-0.11763722 0.14929383 -0.25648499
-0.099729881 0.15361576 -0.25648499
-0.19262534 0.16257566 -0.25648499
0.0051901862 0.17947114 -0.25648499
0.18410811 0.17749339 -0.25648499
0.16372594 0.18793827 -0.25648499
-0.19835094 0.19530019 -0.25648499
-0.11687283 0.19795185 -0.25648499
-0.10343743 0.19343027 -0.25648499
-0.080791138 0.19071802 -0.25648499
0.0320388 0.19859397 -0.25648499
0.16267076 0.19783059 -0.25648499
-0.16888271 0.20242275 -0.25648499
-0.050917134 0.21581566 -0.25648499
0.072789565 0.21360461 -0.25648499
-0.19155234 0.22926696 -0.25648499
-0.1721008 0.22088219 -0.25648499
-0.039231539 0.22864988 -0.25648499
0.077923857 0.22732681 -0.25648499
-0.21042925 0.23863497 -0.25648499
-0.15910643 0.23796913 -0.25648499
-0.12093413 0.23097365 -0.25648499
0.044566121 0.23402596 -0.25648499
0.056799538 0.23238948 -0.25648499
0.13011748 0.23250929 -0.25648499
-0.18672988 0.24962068 -0.25648499
-0.098842368 0.25446835 -0.25648499
-0.068536751 0.25659013 -0.25648499
0.036783598 0.25790659 -0.25648499
0.073343426 0.25612241 -0.25648499
0.16645427 0.25288588 -0.25648499
0.17654081 0.27665639 -0.25648499
-0.14773846 0.28903586 -0.25648499
-0.10046391 0.28540263 -0.25648499
0.086057954 0.28852397 -0.25648499
-0.15385675 0.2984215 -0.25648499
0.024580061 0.29218042 -0.25648499
0.059068017 0.29218525 -0.25648499
0.11630295 0.29178822 -0.25648499
-0.20456783 0.30132625 -0.25648499
0.055733077 0.30323949 -0.25648499
-0.14650056 0.31451944 -0.25648499
-0.1030627 0.31366891 -0.25648499
0.0279397 0.31554461 -0.25648499
0.061021134 0.31460762 -0.25648499
0.19004571 0.31534645 -0.25648499
-0.19722788 0.32103571 -0.25648499
-0.093887307 0.33963767 -0.25648499
-0.067219377 0.33606207 -0.25648499
-0.0427325 0.33559501 -0.25648499
0.0080529079 0.33202901 -0.25648499
0.071930744 0.33613956 -0.25648499
0.2104318 0.33691114 -0.25648499
-0.18389885 0.34655061 -0.25648499
-0.02063366 0.34675828 -0.25648499
-0.016169228 0.34438729 -0.25648499
0.19011165 0.34747377 -0.25648499
0.22656199 0.34365764 -0.25225627
-0.059916429 0.359079 -0.25616962
0.049382187 0.359079 -0.25512865
0.068889901 0.35862243 -0.25648499
0.11591002 0.359079 -0.2510317
0.22656199 -0.32517815 -0.24837194
0.22656199 -0.29013762 -0.2460894
-0.235111 0.097186334 -0.24654698
-0.235111 0.20123574 -0.24240442
0.22656199 0.33387068 -0.24644969
-0.16803958 0.359079 -0.2460867
-0.051532388 0.359079 -0.24527113
0.097621888 0.359079 -0.24674651
0.13119879 0.359079 -0.2461506
-0.12574616 -0.359079 -0.23678558
0.015731795 -0.359079 -0.23353055
-0.235111 -0.31081474 -0.23371381
0.22656199 -0.30338341 -0.23867458
-0.235111 -0.033349425 -0.23989859
0.22656199 -0.012897491 -0.23705846
-0.235111 0.12691119 -0.2388252
-0.235111 0.18134068 -0.23830792
-0.235111 0.23127392 -0.23813209
-0.14629835 0.359079 -0.23057175
-0.235111 -0.3578859 -0.22414786
-0.011790801 -0.359079 -0.22443271
-0.235111 -0.29660189 -0.22206043
-0.235111 -0.11580878 -0.22641772
0.22656199 -0.0097652748 -0.22682941
-0.235111 0.12336817 -0.22852159
-0.235111 0.19374391 -0.22815399
-0.235111 0.27442449 -0.22693798
-0.235111 0.31816828 -0.22763844
0.22656199 0.31958181 -0.22407322
0.078160658 0.359079 -0.2209031
0.12358294 0.359079 -0.2236138
0.0051392242 -0.359079 -0.21535954
0.060757563 -0.359079 -0.21498913
0.1906663 -0.359079 -0.21447787
0.22656199 -0.18181008 -0.21004441
0.22656199 -0.11352298 -0.21671681
0.22656199 -0.096704543 -0.21796092
-0.235111 -0.028981507 -0.21559265
0.22656199 0.039093561 -0.21318938
0.22656199 0.21313581 -0.21463281
-0.235111 0.23240995 -0.21766028
0.22656199 0.34909084 -0.2199482
-0.1438597 0.359079 -0.21217892
-0.1377655 0.359079 -0.21734431
-0.12616651 0.359079 -0.21246792
0.13630879 0.359079 -0.21425617
-0.17507805 -0.359079 -0.20402153
-0.10227846 -0.359079 -0.20001841
-0.09476532 -0.359079 -0.20596936
-0.089454621 -0.359079 -0.2075901
-0.235111 -0.25486657 -0.20010489
-0.235111 -0.21164697 -0.20449272
0.22656199 -0.047962122 -0.20237647
-0.235111 0.22140896 -0.20383322
-0.084006436 0.359079 -0.20121045
0.015763171 0.359079 -0.20926249
-0.00071809255 -0.359079 -0.19659293
0.12144722 -0.359079 -0.19934067
0.21236376 -0.359079 -0.19657519
-0.235111 -0.29391253 -0.19201681
0.22656199 -0.2104795 -0.19377735
0.22656198 -0.044369005 -0.1993721
-0.235111 0.0046744645 -0.19877887
-0.235111 0.012028098 -0.19708583
-0.235111 0.03496249 -0.19512805
-0.235111 0.092067063 -0.1944125
-0.235111 0.10985181 -0.19000188
-0.235111 0.11704527 -0.19690941
-0.235111 0.27314234 -0.19960943
-0.235111 0.35343528 -0.19897157
-0.17042491 0.359079 -0.19109169
0.19896334 0.359079 -0.19051191
0.22656199 -0.30185172 -0.18140987
0.22656199 -0.12572259 -0.18965308
-0.235111 -0.051643722 -0.18437691
0.22656201 -0.028259743 -0.18413851
-0.235111 0.054800928 -0.18039621
0.22656199 0.12934679 -0.18361679
-0.23412542 0.3587234 -0.18271185
-0.055529501 -0.359079 -0.17366275
0.0071912054 -0.359079 -0.17350405
-0.235111 -0.25931522 -0.17669287
0.22656199 -0.25029019 -0.17977914
-0.235111 -0.22783029 -0.17307033
-0.235111 -0.18506974 -0.17409746
-0.235111 -0.097116992 -0.17116711
0.22656199 -0.092566095 -0.17382726
0.22656199 -0.049690917 -0.17543858
0.23243666 -0.03862663 -0.17408314
0.235111 -0.02142317 -0.17035659
-0.235111 -0.0084643438 -0.17438754
-0.235111 0.21384908 -0.17649397
-0.235111 0.23400252 -0.17930393
-0.235111 0.25636417 -0.17055811
-0.062706143 -0.359079 -0.16346318
0.062676176 -0.359079 -0.16421486
-0.235111 -0.34458715 -0.16361004
0.22656199 -0.34510621 -0.16125956
0.22656199 -0.3180795 -0.16747782
0.22656199 -0.26038089 -0.16551116
-0.235111 -0.24885064 -0.1643396
0.22656199 -0.23995036 -0.16605741
-0.235111 -0.21142007 -0.16042291
0.22656199 -0.17479035 -0.16693538
0.22656199 -0.064900547 -0.16522267
0.235111 0.0080644749 -0.16848351
0.235111 0.012493904 -0.16140777
-0.235111 0.052316815 -0.16085327
0.22656199 0.11875856 -0.16408825
-0.235111 0.14610958 -0.16604149
-0.235111 0.18420537 -0.16119663
0.22656199 0.20963986 -0.16001956
0.22656199 0.21334174 -0.16333432
0.081877798 0.359079 -0.16605324
-0.235111 -0.075840473 -0.15611866
0.235111 -0.064315632 -0.15502751
-0.235111 -0.0028045252 -0.1596522
-0.235111 0.01406303 -0.15047449
-0.235111 0.053495005 -0.15756509
-0.235111 0.18830653 -0.15650555
0.22656199 0.27781802 -0.15039724
-0.15574872 0.359079 -0.1567719
-0.12357508 0.359079 -0.15640126
0.06062825 0.359079 -0.15308279
-0.235111 -0.35507905 -0.14924841
0.061240856 -0.359079 -0.14840931
-0.235111 -0.25497043 -0.1444957
0.22656199 -0.13085376 -0.14854838
-0.235111 -0.12346679 -0.14776744
0.22656199 0.17770173 -0.14677152
-0.051701237 0.359079 -0.14102352
0.095480084 0.359079 -0.14711718
0.16010725 0.359079 -0.14355943
-0.235111 -0.3575322 -0.13825476
-0.11324026 -0.359079 -0.13226041
-0.070366114 -0.359079 -0.13595083
-0.038476925 -0.359079 -0.13118008
0.086777508 -0.359079 -0.13831738
0.17272194 -0.359079 -0.13789128
-0.235111 0.042990759 -0.13672632
0.235111 0.093798384 -0.1317569
-0.235111 0.1991837 -0.13579126
-0.235111 0.23274803 -0.13180161
-0.090475053 -0.359079 -0.12106548
-0.028085761 -0.359079 -0.12431928
0.018755849 -0.359079 -0.12484612
0.18957983 -0.359079 -0.12312594
-0.235111 -0.25845772 -0.12316211
-0.235111 -0.17791907 -0.1296667
0.22656201 -0.17708568 -0.12794675
0.23387878 -0.1111279 -0.12705833
0.22868213 0.0082941838 -0.12345085
0.218013 0.042576581 -0.12074757
-0.235111 0.26844156 -0.12080708
-0.20403257 0.359079 -0.12904525
-0.10265552 0.359079 -0.12147187
-0.007331606 0.359079 -0.12205885
0.049438182 0.359079 -0.12826338
0.13665876 -0.359079 -0.11434051
0.22656199 -0.19393003 -0.11730301
0.22656199 -0.18268219 -0.11488484
0.22656199 -0.158195 -0.11808507
-0.235111 -0.14616874 -0.11827586
0.22656199 -0.13125238 -0.11065067
0.235111 -0.072454505 -0.11792437
-0.235111 0.013889432 -0.11076169
-0.235111 0.090369232 -0.11743727
-0.235111 0.19618708 -0.11160202
-0.12813741 0.359079 -0.11936098
-0.088433616 0.359079 -0.11644349
0.069681957 0.359079 -0.11889075
0.087742798 0.359079 -0.11874869
-0.14397191 -0.359079 -0.10718884
0.20195851 -0.359079 -0.10241564
-0.235111 -0.19866118 -0.10056676
0.22656199 -0.16861561 -0.10612595
-0.235111 0.0070965588 -0.10655921
0.235111 0.11733442 -0.10557411
0.16729188 0.359079 -0.10926443
0.16357455 -0.359079 -0.095897116
0.22656199 -0.28679037 -0.091359332
0.235111 -0.13500248 -0.096433498
0.2326144 -0.060211245 -0.091013424
-0.235111 -0.026251137 -0.090235025
-0.235111 0.027748019 -0.098171204
0.218013 0.085687488 -0.096177042
0.22898962 0.18321225 -0.098794065
0.22656199 0.24757999 -0.099619702
0.22656199 0.32288954 -0.091723055
-0.235111 0.33022726 -0.091127351
-0.14665359 0.359079 -0.09280289
0.075681888 0.359079 -0.090141542
-0.22047335 -0.359079 -0.087833077
-0.16666408 -0.359079 -0.087924473
-0.01315888 -0.359079 -0.085922629
0.12845317 -0.359079 -0.088957399
0.14596929 -0.359079 -0.088888258
0.22656199 -0.28198907 -0.083088472
-0.235111 -0.11125769 -0.0802963
-0.235111 0.35292697 -0.083617672
-0.16118634 0.359079 -0.088271558
-0.15055573 0.359079 -0.088206731
-0.18929087 -0.359079 -0.075388573
0.058950759 -0.359079 -0.077997081
0.15408243 -0.359079 -0.072636984
0.18156123 -0.359079 -0.079588249
-0.235111 -0.28140643 -0.077574447
-0.235111 -0.26536441 -0.075479239
0.218013 0.071176752 -0.075109147
0.23421095 0.1306925 -0.071399823
0.22656199 0.27643591 -0.074450292
-0.235111 0.35247368 -0.071241692
-0.039130822 0.359079 -0.073720939
0.043840516 -0.359079 -0.060618948
0.061229937 -0.359079 -0.067373425
-0.235111 -0.03607424 -0.061894462
0.21801299 0.13010491 -0.064203434
0.235111 0.16112566 -0.068075366
-0.20745024 0.359079 -0.064212665
-0.061917532 0.359079 -0.069649853
0.18489569 0.359079 -0.068401776
-0.14124709 -0.359079 -0.051164947
0.065249972 -0.359079 -0.059771068
0.091501243 -0.359079 -0.054625452
0.14907983 -0.359079 -0.059491642
0.21456796 -0.359079 -0.051042773
0.22656199 -0.20322345 -0.054524582
0.22656199 -0.1787792 -0.05345802
0.22656199 -0.16522902 -0.050563667
-0.235111 -0.13764384 -0.056824081
0.218013 0.11645653 -0.058066912
0.22656199 0.24405701 -0.052889485
-0.20639716 0.359079 -0.050031021
-0.235111 -0.21075383 -0.044944238
0.22656199 -0.21344161 -0.045367174
-0.235111 -0.11502653 -0.046842333
0.22444092 -0.089150727 -0.049499154
0.218013 0.001629327 -0.040599704
0.21801302 0.085752696 -0.045203995
0.22656199 0.32409436 -0.045764163
-0.071064889 0.359079 -0.048816778
0.22439857 0.359079 -0.047552146
-0.13361526 -0.359079 -0.033329062
-0.077399157 -0.359079 -0.035269946
-0.038093612 -0.359079 -0.035431556
0.21801299 0.031432152 -0.038340818
-0.235111 0.11688915 -0.03229259
0.22656199 0.32147661 -0.030501001
-0.11386941 0.359079 -0.03995391
-0.1001224 0.359079 -0.034554571
0.18282698 0.359079 -0.037433669
-0.036651462 -0.359079 -0.022530288
-0.016262338 -0.359079 -0.028771818
0.22656199 -0.30361938 -0.02174411
-0.235111 -0.1860224 -0.028534049
-0.235111 -0.055840671 -0.022873417
-0.235111 0.10424572 -0.023409942
-0.235111 0.13749515 -0.026851293
0.235111 0.16270129 -0.026533533
-0.235111 0.18914099 -0.026526384
0.235111 0.19294581 -0.023719883
-0.0095132301 0.359079 -0.02104135
0.21690224 0.359079 -0.024166234
-0.21926716 -0.359079 -0.015206806
-0.10996386 -0.359079 -0.010564972
0.034450382 -0.359079 -0.01976186
0.10600136 -0.359079 -0.013952818
0.14673904 -0.359079 -0.019982494
-0.235111 -0.34349161 -0.011585679
0.22656199 -0.33233073 -0.01284989
0.22656199 -0.29693499 -0.019075438
-0.235111 -0.25704151 -0.012538571
-0.235111 0.0025768876 -0.012869917
0.21801302 0.048026279 -0.013247219
-0.235111 0.10985662 -0.016827516
-0.235111 0.19063187 -0.012660079
-0.235111 0.26767904 -0.019759353
-0.15808034 0.359079 -0.011333995
-0.076989174 0.359079 -0.016089231
-0.21200967 -0.359079 -0.0051871687
-0.13797045 -0.359079 -0.0045721531
0.18266563 -0.359079 -0.0030501783
-0.235111 -0.26612628 -0.0058637559
-0.235111 -0.16313793 -0.0051456019
0.218013 -0.082132526 -0.00042415597
-0.235111 0.078584492 -0.0093338042
0.21801299 0.15237483 -0.0057530045
0.22656199 0.21473119 -0.009619439
-0.235111 0.23506309 -0.00037363917
0.22656199 0.30263028 -0.0094037205
0.022559762 0.359079 -0.0013498366
0.036468707 -0.359079 0.0090028569
0.04203178 -0.359079 0.0036897063
0.22656199 -0.25440016 0.007865008
-0.235111 -0.21120572 0.001533106
0.218013 0.012310755 0.001031734
0.22656199 0.31148043 0.001245223
0.22656199 0.32841671 0.0083628297
-0.10770285 0.359079 0.0058007687
0.057530392 0.359079 0.0087730885
-0.14339277 -0.359079 0.019131877
-0.13478899 -0.359079 0.01181329
-0.11471078 -0.359079 0.010793723
-0.094129965 -0.359079 0.018226538
0.020103946 -0.359079 0.019478172
0.22656199 -0.30166686 0.012280561
-0.235111 -0.181086 0.015386999
-0.235111 -0.16841212 0.011281341
-0.235111 -0.10288581 0.018711366
0.218013 0.091001734 0.01719616
0.22311106 0.15410241 0.011008251
0.22656199 0.31709516 0.01610221
-0.17576614 0.359079 0.012047
0.050130263 0.359079 0.011877967
0.17440201 0.359079 0.017001025
-0.1269884 -0.359079 0.026387781
0.065090194 -0.359079 0.023717485
0.2287294 -0.15999863 0.02321318
0.235111 -0.1591038 0.0269308
0.235111 -0.12241954 0.023582857
-0.235111 -0.098280311 0.021131672
-0.235111 -0.073229313 0.020443335
-0.235111 0.066119984 0.025934666
0.22656199 0.21695347 0.020974495
0.22656199 0.25256583 0.025671834
-0.069423392 0.359079 0.028387249
-0.058031984 0.359079 0.029519837
0.13483173 -0.359079 0.037035793
0.18873695 -0.359079 0.034297161
-0.235111 -0.14715223 0.032331757
-0.235111 -0.13002649 0.032771524
-0.235111 -0.024609242 0.035837889
-0.235111 -0.019428533 0.038316846
0.218013 0.016780388 0.032189351
0.22230013 0.15150145 0.030768236
-0.235111 0.2620917 0.031208877
-0.235111 0.29269478 0.033068039
-0.235111 0.35731256 0.033537135
0.19310918 -0.359079 0.044861026
0.22656199 -0.35307246 0.045001157
-0.235111 -0.34224719 0.04120364
-0.235111 -0.33670476 0.045074061
0.22656199 -0.26527926 0.049913555
-0.235111 0.026595812 0.043757454
0.218013 0.028888313 0.044246506
-0.235111 0.056574095 0.041075818
-0.235111 0.081035167 0.048106764
0.21801299 0.12073504 0.045234919
0.2246581 0.1467014 0.045597687
0.235111 0.17024274 0.046009146
-0.235111 0.33405268 0.049005326
0.22656199 0.34687114 0.041660331
-0.1995105 0.359079 0.040131427
0.18803477 0.359079 0.04582826
-0.23439187 -0.359079 0.058970213
-0.20089453 -0.359079 0.054960795
-0.076353677 -0.359079 0.059413146
0.22656199 -0.21031401 0.051646072
-0.235111 -0.19726245 0.057862852
-0.235111 -0.093262762 0.053797327
-0.235111 -0.089401424 0.056182537
-0.235111 0.02244243 0.053241782
0.235111 0.14407326 0.05525735
-0.17027783 0.359079 0.053953581
-0.22990116 -0.359079 0.064273372
-0.10530194 -0.359079 0.063155465
-0.23511098 -0.34593642 0.065995216
-0.235111 -0.3376087 0.069902606
-0.235111 -0.30369914 0.064121306
-0.235111 -0.24998873 0.06439881
-0.235111 -0.23579115 0.062483609
-0.235111 0.022111442 0.069480732
0.21801299 0.036247071 0.062579237
-0.235111 0.093895905 0.066919699
0.235111 0.18119974 0.06356772
-0.235111 0.21665812 0.065738127
-0.020226136 0.359079 0.067075752
0.020095509 0.359079 0.068199508
0.11332962 0.359079 0.069855899
-0.18853395 -0.359079 0.07339184
-0.001803726 -0.359079 0.076252609
0.015542023 -0.359079 0.078992635
0.04088264 -0.359079 0.077300794
0.22656199 -0.32710713 0.078382879
0.22656199 -0.15941662 0.077024758
0.22868133 -0.076753452 0.075969547
0.21801299 -0.0091366731 0.071626961
-0.235111 0.095469922 0.079156578
-0.235111 0.14803754 0.077486381
0.22656199 0.32898632 0.077108316
-0.20252457 0.359079 0.077721693
-0.093914255 0.359079 0.075610429
-0.23339325 -0.359079 0.083415754
-0.010032754 -0.359079 0.080843389
-0.0035354644 -0.359079 0.086603224
0.042392708 -0.359079 0.089445829
-0.235111 -0.3188535 0.083762594
0.22656199 -0.15548576 0.086964011
-0.235111 -0.091860436 0.081961848
0.22656199 0.2110272 0.080502689
0.22656199 0.28488809 0.084911145
-0.22204787 0.359079 0.089860514
-0.16366644 0.359079 0.085252047
-0.028420426 0.359079 0.089132309
-0.235111 -0.28659719 0.096486732
-0.235111 -0.24504584 0.09068884
0.22656199 -0.24688804 0.098280832
-0.235111 -0.23773265 0.093944773
0.22656199 -0.21875396 0.096641049
0.21801299 0.018206179 0.096509621
0.22955367 0.11764781 0.093036965
0.22656199 0.23153049 0.099303611
-0.013412967 0.359079 0.09220884
0.22093962 0.359079 0.094389938
-0.084334821 -0.359079 0.10521974
0.0057029128 -0.359079 0.10940269
0.0350108 -0.359079 0.10838029
-0.235111 -0.33108854 0.10727958
0.22656199 -0.25867793 0.10578392
-0.235111 -0.20275289 0.10413277
-0.235111 -0.15708226 0.10054754
-0.235111 0.058468729 0.10179725
0.235111 0.10834662 0.10624361
0.22656199 0.31298366 0.10059729
0.22656199 0.33227825 0.1008066
0.22656199 0.3439303 0.10110503
-0.071576998 -0.359079 0.11638211
0.065910727 -0.359079 0.11787262
0.074560009 -0.359079 0.11242991
0.21068463 -0.359079 0.11835429
-0.235111 -0.23321299 0.11202303
-0.235111 -0.070723638 0.11371321
0.235111 -0.030142805 0.11767698
0.22058959 0.088257492 0.1145765
0.22656199 0.22018144 0.11012205
-0.235111 0.31105706 0.11987791
-0.22994363 0.359079 0.11556078
-0.013796482 0.359079 0.11830871
0.017565161 0.359079 0.11961931
-0.11387311 -0.359079 0.12306247
-0.047044747 -0.359079 0.12223641
0.073011026 -0.359079 0.1254563
-0.235111 0.076452374 0.12060302
-0.235111 0.11595683 0.12699531
-0.235111 0.20032437 0.12348085
0.1576715 0.359079 0.12668431
-0.235111 -0.35710382 0.13068716
-0.12112579 -0.359079 0.13046706
-0.05485367 -0.359079 0.13392009
0.049257543 -0.359079 0.1382665
0.22656199 -0.33241156 0.13721159
-0.235111 -0.16421373 0.13683826
0.235111 0.0004581837 0.13888949
-0.235111 0.04120747 0.13202322
-0.235111 0.21648037 0.1346302
0.22656199 0.23253055 0.13060173
0.22656199 0.33224738 0.13135856
-0.19310153 0.359079 0.13844839
-0.235111 -0.35861862 0.14138792
-0.20473944 -0.359079 0.14901379
0.014692873 -0.359079 0.14280736
0.22656199 -0.28919801 0.14682457
0.22656199 -0.17004609 0.14663874
-0.235111 -0.16811827 0.1478163
-0.235111 -0.032097578 0.14626534
0.235111 0.0064364802 0.14367324
-0.235111 0.080123946 0.14816882
-0.235111 0.11591372 0.14381444
0.22656199 0.20289871 0.14265904
-0.235111 0.32711482 0.14579108
-0.21239305 0.359079 0.14618555
-0.15390897 0.359079 0.14892766
0.015860045 0.359079 0.1447112
0.18487249 0.359079 0.14752579
-0.21228887 -0.359079 0.1524218
0.089025289 -0.359079 0.15593052
0.16414446 -0.359079 0.15912879
0.22656199 -0.32877246 0.15668918
0.235111 -0.058496431 0.1593087
0.235111 0.063065581 0.15989906
-0.235111 0.11655396 0.15335877
0.22656199 0.14718994 0.15100898
-0.235111 0.21396041 0.15328436
-0.235111 0.30779332 0.15501885
0.22656201 0.33105907 0.15141983
-0.1819493 0.359079 0.15630364
0.0075508952 0.359079 0.15072319
0.068026364 0.359079 0.15271011
-0.18167084 -0.359079 0.16347975
0.1649774 -0.359079 0.16842689
0.20780516 -0.359079 0.1644851
-0.235111 -0.32535052 0.16641352
0.22656199 -0.30089152 0.16719007
0.22656199 -0.26515979 0.16890223
-0.235111 -0.20810044 0.16557762
0.23231822 -0.066825405 0.16464673
-0.235111 -0.030565619 0.16737036
0.235111 -0.015550655 0.16371386
-0.235111 0.076230913 0.16605216
0.235111 0.089542434 0.1691512
-0.031850282 0.359079 0.16519588
-0.235111 -0.35900974 0.17934304
-0.17802458 -0.359079 0.1796205
-0.0073650107 -0.359079 0.17023268
-0.235111 -0.34972554 0.17311293
-0.235111 -0.15821573 0.17221335
-0.235111 -0.08591345 0.17530514
-0.235111 -0.060724348 0.17343064
-0.235111 -0.058374494 0.17123839
0.235111 -0.040563174 0.17217152
0.235111 -0.011965709 0.17432676
0.235111 0.082096934 0.17502668
0.22656199 0.10369195 0.17272386
-0.235111 0.2702353 0.17032199
-0.1723105 0.359079 0.17036921
-0.015944257 0.359079 0.17873871
0.10553442 0.359079 0.17941168
-0.12449822 -0.359079 0.182935
-0.062187657 -0.359079 0.18412995
-0.031788975 -0.359079 0.18440589
0.10798384 -0.359079 0.18462175
0.22656199 -0.35604978 0.1897323
0.22656199 -0.32965708 0.18570493
-0.235111 0.038954511 0.18651497
-0.235111 0.12276641 0.1888033
0.22656199 0.22775999 0.18574908
0.22656199 0.2429326 0.18466936
0.16118057 0.359079 0.18271521
-0.18335909 -0.359079 0.19235477
-0.007893838 -0.359079 0.1900858
0.061637148 -0.359079 0.19762859
-0.235111 -0.2833612 0.19864357
-0.235111 -0.18209942 0.19003496
-0.235111 -0.14452025 0.19532481
-0.23511098 0.089331776 0.19449191
0.22656199 0.10218915 0.19584377
-0.15365759 0.359079 0.19234805
0.012338432 0.359079 0.19506609
-0.21374117 -0.359079 0.2020019
-0.12223689 -0.359079 0.20080425
0.22656199 -0.30295044 0.2058146
-0.235111 -0.2951768 0.20321776
0.22656199 -0.19711281 0.20014104
-0.235111 -0.043264687 0.20666912
-0.235111 0.079166383 0.2077392
-0.235111 0.3019141 0.20556697
0.02046106 0.359079 0.20549998
0.035269476 0.359079 0.20136321
0.041868731 0.359079 0.2042148
0.163912 -0.359079 0.21715578
-0.235111 -0.31223929 0.2143842
0.22656199 -0.24573004 0.21353318
0.22656199 -0.1007778 0.21182135
-0.235111 0.015349016 0.21225581
-0.235111 0.021791354 0.21577719
0.22656199 0.32798249 0.21105048
-0.235111 0.33404136 0.21462326
0.13667408 0.359079 0.21860816
0.16889794 0.359079 0.21562743
0.22513425 0.359079 0.21182755
-0.235111 -0.35289228 0.22666329
-0.024940699 -0.359079 0.22896066
0.058770984 -0.359079 0.22519967
0.22656199 -0.29218477 0.22816779
-0.235111 -0.17513824 0.22373921
-0.235111 -0.10673855 0.22877771
0.22656199 -0.099171802 0.22907823
-0.235111 -0.05587858 0.22746748
-0.235111 0.059423089 0.22628765
0.22656199 0.16921595 0.22412933
0.22656199 0.19298419 0.22482738
-0.235111 0.28088745 0.22123414
0.039166018 0.359079 0.22891882
0.040076904 0.359079 0.22977972
0.13204771 0.359079 0.22684383
0.15196383 -0.359079 0.23897348
-0.23511101 -0.28303346 0.23669013
0.22656199 -0.090251788 0.23318058
-0.235111 0.13675198 0.2387217
0.22656199 0.18266378 0.2318784
-0.235111 0.2231136 0.23080248
-0.235111 0.24416421 0.23917583
0.22656199 0.34194884 0.23906484
-0.18334763 0.359079 0.23863339
-0.14718746 0.359079 0.23511082
-0.079215169 0.359079 0.23499507
-0.050552681 0.359079 0.23083299
-0.023266099 0.359079 0.23705101
0.09166535 0.359079 0.23153535
-0.23511101 -0.17696173 0.2447945
0.22656199 0.088774838 0.24936157
-0.020986877 0.359079 0.24974841
-0.19037351 -0.35584068 0.25648499
-0.13758399 -0.35705644 0.25648499
-0.089602426 -0.35549334 0.25648499
0.18023156 -0.35722053 0.25648499
0.13176686 -0.34503508 0.25648499
-0.071336731 -0.33986539 0.25648499
0.13559246 -0.33349586 0.25648499
-0.14008509 -0.32545179 0.25648499
0.054185785 -0.32820123 0.25648499
0.20881948 -0.32881173 0.25648499
0.090282589 -0.31853622 0.25648499
-0.052460007 -0.30887792 0.25648499
-0.035002537 -0.30163464 0.25648499
0.067558423 -0.29038909 0.25648499
0.090322971 -0.29917997 0.25648499
0.13633685 -0.29528716 0.25648499
0.15689398 -0.29989499 0.25648499
-0.14988881 -0.2833783 0.25648499
0.12205753 -0.28139943 0.25648499
0.21651503 -0.2835415 0.25648499
-0.041433565 -0.27831823 0.25648499
0.12825058 -0.27862477 0.25648499
0.13538717 -0.27089128 0.25648499
-0.23320504 -0.26562023 0.25648499
-0.13691778 -0.26476601 0.25648499
0.099790558 -0.26997513 0.25648499
-0.20866445 -0.25172228 0.25648499
0.049120378 -0.25940788 0.25648499
-0.075610265 -0.24444899 0.25648499
0.0068336055 -0.24154429 0.25648499
0.16949362 -0.24989669 0.25648499
-0.043038737 -0.23351449 0.25648499
-0.21721025 -0.22577214 0.25648499
-0.18689509 -0.22665194 0.25648499
-0.16228101 -0.22506616 0.25648499
-0.22999312 -0.21633497 0.25648499
-0.15476437 -0.21424294 0.25648499
-0.0056511387 -0.21460405 0.25648499
-0.19817077 -0.20628513 0.25648499
0.045485597 -0.19889601 0.25648499
-0.079147592 -0.1855759 0.25648499
-0.042554822 -0.1811318 0.25648499
0.13836847 -0.18465196 0.25648499
-0.046403065 -0.17758729 0.25648499
-0.013907701 -0.17584838 0.25648499
0.10682433 -0.17239836 0.25648499
-0.18613583 -0.1638575 0.25648499
-0.15851335 -0.16067338 0.25648499
0.032743629 -0.16877079 0.25648499
-0.13564068 -0.15219587 0.25648499
0.17156166 -0.15504432 0.25648499
-0.22097449 -0.14447963 0.25648499
-0.017673261 -0.1402241 0.25648499
0.058157846 -0.14085461 0.25648499
-0.235111 -0.13085854 0.25130063
-0.044993497 -0.135919 0.25648499
-0.16292442 -0.12220179 0.25648499
-0.17515323 -0.11840931 0.25648499
-0.13224865 -0.11832917 0.25648499
-0.017198756 -0.11153593 0.25648499
-0.0095477663 -0.10975107 0.25648499
-0.2305162 -0.094554782 0.25648499
-0.1639502 -0.096613571 0.25648499
0.033588693 -0.096191868 0.25648499
0.20523468 -0.082463712 0.25648499
0.22656199 -0.083028689 0.2507295
-0.0019445792 -0.070867009 0.25648499
0.20682175 -0.077058911 0.25648499
-0.11409642 -0.065676488 0.25648499
0.0087369084 -0.065440521 0.25648499
0.043000348 -0.060032561 0.25648499
0.13500835 -0.066438161 0.25648499
0.18361877 -0.069127537 0.25648499
-0.22637765 -0.058848582 0.25648499
-0.022478446 -0.056898572 0.25648499
0.031197712 -0.051895 0.25648499
0.14947312 -0.052652739 0.25648499
0.15972465 -0.052379508 0.25648499
0.0096873939 -0.044234604 0.25648499
0.15304235 -0.044164307 0.25648499
0.22403994 -0.045444041 0.25328577
-0.20331669 -0.033737168 0.25648499
-0.028746344 -0.03100425 0.25648499
0.15468499 -0.03831958 0.25648499
-0.15812194 -0.028957739 0.25648499
-0.13290972 -0.02087241 0.25648499
0.21998978 -0.013557419 0.25648499
-0.19305363 0.0071873218 0.25648499
-0.061855882 0.0090014264 0.25648499
0.18046571 0.0070439726 0.25648499
0.20795572 0.0084350323 0.25648499
-0.073850527 0.015534818 0.25648499
0.18940178 0.018115878 0.25648499
-0.053727634 0.029225633 0.25648499
-0.01460079 0.022922847 0.25648499
0.18483366 0.025675982 0.25648499
-0.14879124 0.03263855 0.25648499
-0.064642675 0.039646834 0.25648499
0.034702308 0.036778204 0.25648499
0.1530623 0.039605238 0.25648499
-0.093642488 0.041319698 0.25648499
-0.036970474 0.049371675 0.25648499
0.10371901 0.045777969 0.25648499
0.20769872 0.049902581 0.25648499
0.2152524 0.040924668 0.25648499
-0.20245257 0.050177533 0.25648499
-0.11048758 0.050465889 0.25648499
-0.0056252349 0.058670986 0.25648499
0.0044915602 0.06389156 0.25648499
0.083322421 0.06268774 0.25648499
0.047935504 0.079582676 0.25648499
-0.22973575 0.08172372 0.25648499
-0.1727376 0.086753555 0.25648499
-0.13195848 0.087430403 0.25648499
-0.089175954 0.086728044 0.25648499
-0.060593925 0.082073465 0.25648499
0.14263864 0.084495388 0.25648499
-0.044853359 0.097488955 0.25648499
0.001403546 0.091890752 0.25648499
0.096373238 0.09637972 0.25648499
-0.11297593 0.10888319 0.25648499
0.012225889 0.10972424 0.25648499
0.042160746 0.10134935 0.25648499
0.19499381 0.106204 0.25648499
-0.087986983 0.11535979 0.25648499
-0.037985809 0.12346616 0.25648499
0.18354435 0.1289344 0.25648499
-0.1623784 0.13306448 0.25648499
-0.037100799 0.13753298 0.25648499
0.033376217 0.13308904 0.25648499
-0.2051429 0.14453575 0.25648499
-0.085699812 0.14181185 0.25648499
-0.20697416 0.15111323 0.25648499
-0.15738288 0.15513811 0.25648499
-0.12199572 0.15385085 0.25648499
0.035916999 0.15885545 0.25648499
0.062465012 0.16694984 0.25648499
0.19401994 0.16337568 0.25648499
0.21328218 0.16290697 0.25648499
-0.087417178 0.17535271 0.25648499
0.16463371 0.17334273 0.25648499
0.036642697 0.18356863 0.25648499
0.0060609803 0.20447353 0.25648499
0.034885954 0.20380522 0.25648499
0.05092144 0.20034665 0.25648499
0.10671967 0.20612034 0.25648499
-0.11448456 0.2173804 0.25648499
0.041557048 0.21147251 0.25648499
-0.21809286 0.22705902 0.25648499
-0.14724217 0.22286552 0.25648499
0.060604259 0.2245656 0.25648499
0.11066059 0.22008251 0.25648499
0.22656199 0.22487132 0.25080517
-0.10918181 0.23851302 0.25648499
0.068580255 0.23435953 0.25648499
0.086392067 0.23498105 0.25648499
0.22656199 0.23050891 0.25620309
-0.11659146 0.24159539 0.25648499
-0.041716814 0.24634837 0.25648499
0.082440212 0.24256536 0.25648499
0.21433991 0.24894135 0.25648499
-0.20367889 0.25583556 0.25648499
-0.00070683658 0.25030294 0.25648499
-0.13116495 0.2635527 0.25648499
-0.0039788261 0.26278648 0.25648499
-0.11458559 0.27737358 0.25648499
0.012921818 0.27900022 0.25648499
0.12138993 0.27918205 0.25648499
0.22215229 0.27460444 0.25648499
-0.10145494 0.28699872 0.25648499
0.060545586 0.28701478 0.25648499
0.14956954 0.28322083 0.25648499
-0.20248871 0.29238731 0.25648499
0.083730683 0.296749 0.25648499
0.12155411 0.29463762 0.25648499
0.15678655 0.29781073 0.25648499
-0.14949788 0.30923104 0.25648499
0.10210259 0.30591601 0.25648499
-0.15416566 0.31645486 0.25648499
-0.098647237 0.31662524 0.25648499
0.059645891 0.31107026 0.25648499
0.10248753 0.31322062 0.25648499
-0.064519458 0.32064456 0.25648499
-0.20471939 0.3366501 0.25648499
-0.19551803 0.33297959 0.25648499
-0.018927321 0.33311456 0.25648499
0.013567191 0.34329933 0.25648499
0.13542476 0.34003773 0.25648499
-0.13088702 0.35789159 0.25648499
-0.044221945 0.35127676 0.25648499
0.052718244 0.359079 0.25178272
0.15430163 0.359079 0.25299773
0.17137301 0.35730374 0.25648499
