# .PCD v0.7 - Point Cloud Data file format
VERSION 0.7
FIELDS x y z
SIZE 4 4 4
TYPE F F F
COUNT 1 1 1
WIDTH 984
HEIGHT 1
VIEWPOINT 0 0 0 1 0 0 0
POINTS 984
DATA ascii
-0.16530237 0.291722 -0.24341269
0.12628569 0.29290691 -0.24566001
-0.015515536 0.30832702 -0.24566002
-0.03035289 0.31845495 -0.24566001
0.0052586086 0.3188974 -0.24566001
0.1866037 0.32090113 -0.24566001
-0.20207658 0.33010599 -0.24561262
-0.15037708 0.33010599 -0.24430871
0.14706941 0.33010599 -0.2429235
0.22665408 0.33010599 -0.24484375
-0.25412184 -0.33010599 -0.23711425
-0.11615849 -0.32374251 -0.237984
-0.00014621019 -0.32961923 -0.237984
-0.15917453 -0.31035489 -0.237984
-0.070519447 -0.31271428 -0.237984
0.13487072 -0.31344587 -0.237984
-0.14492759 -0.30230319 -0.237984
-0.13989778 -0.30714947 -0.237984
-0.27636799 -0.28101096 -0.2302925
-0.26126325 -0.28965104 -0.237984
-0.087488487 -0.28752917 -0.237984
-0.25879133 -0.27733615 -0.237984
-0.22659495 -0.27890322 -0.237984
0.055865329 -0.27572498 -0.237984
-0.055523187 -0.26327434 -0.237984
0.23666146 -0.26461831 -0.23414499
-0.17143908 -0.25709739 -0.237984
0.00111151 -0.25863856 -0.237984
0.12674668 -0.25089005 -0.237984
0.13886292 -0.25794861 -0.237984
-0.023624003 -0.23067318 -0.237984
0.078305595 -0.23689888 -0.237984
0.13348311 -0.23831685 -0.237984
-0.21057881 -0.22780406 -0.237984
-0.16667172 -0.22885409 -0.237984
0.047029898 -0.22292164 -0.237984
0.088480406 -0.2282107 -0.237984
0.14057536 -0.22803223 -0.237984
0.22083916 -0.22146085 -0.234145
-0.22067632 -0.21043308 -0.237984
-0.19130157 -0.20242435 -0.237984
0.11434618 -0.19027717 -0.237984
-0.010463953 -0.18639585 -0.237984
-0.18094097 -0.17066355 -0.237984
0.1182873 -0.17338635 -0.237984
-0.083587937 -0.16402245 -0.237984
-0.18077405 -0.15652595 -0.237984
-0.11305307 -0.15256274 -0.237984
0.11838971 -0.15137501 -0.23798399
0.10747176 -0.14122136 -0.237984
-0.13004927 -0.13350895 -0.237984
0.020060383 -0.1340777 -0.237984
-0.26268321 -0.12855637 -0.237984
0.049412519 -0.12325805 -0.237984
0.068034157 -0.12221321 -0.237984
0.1570344 -0.12727296 -0.237984
-0.27636802 -0.11773725 -0.23768142
-0.2422308 -0.11449086 -0.237984
-0.25048429 -0.10115771 -0.237984
-0.092835933 -0.099580415 -0.237984
0.10558259 -0.09302704 -0.237984
0.16088615 -0.099315614 -0.237984
-0.059841014 -0.088642582 -0.237984
-0.20044947 -0.072033226 -0.237984
-0.1002 -0.079440445 -0.237984
0.082565419 -0.079592459 -0.237984
0.16678789 -0.078433916 -0.237984
0.24002782 -0.078594536 -0.237984
-0.11807236 -0.064603969 -0.237984
-0.09086179 -0.060865447 -0.237984
0.23911239 -0.066210598 -0.237984
-0.051256776 -0.056686722 -0.237984
-0.044119358 -0.053609729 -0.237984
0.057774112 -0.050732896 -0.237984
0.23919 -0.052638829 -0.23239231
-0.24628764 -0.042120382 -0.237984
0.0383543 -0.04152105 -0.237984
-0.21419889 -0.035769157 -0.237984
-0.14442058 -0.035114031 -0.237984
0.020336017 -0.039738432 -0.237984
0.042827696 -0.034049086 -0.23798399
0.08725144 -0.032665242 -0.237984
-0.21151972 -0.020852461 -0.237984
-0.011666983 -0.02401951 -0.237984
0.1516196 -0.023938835 -0.237984
0.24004631 -0.024711505 -0.237984
-0.077573806 -0.013695985 -0.237984
0.038697645 -0.014042523 -0.237984
0.24566001 -0.018497996 -0.23141389
-0.17224884 -0.0085765272 -0.237984
-0.10843986 -0.0022987276 -0.237984
-0.040034037 -0.0011882102 -0.237984
0.16979435 -0.0052606836 -0.237984
-0.26412186 0.0040927529 -0.237984
-0.22243887 0.0022576898 -0.237984
0.035023626 0.006251689 -0.237984
0.22702539 0.014668557 -0.237984
-0.059314299 0.026415229 -0.237984
0.24566001 0.028539129 -0.23039149
-0.12271024 0.032335743 -0.237984
-0.10451494 0.03452852 -0.237984
0.0058829635 0.035522088 -0.237984
0.065959632 0.038436975 -0.237984
0.091549024 0.047662623 -0.237984
0.10455162 0.046057135 -0.237984
0.21775827 0.048992921 -0.237984
-0.24739087 0.057727411 -0.237984
-0.094932258 0.059478387 -0.237984
-0.013554722 0.056697033 -0.237984
-0.24403647 0.065876067 -0.237984
-0.18577987 0.065317445 -0.237984
-0.1923756 0.076269731 -0.237984
-0.18778875 0.084921122 -0.237984
0.19888516 0.085185558 -0.237984
-0.1837009 0.090362862 -0.237984
0.22509572 0.093777493 -0.237984
-0.19279413 0.10027375 -0.237984
0.042930059 0.11479212 -0.237984
0.2305759 0.11653609 -0.237984
-0.27095473 0.12768018 -0.237984
-0.16430353 0.12194108 -0.237984
-0.13760896 0.12365244 -0.237984
0.13878307 0.12465153 -0.237984
-0.037748586 0.1320679 -0.237984
-0.22256133 0.14835745 -0.237984
0.069955915 0.14815052 -0.237984
-0.14137241 0.15241846 -0.237984
0.19400835 0.15193246 -0.237984
-0.15952408 0.16669001 -0.237984
0.20543426 0.16614512 -0.23474666
0.22781 0.16121399 -0.23420671
-0.20015159 0.18357593 -0.237984
0.13765869 0.18205059 -0.237984
0.021722868 0.19912203 -0.237984
0.055706281 0.19592683 -0.237984
0.20578031 0.19067428 -0.237984
-0.27517244 0.2173499 -0.237984
-0.12137695 0.22886106 -0.237984
-0.16223885 0.23474082 -0.237984
0.051812261 0.23817065 -0.237984
-0.17438981 0.24103779 -0.237984
0.21568698 0.24257556 -0.230306
-0.040226579 0.25916451 -0.237984
-0.14425583 0.26964131 -0.237984
0.061850406 0.26097444 -0.237984
0.072199635 0.2688511 -0.237984
0.021664217 0.28061634 -0.237984
-0.083714336 0.33010599 -0.23381999
0.00079542259 0.33010599 -0.23499608
0.17120242 -0.33010599 -0.22241607
0.24566001 -0.13612819 -0.22712244
0.23919 -0.047385383 -0.22533737
-0.27636799 -0.0031709671 -0.22824693
-0.27636799 0.0028421581 -0.2298183
-0.27636799 0.021573186 -0.22028907
-0.27636799 0.065588556 -0.2227293
0.24566001 0.080895334 -0.22556682
-0.27636799 0.1015076 -0.22509906
-0.27636799 0.22274427 -0.22968069
-0.099208847 0.291722 -0.2281356
0.027422957 0.291722 -0.22898026
0.08966805 0.291722 -0.22340982
-0.18833825 0.33010599 -0.22258505
0.012789235 0.33010599 -0.22936526
0.19251315 0.33010602 -0.22849563
-0.15806013 -0.33010599 -0.2148533
-0.089293078 -0.33010599 -0.21976145
-0.047336292 -0.33010596 -0.21279593
0.17554948 -0.33010599 -0.21733037
0.24566001 -0.29521495 -0.21918684
0.24566001 -0.28212148 -0.21883175
0.21465999 -0.21495201 -0.21048884
0.21458204 -0.207276 -0.21449806
0.207276 -0.14382741 -0.21598691
-0.27636799 0.020093694 -0.2198236
0.20727599 0.030901298 -0.21261875
0.21234742 0.16121399 -0.21540628
-0.27636799 0.17359015 -0.21137671
0.23951547 0.27636799 -0.213643
0.14875945 0.291722 -0.21952902
-0.10051721 0.33010599 -0.21814018
-0.068087235 0.33010599 -0.21001905
0.22932687 0.33010599 -0.21286437
-0.21917331 -0.33010599 -0.201345
0.14278856 -0.33010599 -0.20293294
0.23612407 -0.33010599 -0.20262112
-0.27636799 -0.28092217 -0.20899977
-0.27636799 -0.10357752 -0.20474294
0.20727599 -0.081957504 -0.20349544
-0.27636799 0.061892271 -0.20913112
0.20727602 0.07696373 -0.20811869
-0.27636799 0.1711548 -0.20552661
-0.20132047 0.291722 -0.20557871
-0.12280739 0.291722 -0.20803201
-0.051827975 0.291722 -0.20431441
0.0091695115 0.291722 -0.20520529
0.20263919 0.291722 -0.20538384
-0.079647303 0.33010602 -0.20777249
-0.19506165 -0.33010599 -0.19466887
-0.27636799 -0.30842674 -0.19914195
-0.27636799 -0.28060892 -0.19073896
0.23815626 -0.21495201 -0.19559434
-0.27636799 -0.14086089 -0.19122289
-0.27636802 -0.10450812 -0.19364944
0.207276 -0.077858761 -0.19898784
-0.27636799 -0.05805625 -0.19364624
0.20727599 -0.0017770007 -0.19158997
-0.27636799 0.1740398 -0.19156215
-0.27636799 0.18228054 -0.19778258
0.24393651 0.18424501 -0.19658297
-0.27636799 0.25058335 -0.19970773
0.036159132 0.291722 -0.19341817
-0.26301092 0.33010599 -0.19363427
-0.2225844 0.33010596 -0.19385849
-0.11287769 0.33010599 -0.1957019
0.23859298 -0.207276 -0.18297407
0.20727602 0.094977051 -0.18988855
-0.27636799 0.11036566 -0.18915418
-0.27401406 0.291722 -0.18971516
-0.284044 0.32391271 -0.18131362
-0.005284436 0.33010599 -0.18206741
-0.073410347 -0.33010599 -0.17180707
0.24362668 -0.21495201 -0.17091203
0.207276 -0.1931743 -0.17449267
0.20727602 0.020540416 -0.17979391
-0.27636799 0.067362919 -0.1700584
0.24566001 0.28554529 -0.17880243
-0.26958996 0.291722 -0.17063925
-0.045389228 0.291722 -0.17323415
0.070717573 0.291722 -0.17616986
-0.17446689 0.33010599 -0.17851289
0.0018079057 0.33010599 -0.17585218
0.11935135 0.33010599 -0.17682102
0.14201942 0.33010599 -0.17443524
0.16310462 0.33010599 -0.17024848
0.15127352 -0.33010599 -0.1603599
0.21363047 -0.33010599 -0.16611227
0.24566001 -0.16529408 -0.16303115
-0.27636799 -0.12373569 -0.1697484
0.24566001 -0.12876579 -0.16689482
0.20727602 -0.11559379 -0.16964765
-0.27636799 0.10818158 -0.16865216
0.20727602 0.11826956 -0.16221024
-0.11207837 0.291722 -0.1629995
0.073474295 0.291722 -0.16356243
0.14824624 0.291722 -0.16289909
0.22706367 0.291722 -0.16115344
0.26101401 0.32477385 -0.16923553
-0.11133634 0.33010599 -0.16264224
-0.10787673 0.33010599 -0.16764545
-0.24851017 -0.33010599 -0.15446267
-0.19772203 -0.33010599 -0.1509975
-0.13909559 -0.33010599 -0.15294337
0.14407742 -0.33010602 -0.15525365
-0.27636799 -0.30258489 -0.15803635
-0.27636799 -0.20020473 -0.15409857
0.24566001 -0.20418619 -0.15565103
0.207276 -0.18271174 -0.15431973
0.24566001 -0.1389605 -0.15857987
-0.27636799 -0.12990507 -0.15066381
0.207276 -0.098194264 -0.15532306
-0.27636799 -0.084975474 -0.15510374
0.20727599 -0.072388321 -0.15568964
-0.27636802 -0.065399028 -0.15308078
-0.27636799 0.027891681 -0.1515407
-0.27636799 0.17276476 -0.15401913
0.24314635 0.18424502 -0.15836728
-0.27636799 0.23305278 -0.15194964
-0.27438647 0.291722 -0.15193486
-0.13136867 0.291722 -0.15957406
0.14037888 0.291722 -0.15514973
-0.16895227 0.33010599 -0.1585606
-0.031396814 0.33010599 -0.15735015
-0.27636799 -0.28569952 -0.14383711
0.24566001 -0.28416294 -0.14072712
0.27729014 -0.050349154 -0.14322224
0.207276 0.023471627 -0.14649594
0.23708242 0.168892 -0.14380132
-0.27636799 0.20685348 -0.14639255
-0.27636799 0.21056691 -0.14156926
-0.24928954 0.291722 -0.14966987
-0.039078906 0.291722 -0.14899166
0.22121644 0.291722 -0.14001596
-0.013144001 0.33010602 -0.14449412
0.018803958 0.33010596 -0.14572458
-0.13099459 -0.33010599 -0.1388648
0.24566001 -0.31358683 -0.13199401
-0.27636799 -0.30242932 -0.13527499
0.23922253 -0.21495201 -0.13057142
0.28189969 -0.068524025 -0.13852775
0.20727599 -0.037435569 -0.13683759
0.24566002 -0.035198331 -0.13252513
0.284044 -0.033788558 -0.13488826
0.26101401 0.0061119241 -0.13759127
-0.27636799 0.13246685 -0.13119522
0.24566001 0.15796579 -0.13308199
0.23574245 0.16121399 -0.13306588
0.23215367 0.268691 -0.13436542
-0.23644355 0.291722 -0.13215387
-0.19833055 0.291722 -0.13956681
-0.17260757 0.291722 -0.13810252
0.086574689 0.291722 -0.13123538
0.095276952 0.291722 -0.13543397
0.17710403 0.291722 -0.13675061
0.24418983 0.291722 -0.1374374
-0.12216163 0.33010599 -0.13871118
-0.071211949 0.33010599 -0.13068566
0.06868574 0.33010599 -0.13640745
0.13538808 0.33010599 -0.13347793
-0.067414574 -0.33010596 -0.12389807
0.2225249 -0.21495201 -0.1287403
-0.27636799 -0.20663483 -0.12491918
0.24566001 -0.017145626 -0.12985383
0.24566001 -0.0084450236 -0.12773797
-0.27636799 0.11437069 -0.1281985
-0.27162224 0.33010599 -0.12106645
-0.21817303 0.33010596 -0.12049201
-0.027864497 0.33010599 -0.12388805
0.19991495 0.33010599 -0.12916119
-0.23976286 -0.33010602 -0.1180086
-0.15679979 -0.33010599 -0.11791829
-0.12212311 -0.33010599 -0.11437102
0.10992087 -0.33010599 -0.1124711
-0.27636799 -0.30633697 -0.11457408
0.24566001 -0.27016824 -0.11702791
0.24566001 -0.15724176 -0.117011
0.24566001 -0.073928885 -0.11307296
0.24634707 -0.00079996319 -0.11292982
0.284044 0.024921581 -0.11662048
0.207276 0.04238715 -0.11566696
0.24566001 0.044893023 -0.11007088
0.24566001 0.15112522 -0.11162832
0.22720782 0.168892 -0.1145979
0.23732683 0.22633275 -0.11722291
0.231842 0.2329627 -0.11322114
-0.25418139 0.291722 -0.11692289
-0.23792081 0.291722 -0.11268294
0.032386154 0.291722 -0.11322265
-0.24924986 0.33010599 -0.11981893
-0.1685777 0.33010599 -0.11501628
-0.15691297 0.33010599 -0.11234505
-0.045869213 0.33010599 -0.11402021
0.22515689 0.33010599 -0.11040271
-0.25923011 -0.33010599 -0.10332016
-0.1871849 -0.33010596 -0.10050778
-0.047274463 -0.33010599 -0.10075793
0.28042844 -0.12811077 -0.10108781
0.26101401 -0.10655668 -0.10945079
0.27001753 -0.071758404 -0.10427293
0.24182102 -0.024122249 -0.10371697
0.25590751 0.012017762 -0.10155396
0.207276 0.058585182 -0.10969671
0.284044 0.052850567 -0.1085114
0.24566001 0.067032948 -0.10834189
-0.27636799 0.10937698 -0.101811
0.21371999 0.168892 -0.10815588
0.23184198 0.2082825 -0.10311769
-0.27636799 0.23449802 -0.10774928
0.24441263 0.24470128 -0.10154815
-0.26996216 0.291722 -0.10928632
-0.052037559 0.291722 -0.10950208
-0.284044 0.31229353 -0.10902687
-0.19450088 0.33010599 -0.10824157
0.24182099 -0.034302663 -0.091060176
0.2554673 0.035592027 -0.090018071
0.207276 0.097295299 -0.095141232
-0.27636799 0.1334964 -0.098946601
-0.27636799 0.2495721 -0.092088796
0.24345756 0.27636799 -0.093124792
-0.284044 0.3131724 -0.091948234
0.045496918 0.33010599 -0.093059003
0.19792177 0.33010599 -0.099708185
-0.11821016 -0.33010599 -0.083686747
-0.075894266 -0.33010599 -0.083906665
-0.034366872 -0.33010599 -0.084828094
0.284044 -0.11482812 -0.088095576
0.25874859 -0.099073142 -0.086465433
-0.27636799 -0.037320826 -0.083455034
0.207276 -0.039380196 -0.083474934
0.25796646 0.052076742 -0.087234482
0.24566001 0.067645416 -0.089858763
0.20727599 0.07441552 -0.084451631
-0.27376157 0.291722 -0.085593849
-0.11526692 0.291722 -0.086917773
-0.078396477 0.291722 -0.087530613
0.1602242 0.291722 -0.089349933
0.223215 0.291722 -0.080735378
-0.27853534 0.33010599 -0.089525454
-0.046336483 0.33010599 -0.088956207
0.1024753 0.33010602 -0.083602458
-0.27636799 -0.14737253 -0.071897425
0.27374509 -0.10649481 -0.079252914
-0.27636799 0.20299512 -0.078414112
0.23184201 0.22244515 -0.078109205
-0.15208225 0.291722 -0.077776752
0.11792565 0.291722 -0.077831581
0.16233562 0.291722 -0.073544919
0.03825748 0.33010602 -0.078694135
0.25898603 0.33010599 -0.078067102
-0.080736019 -0.33010599 -0.068683319
-0.051832035 -0.33010599 -0.062577084
-0.032042898 -0.33010599 -0.069640622
0.0019075125 -0.33010599 -0.061693996
0.20727599 -0.21154997 -0.066314071
0.21368042 -0.21495199 -0.067787908
-0.27636799 -0.20678875 -0.060996618
0.24765556 -0.11090901 -0.061808005
0.207276 -0.035875387 -0.069024064
0.237984 0.18946348 -0.063886754
-0.284044 0.29188684 -0.063726887
-0.044173226 0.291722 -0.062237754
-0.25195771 0.33010602 -0.069576524
-0.09860383 0.33010599 -0.06284532
-0.068677522 0.33010599 -0.063804716
-0.033968516 0.33010599 -0.067237407
0.19040731 0.33010599 -0.06093584
-0.26699814 -0.33010596 -0.05519069
-0.14844666 -0.33010602 -0.052022219
-0.039057445 -0.33010599 -0.054633625
0.24566001 -0.24187094 -0.056790151
0.23610052 -0.20727602 -0.057478897
0.24566001 -0.14021896 -0.059895143
-0.27636799 -0.097932801 -0.059907954
-0.27636799 -0.075177185 -0.053815525
-0.27636799 -0.067673527 -0.055384941
0.20727602 0.045940939 -0.053900979
0.284044 0.10036716 -0.05352065
0.20831135 0.16121399 -0.050553776
0.23184201 0.19407967 -0.051086955
-0.27636799 0.23531827 -0.055383198
0.23463807 0.268691 -0.050871115
-0.13446178 0.291722 -0.058107339
-0.033237129 0.33010599 -0.050099038
-0.0011650231 -0.33010599 -0.040999599
-0.27636799 -0.30843657 -0.045470826
0.24566001 -0.19763006 -0.047501534
0.207276 -0.12532702 -0.049605217
0.25549182 -0.11914992 -0.048009284
-0.27636799 0.072290339 -0.048515707
0.24566001 0.13338491 -0.046606753
0.24566002 0.16087991 -0.043730386
-0.020578444 0.291722 -0.048123494
0.11373395 0.291722 -0.04343342
0.15214491 0.291722 -0.042756997
-0.19579431 0.33010599 -0.041543901
0.09216693 0.33010599 -0.044242583
0.19653502 0.33010596 -0.042530842
-0.18652718 -0.33010599 -0.033669874
-0.15881263 -0.33010599 -0.038567394
0.16876122 -0.33010599 -0.037821084
0.24566001 -0.26437372 -0.032193832
0.207276 -0.17594089 -0.035136081
0.24555853 -0.12514685 -0.033335447
0.23441505 -0.085368708 -0.037781551
-0.27636799 -0.061375607 -0.031118443
-0.27636799 0.00032940507 -0.038486913
-0.27636799 0.02421722 -0.03534089
-0.27636799 0.082965992 -0.038875401
0.28093037 0.085558623 -0.038289838
0.24566001 0.10917767 -0.031356759
0.24566001 0.13378127 -0.031134028
-0.072854906 0.291722 -0.030452043
0.18695512 0.291722 -0.038310058
0.20390376 0.291722 -0.031679913
-0.09290202 -0.33010599 -0.023909084
-0.034755275 -0.33010599 -0.025160214
-0.27636799 -0.24612807 -0.028958138
0.24182099 -0.10233339 -0.020529993
-0.27636799 -0.034690462 -0.025629269
0.207276 -0.016062411 -0.027027577
0.24182101 0.044514969 -0.029520001
0.207276 0.050109573 -0.023027316
-0.27636799 0.26110861 -0.021535821
0.24566001 0.28345829 -0.025990546
-0.13214724 0.291722 -0.027519315
-0.067250311 0.291722 -0.020118989
0.0071829408 0.291722 -0.025230028
-0.231112 0.33010599 -0.029599071
-0.18935496 0.33010599 -0.020911127
-0.16692974 0.33010599 -0.021959208
-0.077907175 0.33010599 -0.024499567
0.02670972 0.33010599 -0.021579392
0.036378592 0.33010599 -0.027864605
0.10751548 0.33010599 -0.021185242
0.10932819 -0.33010599 -0.014476702
0.24566001 -0.22260076 -0.019057184
0.24182099 -0.11191179 -0.01535348
0.20727599 0.026915152 -0.019531706
-0.27636799 0.14339538 -0.012910489
-0.27636799 0.26623589 -0.019770131
-0.27636799 0.27630204 -0.010137352
0.237984 0.2745856 -0.013736233
-0.20801881 0.291722 -0.019618608
-0.17674977 0.291722 -0.012581788
-0.04893475 0.291722 -0.015977249
0.065721318 0.291722 -0.013324909
0.25070363 0.291722 -0.010819532
-0.19778608 0.33010599 -0.01897689
-0.079942174 0.33010599 -0.012952061
0.22061755 0.33010599 -0.016227446
-0.21784414 -0.33010599 -0.0034240559
0.10369087 -0.33010599 -0.0029230565
0.1591883 -0.33010599 -0.0084134564
0.24566001 -0.31234407 -0.00038727
0.24566001 -0.30457717 -0.0084514134
0.207276 -0.15118206 -0.0099073127
0.207276 -0.011685096 -0.0088732168
-0.27636799 0.012738168 -0.0072659478
0.24182099 0.05965738 -0.0098651499
0.284044 0.11021554 -0.0069804341
0.24566001 0.15441719 -0.0034929812
0.11246993 0.291722 -0.0099319592
-0.22036463 -0.33010599 0.007971257
-0.099610478 -0.33010599 0.009331828
0.24566001 -0.31878445 0.0084430948
-0.27636799 -0.22272494 0.00034618378
0.26101401 -0.15403961 0.0085548442
-0.27636799 -0.08723557 0.0086600259
0.2591536 0.291722 0.0087452456
0.056858134 0.33010599 0.0076691639
0.074960381 -0.33010599 0.015504215
-0.27636799 -0.31227368 0.011941046
-0.27636799 -0.25096595 0.018333511
-0.27636799 -0.18425351 0.011746347
0.26101401 -0.13319117 0.019134436
0.207276 -0.032949973 0.012671091
0.20727602 0.026264198 0.018580504
0.207276 0.15478741 0.010900678
0.20727602 0.16730899 0.012191024
0.237984 0.18736246 0.010764509
0.231842 0.19328791 0.013705119
-0.12948507 0.291722 0.015706021
0.032214634 0.291722 0.01341375
-0.25321135 0.33010596 0.010435909
-0.2407898 0.33010599 0.014908314
0.11787876 0.33010599 0.011154767
-0.21851879 -0.33010599 0.023171283
0.24566001 -0.29213518 0.021645829
0.21452931 -0.207276 0.028567275
-0.27636799 -0.1829626 0.024612408
0.26101401 0.087395154 0.020670943
0.284044 0.11674702 0.027466409
-0.20969713 0.33010599 0.026650317
0.23374024 0.33010599 0.029553071
-0.20462914 -0.33010599 0.036319397
0.22253893 -0.21495202 0.037698086
0.284044 -0.14640245 0.032513399
0.20727599 -0.072187647 0.033001363
-0.27636799 0.27824509 0.033386864
0.237984 0.27041352 0.03147985
-0.050653107 0.291722 0.033785552
0.054567747 0.291722 0.039034985
0.10732524 0.291722 0.038163748
0.24575201 0.291722 0.038103886
-0.21855108 0.33010599 0.038055323
-0.055160251 0.33010599 0.038704555
-0.19388403 -0.33010599 0.044001821
0.2126663 -0.21495202 0.049254186
0.23981087 -0.076306075 0.049722105
-0.27636799 0.046540275 0.040230423
0.28404403 0.084149629 0.046176434
0.284044 0.092806928 0.044127453
0.24548012 0.16121399 0.04635188
-0.27636799 0.28108519 0.048668846
-0.23139215 0.291722 0.048037909
0.26101401 0.3094925 0.041910663
-0.22196087 -0.33010599 0.050444953
-0.18310323 -0.33010599 0.056329444
0.010810541 -0.33010599 0.053706441
0.207276 0.014749618 0.059045117
0.24566001 0.14753437 0.057973802
0.207276 0.16417556 0.058756813
-0.22972773 0.291722 0.053375378
0.044050857 0.291722 0.05970446
0.12922323 0.291722 0.051300243
0.17320921 0.291722 0.055047568
0.23169366 0.291722 0.056404032
-0.23224902 0.33010599 0.054160826
-0.13966215 0.33010599 0.052304067
-0.0072419494 0.33010599 0.059745029
0.049967386 0.33010599 0.055284292
0.21401815 0.33010599 0.052863359
0.26016501 0.33010599 0.056481361
-0.1452695 -0.33010599 0.069123834
-0.056617614 -0.33010599 0.069089487
0.20631662 -0.33010602 0.064561158
-0.27636799 -0.32438669 0.066102192
0.21901527 -0.21495201 0.069024719
0.284044 -0.15068695 0.066988692
0.25430119 -0.11031573 0.062612355
0.24182101 -0.085039079 0.067154273
-0.27636799 0.24216305 0.06125211
-0.22060221 0.291722 0.06034518
-0.07467173 0.291722 0.066469871
-0.036403336 0.291722 0.060180195
-0.095623083 0.33010599 0.06531471
0.052224893 0.33010599 0.061793186
-0.06499245 -0.33010599 0.077469036
-0.050411496 -0.33010599 0.072808176
-0.27636799 -0.32477915 0.077585436
0.24566001 -0.24060872 0.077159017
0.20727602 -0.15559751 0.073300004
0.26101401 0.06454315 0.078112409
-0.27636802 0.077142172 0.074503645
0.284044 0.093211994 0.071030065
-0.27636799 0.14066643 0.070757762
0.22131673 0.168892 0.070342369
-0.27636799 0.26902485 0.075045079
-0.20622256 0.291722 0.079789378
0.19572939 0.291722 0.074056461
-0.0078662895 0.33010599 0.079323024
0.10775951 0.33010599 0.077654973
0.18719418 -0.33010599 0.080799371
-0.27636799 -0.30512428 0.084553406
-0.27636799 -0.24345201 0.083725452
0.24566001 -0.24690256 0.088628836
0.207276 -0.18911111 0.088868931
0.25657678 0.037736379 0.088616654
0.25256488 0.045073498 0.083070606
-0.27636799 0.21889451 0.084531151
-0.21212858 0.33010599 0.083989315
0.038980193 0.33010599 0.083065793
0.10931138 0.33010599 0.088361263
-0.17907125 -0.33010599 0.094332576
-0.048602547 -0.33010599 0.091531649
0.082469687 -0.33010599 0.096099161
0.10726225 -0.33010599 0.099538587
-0.27636799 -0.19478905 0.09887208
-0.27636799 -0.1870757 0.091089144
0.26926139 -0.1349016 0.093514323
0.24182101 -0.039164841 0.09291932
0.26101401 0.06158033 0.099723317
0.23690638 0.168892 0.091538608
0.231842 0.2488344 0.097319007
0.2161895 0.291722 0.097484216
-0.284044 0.30066627 0.092113033
-0.26516953 0.33010599 0.093557402
0.14257234 0.33010599 0.095449634
0.2437326 0.33010599 0.099703677
-0.20838225 -0.33010602 0.10113352
0.24323294 -0.21495201 0.1002041
0.24106337 -0.207276 0.10937653
0.207276 -0.10661989 0.10864317
0.284044 -0.083109476 0.1014176
-0.27636799 -0.03121835 0.10277142
-0.27636799 -0.024949182 0.10355113
0.20727602 0.054958217 0.10774833
0.284044 0.065544277 0.10166046
-0.27636799 0.14782402 0.1018937
0.207276 0.14028212 0.10436441
0.231842 0.19192508 0.10687354
-0.27636799 0.22451864 0.10406836
-0.27636799 0.24237156 0.10498326
-0.26438713 0.291722 0.10624065
-0.1120181 0.291722 0.10240244
0.18089052 0.291722 0.10728656
-0.10458821 0.33010599 0.10768479
0.083005428 0.33010599 0.10077894
0.284044 -0.041884545 0.11861882
0.27239206 -0.034909826 0.11451867
0.27681392 -0.024894193 0.11509073
0.26287317 -0.016268175 0.11357532
0.284044 0.030204963 0.11109985
0.284044 0.046083137 0.11530334
0.20727602 0.10846321 0.11863965
0.24566001 0.13950938 0.11604883
0.237984 0.26140234 0.11840551
-0.1902466 0.291722 0.11153258
-0.1502481 0.291722 0.11476357
-0.032900527 0.291722 0.1186256
0.00047203153 0.33010599 0.11963748
0.11886772 0.33010599 0.11779373
-0.18210427 -0.33010599 0.1248017
-0.059862223 -0.33010599 0.12194224
-0.27636799 -0.19165823 0.12599549
0.207276 -0.19925302 0.12399458
0.24566001 -0.082495116 0.12576857
-0.27636799 -0.056416195 0.12686309
0.26101401 -0.038507875 0.12056792
0.284044 -0.0013804468 0.12533389
0.207276 0.068987265 0.12514283
-0.11255757 0.291722 0.12908411
0.078255951 0.291722 0.12075787
0.26101401 0.2978977 0.1214302
-0.093941994 0.33010599 0.12743929
-0.089331262 0.33010599 0.12651663
-0.033908151 0.33010599 0.12906525
0.20691809 0.33010599 0.12096934
0.16206679 -0.33010599 0.13916309
0.17740023 -0.33010599 0.13787612
0.24566001 -0.32198465 0.13830511
0.2091648 -0.21495201 0.1334527
-0.27636799 -0.031368665 0.13961954
0.24566001 -0.038684998 0.13644764
0.207276 0.053397078 0.1391134
-0.27636799 0.087713607 0.13710777
-0.23282748 0.291722 0.13722457
-0.053854838 0.291722 0.13196394
0.18919484 0.291722 0.13024294
-0.016982473 0.33010599 0.13897941
0.044174172 0.33010599 0.13012481
0.078478627 -0.33010599 0.14305714
-0.27636799 -0.20652482 0.14485657
0.24566001 -0.15590653 0.14650901
0.207276 -0.13713133 0.14735027
-0.27636799 -0.089818552 0.14924964
0.27897325 -0.025180951 0.14579716
-0.27636799 -0.016763665 0.14813524
0.26663965 -0.0045381044 0.14462802
0.26519027 0.0049789273 0.14309272
-0.284044 0.29977712 0.14657886
-0.26615947 0.291722 0.14956066
-0.17276226 0.291722 0.14194924
-0.083721355 0.291722 0.14718968
0.18155648 0.291722 0.14398529
-0.17438783 0.33010596 0.14637868
-0.059270658 0.33010599 0.14452243
-0.25906432 -0.33010599 0.1532788
0.12571448 -0.33010599 0.15708429
0.23768122 -0.207276 0.15178423
-0.27636799 -0.14570317 0.15406364
0.24566001 0.013119005 0.15965486
-0.27636799 0.064898215 0.15881951
-0.27636799 0.21281025 0.1504672
-0.27636799 0.25374773 0.155495
-0.14049621 0.291722 0.15851957
-0.095131882 0.291722 0.15980776
-0.19545676 0.33010599 0.1594076
-0.023294479 0.33010599 0.15149279
0.1410227 -0.33010599 0.16242149
-0.27636799 -0.22180662 0.16636938
-0.27636799 -0.20435649 0.16376211
0.24566001 -0.19666167 0.16933022
0.24566001 -0.052099794 0.16291469
-0.27636799 -0.011863016 0.16180763
0.207276 0.16214103 0.16911072
0.237984 0.21418144 0.1690426
-0.284044 0.29900143 0.16841877
-0.183125 0.291722 0.1673764
0.1496949 0.291722 0.1680304
-0.26565209 0.33010599 0.16704229
-0.18535942 0.33010602 0.1666193
0.24566001 -0.21542741 0.17320324
0.207276 -0.19704689 0.17609134
0.24566001 -0.1847593 0.17310303
0.207276 -0.15346998 0.17584667
-0.27636799 -0.11430883 0.17629565
0.207276 -0.11873156 0.17142302
0.24566001 -0.069470905 0.17609
-0.27636799 0.23085462 0.17137092
-0.27636799 0.27990818 0.17506725
-0.0040617622 0.291722 0.17654866
0.031758402 0.291722 0.17892683
-0.23930965 0.33010599 0.17329121
-0.074715719 0.33010596 0.17019874
-0.014432028 0.33010596 0.17525508
-0.072864383 -0.33010599 0.18150529
0.066925444 -0.33010599 0.18171972
-0.27636799 -0.25569639 0.18521015
0.24566001 -0.23620877 0.18478277
-0.27636799 -0.21090233 0.18912926
0.23980969 -0.21495201 0.18507044
-0.27636799 -0.12053742 0.1827049
0.24566001 0.083976679 0.18965101
0.207276 0.11729829 0.18363297
-0.27636799 0.16406573 0.18974119
-0.27636799 0.21711686 0.18461828
-0.27636799 0.23519582 0.18297946
-0.25059247 0.291722 0.18748716
-0.22999778 0.291722 0.1872431
-0.21788591 0.291722 0.18994968
-0.097805128 0.291722 0.18815248
-0.008810861 0.291722 0.18458462
0.19070974 0.291722 0.18995777
-0.14404885 0.33010599 0.18829744
0.096650019 0.33010599 0.18815988
-0.27511638 -0.33010599 0.19144985
-0.19869047 -0.33010596 0.19910102
-0.0033684149 -0.33010599 0.19398613
0.24566001 -0.19104967 0.19148964
0.24566001 -0.073721029 0.19696781
0.24566001 0.099211335 0.19391374
0.20727602 0.10568444 0.19386716
0.207276 0.1650078 0.19826293
-0.27636799 0.25096205 0.19132495
0.24566001 0.28956258 0.1922597
-0.076515555 0.291722 0.19111404
0.063793041 0.291722 0.19807956
-0.284044 0.30795121 0.19964001
-0.034910671 0.33010599 0.19109033
0.029198719 0.33010599 0.19566852
0.062311992 0.33010599 0.19423902
0.23578447 0.33010599 0.19347638
0.24566001 -0.27649823 0.20141032
0.24566001 -0.095098577 0.20489089
-0.27636799 0.0059020966 0.20004043
0.24565999 0.041979976 0.20330751
-0.27636799 0.23762526 0.20604165
-0.029731208 0.291722 0.20423526
-0.11837254 0.33010599 0.20607042
-0.10275944 0.33010599 0.20774712
-0.075260341 0.33010599 0.20784453
-0.066611014 0.33010599 0.20965326
0.12342431 0.33010599 0.20335516
-0.010093991 -0.33010599 0.21822512
0.069064967 -0.33010602 0.21858332
-0.27636799 -0.29468283 0.2112173
-0.27636799 -0.18694809 0.21169566
0.207276 -0.033017702 0.21451843
0.20727599 0.019136652 0.21661127
0.207276 0.047146276 0.2144751
-0.27636799 0.053730652 0.21203673
-0.27636799 0.081082791 0.21008463
0.22869903 0.16121399 0.21157038
0.237984 0.19842434 0.2194062
-0.27636799 0.24993163 0.21685442
0.00088277459 0.291722 0.21620584
0.26101401 0.30728233 0.21912213
-0.21007849 0.33010599 0.21665616
-0.06482818 0.33010599 0.21967867
-0.18579771 -0.33010599 0.22925308
-0.14606014 -0.33010599 0.22511387
0.23310767 -0.21495201 0.22312556
-0.27636799 -0.19343501 0.22491813
0.24566001 -0.1142755 0.22137389
0.207276 0.043735683 0.22823688
-0.27636799 0.069288589 0.22159712
0.24566001 0.087735862 0.22919115
0.24466063 0.18424501 0.22857159
0.237984 0.22004211 0.22281885
-0.27283618 0.29172197 0.22728986
-0.143416 0.291722 0.22397658
0.19718191 0.291722 0.22741467
-0.284044 0.30234599 0.22853723
0.22355813 0.33010599 0.22592917
-0.20831174 -0.33010599 0.23751163
0.020726427 -0.33010599 0.23431495
0.09809199 -0.32907781 0.23798302
-0.18089354 -0.31361884 0.237983
-0.053514816 -0.3185249 0.237983
-0.01919584 -0.30762428 0.23798299
-0.22027573 -0.29319924 0.23798299
0.046413481 -0.29039878 0.23798302
0.064317934 -0.29334676 0.237983
-0.22025068 -0.28694439 0.237983
-0.14598557 -0.28407398 0.23798299
0.074550539 -0.28760484 0.237983
-0.20327194 -0.27705595 0.23798302
-0.16636279 -0.27430841 0.237983
-0.12673934 -0.27613661 0.23798302
-0.22702986 -0.26255393 0.237983
-0.10245086 -0.26770812 0.23798302
0.067259252 -0.26769421 0.23798299
0.2253072 -0.26543614 0.234145
-0.27174842 -0.25696239 0.237983
-0.20513135 -0.2593601 0.23798299
-0.14569268 -0.24250433 0.237983
0.098383158 -0.24739309 0.23798299
-0.26356426 -0.23474163 0.237983
-0.10406386 -0.23592058 0.23798302
-0.23132755 -0.22838101 0.23798299
-0.12538746 -0.22922088 0.23798299
0.13157676 -0.22943829 0.237983
0.1152255 -0.21216345 0.237983
0.24447519 -0.21495201 0.23223864
-0.082558662 -0.20229867 0.23798299
-0.0077484176 -0.20975378 0.237983
-0.15082239 -0.19766442 0.23798299
-0.075570092 -0.19565983 0.237983
0.23520935 -0.19050536 0.23798302
-0.24537602 -0.1710238 0.237983
-0.077410445 -0.17813766 0.237983
0.11311032 -0.1727576 0.23798299
-0.09401986 -0.16374806 0.23798299
0.017316334 -0.16928343 0.237983
0.041388743 -0.16065329 0.23798299
0.1636025 -0.16959378 0.237983
-0.07665021 -0.15673938 0.23798299
0.1182946 -0.14939927 0.23798302
0.24184579 -0.14190744 0.23798302
-0.22173414 -0.13682924 0.23798299
-0.073988505 -0.13442916 0.23798302
-0.0026307665 -0.13972479 0.237983
0.1636268 -0.13818242 0.237983
-0.24329747 -0.11115032 0.237983
0.13510701 -0.11299486 0.23798299
0.16998127 -0.11281995 0.23798299
-0.15946911 -0.10694686 0.23798299
-0.20853585 -0.098756991 0.23798299
-0.18845072 -0.092353612 0.237983
-0.14666986 -0.096492954 0.23798299
0.080488741 -0.093273364 0.23798302
-0.08924067 -0.088099867 0.23798299
0.20727599 -0.087506413 0.23733461
-0.12631166 -0.073471121 0.237983
-0.25660703 -0.062400907 0.237983
-0.238271 -0.069993146 0.23798299
-0.14767893 -0.058829531 0.23798302
-0.018833078 -0.054627225 0.23798299
0.011916103 -0.053350829 0.23798302
-0.2326538 -0.041423939 0.23798299
0.19715655 -0.048289001 0.237983
0.22584118 -0.042156413 0.237983
-0.27636799 -0.032512918 0.23374921
-0.2374393 -0.034877904 0.23798299
-0.023728287 -0.039040077 0.237983
0.013793193 -0.031278253 0.237983
-0.22807801 -0.025291137 0.237983
0.0068798885 -0.019658491 0.237983
0.041195668 -0.017179087 0.237983
0.080264524 -0.011905178 0.23798302
-0.050561249 -0.0074531138 0.237983
-0.0086332634 -0.0036751926 0.237983
0.088654913 0.001159206 0.23798299
0.20138606 0.0075495616 0.237983
-0.20107037 0.013987586 0.237983
-0.14130694 0.019048348 0.237983
-0.023050919 0.016815796 0.23798302
0.16145962 0.010314539 0.23798299
-0.27415639 0.025742086 0.23798302
-0.20634985 0.0261616 0.23798302
-0.15076256 0.026398182 0.23798299
-0.071550928 0.021591842 0.237983
0.12983328 0.02099742 0.23798302
-0.18045731 0.038334481 0.237983
-0.0090162195 0.039240099 0.23798299
0.22751941 0.036236107 0.23798299
-0.27579352 0.041500598 0.23798302
-0.25723752 0.047629174 0.237983
-0.12608689 0.040663131 0.23798302
-0.10859361 0.047432102 0.23798302
-0.2540257 0.052210465 0.23798299
-0.01060643 0.054367691 0.237983
-0.083026536 0.067709439 0.23798299
-0.01630006 0.067122526 0.23798302
0.23835252 0.070450976 0.237983
0.20521104 0.089588553 0.237983
-0.044521131 0.096815199 0.23798302
-0.19657847 0.11505546 0.23798302
0.1395115 0.11686639 0.237983
-0.17037719 0.12790053 0.23798302
-0.15093201 0.13008173 0.237983
0.17836393 0.13519798 0.23798299
0.21140358 0.13939793 0.237983
-0.18397734 0.1406917 0.23798302
-0.063434094 0.14682701 0.23798299
0.022447899 0.14181349 0.237983
0.10826381 0.15954162 0.237983
0.19163783 0.17933071 0.237983
0.01096186 0.18778527 0.23798299
-0.26262331 0.19718482 0.23798299
0.12626146 0.19166295 0.23798299
0.22013395 0.19955423 0.230306
-0.19103824 0.20726635 0.237983
-0.0544414 0.21322288 0.23798302
0.12421326 0.21805881 0.237983
-0.23602228 0.22631669 0.237983
0.036658786 0.23667106 0.237983
-0.18426017 0.24639527 0.23798302
-0.0037632212 0.24293339 0.237983
-0.17646646 0.25486603 0.237983
-0.16045007 0.25521922 0.23798302
0.13550948 0.25821906 0.23798299
-0.27457133 0.26551461 0.237983
0.016526505 0.26564205 0.23798302
0.12589784 0.26301143 0.237983
-0.0065800697 0.28761816 0.237983
-0.15702757 0.291722 0.23877417
0.11435971 0.291722 0.23863405
0.18574715 0.291722 0.23492643
0.21706979 0.291722 0.2373289
-0.2598367 0.291722 0.24414848
-0.20813981 0.29364371 0.24566001
-0.19729829 0.291722 0.24517168
-0.17728904 0.291722 0.24393067
-0.21920812 0.30015278 0.24566001
-0.17503737 0.30103511 0.24566001
-0.022740848 0.31970114 0.24566001
0.080505565 0.31085253 0.24566001
0.11567974 0.31639761 0.24566001
-0.075302102 0.32090953 0.24566001
0.12711322 0.32062912 0.24566001
0.028412357 0.33010602 0.24360532
0.062092956 0.33010599 0.24557003
