# .PCD v0.7 - Point Cloud Data file format
VERSION 0.7
FIELDS x y z
SIZE 4 4 4
TYPE F F F
COUNT 1 1 1
WIDTH 971
HEIGHT 1
VIEWPOINT 0 0 0 1 0 0 0
POINTS 971
DATA ascii
0.033409528 -0.30148709 -0.30530703
0.10025264 -0.30131164 -0.305307
0.1232605 -0.30640602 -0.305307
0.17327173 -0.30596885 -0.305307
-0.23117404 -0.29061034 -0.305307
-0.0012491122 -0.29376683 -0.305307
-0.22372817 -0.28788087 -0.305307
0.0085501075 -0.28798121 -0.30530697
-0.19028224 -0.27559271 -0.305307
-0.18964978 -0.27022091 -0.305307
-0.094307803 -0.27870825 -0.305307
-0.052134879 -0.27407435 -0.30530703
0.029603526 -0.27158859 -0.30530697
0.075556286 -0.27318764 -0.305307
-0.11541852 -0.26775575 -0.305307
-0.095482387 -0.26093897 -0.305307
-0.24491553 -0.2526961 -0.30530697
-0.16302648 -0.25087911 -0.305307
-0.13476147 -0.25936887 -0.305307
-0.17191495 -0.24653095 -0.30530703
-0.037947729 -0.24774055 -0.305307
0.075310692 -0.24787578 -0.305307
-0.06508778 -0.23568365 -0.305307
-0.22771075 -0.22538808 -0.305307
-0.11409653 -0.22345987 -0.305307
-0.068996325 -0.22640058 -0.305307
-0.19499198 -0.21992542 -0.305307
-0.18907022 -0.21763332 -0.30530697
-0.006068483 -0.21454471 -0.305307
0.01287695 -0.21500686 -0.305307
-0.24704996 -0.20762351 -0.305307
-0.20699657 -0.20191863 -0.305307
-0.020133182 -0.20726171 -0.305307
0.02945517 -0.20392798 -0.305307
0.15167734 -0.20599748 -0.305307
-0.1118423 -0.19354539 -0.305307
-0.088815995 -0.19232076 -0.305307
-0.053149156 -0.18925194 -0.305307
-0.23773068 -0.17728944 -0.305307
-0.2034104 -0.17066585 -0.305307
-0.051984735 -0.1644173 -0.305307
0.058345139 -0.16917118 -0.305307
0.08315444 -0.16175945 -0.305307
0.1029735 -0.16141091 -0.305307
0.14787936 -0.16507114 -0.305307
0.2157844 -0.16882202 -0.305307
-0.034007482 -0.15839812 -0.305307
0.0097437166 -0.15822707 -0.305307
-0.22129117 -0.14572409 -0.305307
-0.17654684 -0.14129885 -0.305307
-0.17806038 -0.13249919 -0.305307
-0.099055044 -0.13762033 -0.305307
0.046062641 -0.13208181 -0.305307
0.052026086 -0.13614811 -0.305307
-0.13795698 -0.121863 -0.305307
-0.23197474 -0.11650233 -0.305307
-0.20467713 -0.11276454 -0.305307
-0.1955253 -0.11924526 -0.305307
-0.11164156 -0.11563523 -0.305307
-0.058002941 -0.1119397 -0.305307
-0.22650799 -0.10463316 -0.305307
-0.15970626 -0.10860161 -0.305307
0.074616209 -0.10748617 -0.305307
0.2238581 -0.09035214 -0.305307
-0.18652251 -0.083898604 -0.305307
-0.17290694 -0.087780744 -0.305307
-0.075372316 -0.086885564 -0.305307
-0.20404395 -0.077378221 -0.305307
-0.09522754 -0.074311048 -0.305307
0.033484064 -0.070702024 -0.30530697
0.049853217 -0.075184092 -0.305307
0.08736746 -0.074695744 -0.305307
-0.15729412 -0.067618623 -0.305307
-0.14618233 -0.069720879 -0.305307
0.21440007 -0.067269363 -0.305307
-0.24156651 -0.048267461 -0.305307
-0.093717344 -0.043805797 -0.305307
0.0068165893 -0.046541993 -0.30530703
0.006471321 -0.03018789 -0.305307
-0.22613382 -0.020273879 -0.305307
0.15363473 -0.022750843 -0.305307
0.21980581 -0.026870981 -0.305307
-0.17256826 -0.017090984 -0.305307
0.12919351 -0.012315355 -0.305307
0.15152064 -0.01589806 -0.305307
-0.21295841 -0.0016791546 -0.305307
-0.14539659 -0.0013188794 -0.305307
-0.090020314 -0.0011156872 -0.305307
-0.081318356 -0.0074278787 -0.305307
-0.011608958 -0.0052434728 -0.305307
-0.23069337 0.0064043701 -0.305307
-0.20541894 0.004372105 -0.305307
-0.19398493 0.017117927 -0.305307
-0.06406302 0.011135347 -0.305307
-0.045985922 0.016948678 -0.305307
-0.078171946 0.066171266 -0.305307
0.231885 0.063728198 -0.30245966
-0.249723 0.071427666 -0.30369249
-0.1270324 0.075025059 -0.305307
0.025178788 0.075916313 -0.305307
0.14022443 0.070666373 -0.305307
-0.080118626 0.087929934 -0.305307
-0.024758168 0.085499451 -0.305307
0.082451321 0.081991233 -0.305307
0.22049633 0.08286427 -0.305307
-0.2413066 0.096885204 -0.305307
-0.23583096 0.0990915 -0.305307
-0.012851186 0.096945539 -0.305307
0.22976513 0.094722949 -0.305307
-0.24850981 0.10618989 -0.30453259
0.046493821 0.10207254 -0.305307
0.029527191 0.11638537 -0.305307
-0.007793773 0.12510602 -0.305307
0.019634105 0.12594005 -0.305307
0.069119804 0.12719043 -0.305307
0.071128771 0.1237672 -0.305307
0.14817394 0.12226136 -0.305307
0.22415937 0.12674241 -0.305307
0.22339918 0.13990925 -0.305307
-0.18482228 0.14555949 -0.305307
0.016314518 0.14128059 -0.305307
0.19747595 0.14097859 -0.305307
-0.21788603 0.15647556 -0.305307
-0.12963876 0.15160237 -0.30530697
0.11077859 0.15168026 -0.305307
-0.13879119 0.16687433 -0.305307
0.018249281 0.16212805 -0.305307
0.051154532 0.162873 -0.305307
0.065921225 0.16667375 -0.305307
0.089928061 0.16472751 -0.305307
-0.15550372 0.17057852 -0.305307
0.15759143 0.18633066 -0.305307
-0.11541393 0.19598943 -0.305307
-0.028117128 0.19763806 -0.305307
0.13491313 0.19725537 -0.305307
-0.19008335 0.20424256 -0.305307
-0.070154808 0.20782636 -0.30530703
-0.038655736 0.2083649 -0.30530703
-0.027562134 0.21640383 -0.305307
0.13930722 0.2120911 -0.305307
0.08875981 0.22675 -0.30485702
-0.22081882 0.26327807 -0.305307
-0.2083624 0.307289 -0.30225828
-0.19517955 0.30728897 -0.30255362
-0.18942477 0.307289 -0.30510235
-0.16149625 -0.307289 -0.29471332
0.231885 -0.16934901 -0.29939908
-0.249723 -0.062909581 -0.2919586
0.231885 -0.038714893 -0.29520792
0.23188502 0.077522911 -0.29639402
-0.249723 0.13564424 -0.29371482
-0.24972299 0.15998937 -0.29881564
-0.24972299 0.18034175 -0.29300544
-0.18124144 0.22675 -0.29865208
-0.189327 0.29197952 -0.29631662
0.231885 -0.28536838 -0.28447166
0.23188502 -0.031194605 -0.28361058
0.231885 0.033494614 -0.28579229
0.23188499 0.1056287 -0.28527626
-0.065254986 0.22675 -0.28852183
0.042868376 0.22675002 -0.28600264
-0.10087672 -0.307289 -0.27316332
-0.249723 -0.18906181 -0.27446118
-0.249723 -0.059040509 -0.27351841
-0.24972299 0.19885841 -0.27392122
-0.0034798384 0.22675 -0.2713016
0.18193477 0.22674999 -0.27594543
-0.23462768 0.307289 -0.27432078
0.231885 -0.26701713 -0.26281807
0.231885 -0.25293225 -0.26748639
0.23188502 -0.0061912797 -0.2687242
-0.249723 0.10973748 -0.26295209
0.23188502 0.19161086 -0.26257291
0.073276706 0.22675002 -0.26271135
0.08586365 0.22675002 -0.26477683
0.20918044 0.22675 -0.26986676
-0.189327 0.2736176 -0.26569808
0.0097344369 -0.307289 -0.25418964
0.026747689 -0.307289 -0.25798535
0.18261692 -0.307289 -0.2585189
0.231885 -0.22554259 -0.25267765
0.231885 -0.20792794 -0.25222123
-0.249723 -0.1777029 -0.2587159
-0.24972302 -0.16226235 -0.25291127
0.231885 -0.10822733 -0.25618571
-0.24972299 -0.086726062 -0.25293106
0.23188499 0.0085870326 -0.25632307
0.23188499 0.052419856 -0.25846368
0.23188499 0.080491826 -0.25992388
0.23188502 0.10467125 -0.25132674
-0.249723 0.18714416 -0.25503993
0.20514803 0.22675 -0.25113207
0.21592945 0.22675 -0.25580111
-0.24972299 0.26986399 -0.25701013
-0.189327 0.297171 -0.25380352
-0.23791976 0.307289 -0.25106794
-0.18715647 -0.307289 -0.24711563
-0.16428778 -0.307289 -0.24463049
-0.13812441 -0.307289 -0.24732348
-0.093223065 -0.307289 -0.24673852
0.060616069 -0.307289 -0.24187559
0.22245236 -0.307289 -0.24246714
0.23188499 -0.12487034 -0.24990256
0.231885 0.0075876107 -0.24454562
0.23188499 0.10737634 -0.24955924
0.043252483 0.22675002 -0.24578415
0.22209355 0.22675 -0.24141802
-0.189327 0.29302421 -0.2484602
-0.2212099 -0.307289 -0.23964529
0.0083685145 -0.307289 -0.23503926
0.19464667 -0.307289 -0.23684418
0.231885 -0.22480586 -0.23281826
0.23188499 -0.1642095 -0.23929986
0.231885 0.061854463 -0.2385679
-0.06180137 0.22675002 -0.23964477
-0.18932699 0.24074762 -0.23658167
-0.24972299 0.27272862 -0.23618512
-0.067163169 -0.307289 -0.22118042
0.10424674 -0.307289 -0.22421087
0.13243057 -0.307289 -0.22060475
0.23092133 -0.307289 -0.22623745
-0.24972299 -0.25136608 -0.2203643
-0.249723 -0.22117904 -0.22746606
0.231885 -0.0033375472 -0.22589721
-0.24972302 0.071502201 -0.22366965
0.23188502 0.10649563 -0.22168261
-0.249723 0.11468574 -0.22159146
0.23188502 0.11318604 -0.22982985
-0.021209326 0.22675 -0.22242716
0.13658935 0.22675 -0.22035792
-0.24509245 0.307289 -0.22244541
-0.249723 -0.304665 -0.21559815
0.080764025 -0.307289 -0.21729571
0.17373665 -0.307289 -0.21695131
-0.249723 -0.072423503 -0.21921167
0.242695 -0.075126491 -0.2132957
-0.249723 0.19024539 -0.21446106
0.23188499 0.21993682 -0.21570951
-0.189327 0.22776666 -0.21329723
0.20694837 0.22675002 -0.21134646
-0.189327 0.24012004 -0.21392818
-0.20021875 0.307289 -0.21477833
-0.22819701 -0.307289 -0.20953509
0.16546516 -0.307289 -0.20212339
0.231885 -0.2256618 -0.20430627
-0.24972302 -0.21043901 -0.2014872
0.242695 -0.069874287 -0.20759891
-0.249723 0.086398393 -0.20892596
-0.24972302 0.17020355 -0.20823394
-0.13331135 0.22674999 -0.20790617
0.13467434 0.22675 -0.2088459
-0.23337378 -0.307289 -0.19763781
-0.15861571 -0.307289 -0.19318074
0.040807568 -0.307289 -0.1930856
0.069439881 -0.307289 -0.19295627
-0.249723 -0.21392535 -0.19045918
-0.24972299 -0.032441296 -0.19189364
0.23188502 0.10889134 -0.1970305
-0.11246429 0.22675 -0.19256708
-0.074951127 0.22675002 -0.19305784
-0.22278544 -0.307289 -0.18905947
0.086283073 -0.307289 -0.1879805
0.2081207 -0.307289 -0.18908234
0.231885 -0.2794697 -0.18989852
0.23188502 -0.19731805 -0.18612286
0.23714483 -0.166365 -0.18248227
-0.24972299 -0.15881264 -0.18617231
-0.24972299 -0.0967976 -0.18998194
-0.0019067423 0.21256807 -0.18174878
-0.0015686058 0.22322443 -0.18184045
-0.027682414 0.23756099 -0.18406132
0.074440241 0.23756102 -0.18409657
-0.189327 0.25235799 -0.18033428
-0.19498202 0.307289 -0.18476538
-0.23560485 -0.307289 -0.17561461
-0.052456193 -0.307289 -0.17691623
0.013040967 -0.307289 -0.17930138
0.14466465 -0.307289 -0.17838021
-0.24972299 -0.25179204 -0.17560738
0.23322955 -0.16654734 -0.17569718
-0.24972299 -0.046400666 -0.17145187
-0.24972299 0.012675643 -0.17707208
-0.249723 0.13279308 -0.17512098
0.23188502 0.17803593 -0.17267603
-0.24972299 0.19897446 -0.17774838
-0.016680833 0.20603673 -0.17774327
-0.029537184 0.21967626 -0.17425768
-0.037562951 0.23101985 -0.17208175
-0.0010720566 -0.307289 -0.16971382
0.13596261 -0.307289 -0.16681242
0.2335121 -0.166365 -0.16428399
-0.249723 -0.063134357 -0.16786742
0.24531609 -0.020829925 -0.168029
0.008431334 0.19702099 -0.16071105
-0.045097247 0.20500298 -0.16949458
0.15892571 0.22675 -0.16943912
-0.249723 0.23914766 -0.16453747
-0.20848726 0.307289 -0.16230281
-0.15568632 -0.307289 -0.15377265
-0.12901494 -0.307289 -0.15049924
-0.11051805 -0.307289 -0.15881753
0.10151887 -0.307289 -0.15532427
0.18365821 -0.307289 -0.15099636
-0.24972299 -0.21558215 -0.15079871
0.242695 -0.081300378 -0.15450352
0.23188502 0.12749314 -0.15384975
-0.10057526 -0.307289 -0.14785641
0.099364787 -0.307289 -0.14247827
0.12572342 -0.307289 -0.14753813
0.14549024 -0.307289 -0.1406901
-0.24972299 -0.164886 -0.14208139
-0.249723 -0.13096459 -0.14459407
-0.24972299 0.036708809 -0.14513806
-0.24972302 0.098450668 -0.14152166
-0.10201099 0.22801222 -0.14479515
0.17544718 0.22675 -0.14603296
0.20978057 0.22674999 -0.14521635
-0.24972302 0.25538012 -0.14626512
-0.22780415 -0.307289 -0.13905764
-0.10569886 -0.307289 -0.13607763
-0.24972302 -0.25182292 -0.1365304
0.23188502 -0.23273121 -0.13077722
-0.24972299 -0.12759249 -0.13740544
-0.050363734 0.19702099 -0.13830604
-0.17857292 0.22675002 -0.13704625
0.15019572 0.237561 -0.13497706
0.16052991 0.23323986 -0.13454616
-0.189327 0.24543898 -0.13063005
-0.189327 0.28536981 -0.13564867
-0.1217373 -0.307289 -0.12364174
-0.064164355 -0.307289 -0.1295103
0.23188499 -0.21431029 -0.1272953
0.242695 -0.028132003 -0.1237621
0.242695 0.010661467 -0.12130331
0.231885 0.15187973 -0.12704262
0.15224174 0.19702099 -0.12603477
0.23188502 0.20210329 -0.12495159
-0.24972299 0.24420808 -0.12557898
-0.21330443 -0.307289 -0.11840256
-0.17120996 -0.307289 -0.1165567
-0.24972299 -0.18953471 -0.11046796
-0.24972302 -0.023185544 -0.11339095
-0.072915658 0.19702099 -0.11335958
0.13531798 0.19702101 -0.1175561
-0.24972302 0.20434189 -0.11569059
-0.11304972 0.20347293 -0.11717935
0.15941218 0.229744 -0.119284
-0.24972299 0.24691013 -0.11947474
-0.21698096 -0.307289 -0.10299182
-0.087523095 -0.307289 -0.10599997
-0.249723 -0.24906904 -0.10240364
-0.24972302 -0.20888068 -0.10507408
-0.24972299 -0.19472924 -0.10499692
0.23188499 -0.19471529 -0.10898051
0.23188502 0.13969366 -0.10362873
-0.24972299 0.18902433 -0.10446713
-0.24972302 0.19453943 -0.1087165
-0.095095649 0.19702098 -0.1090936
-0.24972302 0.21700095 -0.10487328
-0.249723 0.2876581 -0.10078993
-0.23276226 0.307289 -0.10426746
-0.24449168 -0.307289 -0.092472136
-0.20903373 -0.307289 -0.092038646
0.089433663 -0.307289 -0.099117383
-0.24972299 -0.030420579 -0.099448621
-0.24972302 0.061605386 -0.091742873
0.242695 0.064265676 -0.099808164
-0.24972299 0.1001805 -0.094303593
-0.048658401 0.19702099 -0.095938317
-0.189327 0.24590743 -0.09757185
-0.189327 0.26903656 -0.093977042
-0.24972302 0.3068983 -0.096768096
0.14106762 -0.307289 -0.088492304
-0.249723 -0.20474598 -0.088390201
-0.24972302 -0.15655434 -0.083153009
-0.249723 -0.076734275 -0.082907729
0.23188502 0.10113181 -0.082533181
-0.10912596 0.19702098 -0.080019452
-0.040206846 0.19702101 -0.088138349
0.034357321 0.19702099 -0.08771953
0.15866303 0.19702099 -0.080569804
0.23188502 0.19902986 -0.08260829
0.18018471 0.20414701 -0.085994191
-0.24972302 0.21145353 -0.086607896
-0.14948152 0.22675002 -0.089575768
-0.24972302 0.25004333 -0.083777539
-0.24972299 0.26923174 -0.086360753
-0.24972299 -0.27046707 -0.076435573
0.242695 -0.12450197 -0.078227118
-0.249723 0.085353099 -0.079186395
-0.249723 0.11890624 -0.076749526
0.231885 0.14659142 -0.07133697
0.21728233 0.22675 -0.07018517
-0.189327 0.30527949 -0.07909473
-0.2352868 -0.307289 -0.069290072
-0.1123535 -0.307289 -0.06894207
0.23188499 -0.25661311 -0.06329678
0.231885 -0.24235412 -0.062341958
0.231885 -0.19039914 -0.062578157
0.231885 -0.17754832 -0.06151066
0.231885 0.1517733 -0.061476454
0.011162014 0.19702099 -0.069779217
0.23188499 0.19641459 -0.06341701
-0.249723 0.20027238 -0.06459716
0.23188499 0.20398574 -0.060166746
0.231885 0.21183988 -0.060031459
0.10132631 -0.307289 -0.053402774
0.23188502 -0.21786854 -0.050013993
-0.249723 -0.088911213 -0.058109067
-0.24972299 0.069487028 -0.054975558
0.04461091 0.19702099 -0.05795927
0.15021344 0.19702099 -0.058957931
0.19209906 0.20406155 -0.053011641
-0.1763797 0.22675 -0.057547987
-0.22862622 0.307289 -0.059725367
-0.24842051 -0.307289 -0.045018587
-0.249723 -0.29442996 -0.041542351
0.23188499 -0.26329634 -0.049339741
-0.24972302 -0.14589249 -0.047559142
-0.249723 -0.014607064 -0.048605591
-0.24972302 0.025281593 -0.048251748
-0.249723 0.071513504 -0.047607221
-0.249723 0.16995075 -0.048028409
-0.249723 0.1976603 -0.045373738
-0.21603136 -0.307289 -0.035024181
-0.15591896 -0.307289 -0.034681015
0.17339061 -0.307289 -0.031935692
0.23188502 0.093008041 -0.038416229
-0.12586537 0.19702099 -0.036628604
-0.14909613 0.2024288 -0.032952398
0.19670071 0.22028363 -0.036038481
0.2050131 0.23756099 -0.037640885
-0.24972302 0.25003922 -0.038163364
-0.2312161 0.307289 -0.035132091
-0.16598544 -0.307289 -0.027997099
0.013290497 -0.307289 -0.021726275
0.18555057 -0.307289 -0.021097824
0.231885 -0.28491229 -0.028144095
0.231885 -0.26905063 -0.026506823
0.231885 -0.21921146 -0.023008086
0.242695 -0.11767901 -0.020010747
0.242695 -0.077132881 -0.028185345
0.242695 -0.0522727 -0.024773806
0.242695 -0.047013447 -0.029970884
-0.249723 -0.032927945 -0.027974486
-0.24972299 -0.0069737928 -0.025046585
-0.24972299 0.16268851 -0.025688156
-0.067905605 0.19702099 -0.022852439
0.12893423 0.19702098 -0.027519304
0.231885 0.22201455 -0.021807909
-0.189327 0.26621816 -0.023123369
-0.2189879 0.307289 -0.027333364
-0.044106081 -0.307289 -0.013789311
0.068541758 -0.307289 -0.016725712
0.076247692 -0.307289 -0.015434563
0.15484668 -0.307289 -0.012086645
0.231885 -0.19621865 -0.018936791
-0.249723 -0.052640863 -0.013312906
-0.24972302 0.033092387 -0.015218956
0.23188502 0.15346491 -0.010430947
0.23188502 0.18461308 -0.011284903
-0.051102202 0.19702099 -0.013338897
0.091175854 0.19702099 -0.016330939
-0.14948417 0.21403466 -0.011002914
-0.249723 0.22763705 -0.014263332
-0.189327 0.2612406 -0.019751161
0.23188502 -0.18951625 -0.00072451681
0.242695 -0.14210711 -0.0066444129
0.242695 -0.0763622 -0.0048507173
-0.24972302 -0.061425768 -0.001190275
-0.02159404 0.19702099 -0.0042238459
-0.14945641 0.20034245 -0.0015998315
-0.14948121 0.22317001 -0.0099957772
-0.189327 0.28896096 -0.005736988
-0.24422106 0.307289 -0.0061110258
-0.23259133 -0.307289 0.0099714994
-0.13439338 0.19702099 0.0066431724
0.23188502 0.19933693 0.0013172328
-0.14944075 0.23396353 0.0037010708
-0.2119922 0.307289 0.0076534823
-0.19126527 -0.307289 0.014071256
-0.047614574 -0.307289 0.018568119
0.078040704 -0.307289 0.0156404
0.231885 -0.2816717 0.01952289
-0.24972299 -0.22828925 0.014340155
-0.249723 -0.13962027 0.011521555
0.242695 -0.055039059 0.017460728
-0.249723 0.049694419 0.01916936
0.242695 0.051544368 0.014238613
0.23652266 0.088763498 0.018814605
0.23188499 0.10617555 0.014695864
0.04483816 0.19702098 0.017555192
0.18974018 0.19702101 0.019590205
-0.24972302 0.2947163 0.01573211
-0.23568057 -0.307289 0.026484299
-0.062973961 -0.307289 0.024487099
0.031414591 -0.307289 0.021972453
0.096796274 -0.307289 0.028885391
0.23188499 -0.29524878 0.024324909
0.23188502 -0.25081694 0.021605365
0.23188499 -0.17397678 0.025107883
-0.24972299 -0.057827927 0.024641529
-0.12093838 0.19702101 0.025808234
-0.061018214 0.19702098 0.024089444
0.15104073 0.19702101 0.024725799
-0.14680302 0.21734104 0.02406886
0.22532032 0.22674999 0.020202518
-0.24972302 0.2967453 0.021636784
-0.2206594 -0.307289 0.038866334
-0.17200243 -0.307289 0.030091777
0.11427455 -0.307289 0.034967385
0.1323207 -0.307289 0.030404251
0.20515935 -0.307289 0.035491303
0.231885 -0.24878058 0.035387136
0.242695 -0.091728084 0.034860127
-0.249723 -0.071561821 0.035138946
-0.249723 0.0093812943 0.031354353
0.242695 0.077061079 0.037643198
0.231885 0.17930004 0.033583034
-0.12007473 0.19702099 0.035370521
0.22996446 0.22675002 0.038869552
0.20474997 0.23455453 0.034747116
-0.249723 0.28383994 0.038577229
-0.2173239 -0.307289 0.040740244
0.17696719 -0.307289 0.048104391
-0.24972299 -0.25989771 0.04777047
0.242695 -0.12631154 0.049354687
0.242695 -0.074999638 0.045118898
0.23188499 0.1594778 0.043577526
-0.249723 0.19567171 0.046234578
-0.11391909 0.19702099 0.046336785
0.10949291 0.19702099 0.040865809
-0.15660256 0.22675002 0.043259252
-0.24972299 0.28592908 0.044064507
-0.16653164 -0.307289 0.053139567
-0.11933853 -0.307289 0.055753257
0.23188499 -0.22918296 0.056550082
-0.24972302 -0.043110415 0.056066245
-0.24972302 0.023673244 0.054192275
0.046263378 0.19702098 0.053940829
-0.21947221 -0.307289 0.067993589
-0.12966378 -0.307289 0.064481094
-0.096645117 -0.307289 0.061916776
-0.249723 -0.22098325 0.064223662
0.23188499 -0.16778925 0.061040439
0.242695 -0.12182806 0.062432691
-0.24972299 -0.05194696 0.064546853
0.242695 0.020325955 0.064701326
0.242695 0.062047571 0.06916514
0.231885 0.1028223 0.065175429
0.23188499 0.13677955 0.069889203
-0.189327 0.28095299 0.069914296
-0.24124612 -0.307289 0.07568685
-0.08202751 -0.307289 0.070852943
-0.063957892 -0.307289 0.07537926
0.242695 -0.073740125 0.078003839
-0.24972302 -0.062842816 0.072882473
-0.249723 -0.058712188 0.079612128
-0.24972302 -0.011080623 0.071042717
-0.12544276 0.19702099 0.075531349
-0.074679084 0.19702099 0.073052354
0.231885 0.21282887 0.076465853
0.231885 0.22519287 0.075289063
-0.24972299 0.25829679 0.073317729
-0.24972302 0.2700336 0.079621993
-0.014254518 -0.307289 0.0829309
0.15917465 -0.307289 0.081743859
-0.24972302 -0.20164211 0.081648037
0.231885 -0.1911096 0.0896639
0.242695 -0.16050965 0.083043888
0.242695 -0.11668292 0.082915045
0.242695 -0.099741101 0.08747223
0.242695 -0.072779119 0.08423575
0.242695 0.040072247 0.082850069
-0.24972302 0.062643796 0.089832544
-0.070310012 0.19702101 0.081032909
0.061534829 0.19702101 0.084566265
-0.249723 0.21958211 0.084993988
-0.249723 0.28759181 0.083251625
-0.049103945 -0.307289 0.097686432
0.013088472 -0.307289 0.095625944
0.027330406 -0.307289 0.093923301
0.21074148 -0.307289 0.093648501
-0.249723 -0.26391003 0.09251605
-0.24972302 -0.11932822 0.090002909
0.242695 -0.047376186 0.093785375
0.231885 0.20868342 0.090974808
-0.24972299 -0.29980454 0.10492089
-0.249723 -0.28989941 0.10696551
0.23188502 -0.27531666 0.10396017
0.242695 -0.12850721 0.10576876
0.242695 -0.0022773854 0.10030568
-0.249723 0.00044764578 0.10499979
0.242695 0.040721375 0.10626675
0.242695 0.059114907 0.10969353
0.231885 0.17343608 0.10891985
-0.23191336 0.307289 0.10588869
-0.02611215 -0.307289 0.11229438
0.231885 -0.28534883 0.11083177
-0.249723 -0.26591745 0.11250436
-0.24972302 -0.19421819 0.11056509
-0.249723 -0.096900322 0.11856318
0.242695 -0.0065104142 0.11800589
0.242695 0.028326582 0.11536799
0.022301506 0.19702101 0.11259599
-0.189327 0.23758583 0.11799205
0.1609454 0.23300825 0.11714036
-0.24972299 0.29065168 0.11852292
-0.23207474 -0.307289 0.12324217
-0.085577257 -0.307289 0.12689115
0.23188499 -0.25512794 0.12199682
0.242695 -0.12237194 0.12398752
0.242695 -0.065742165 0.12210517
0.242695 -0.019899897 0.12232069
-0.24972302 0.01430964 0.12719692
-0.24972302 0.13145973 0.12625039
0.23188502 0.16793358 0.12326003
0.231885 0.18792477 0.12126982
0.042183798 0.19702099 0.1232785
0.231885 0.19341302 0.12113671
-0.249723 0.21776637 0.12507653
-0.16208024 0.22675002 0.12375503
-0.24972299 0.24423897 0.12722123
-0.249723 0.25950325 0.12684426
-0.21377982 -0.307289 0.13191357
0.065277867 -0.307289 0.13490562
-0.249723 -0.18581548 0.13187724
0.242695 -0.010476349 0.13065387
0.242695 0.0052167699 0.13122284
-0.249723 0.16553181 0.13115403
0.097908631 0.19702101 0.13717449
-0.189327 0.25098497 0.13488889
-0.24972302 0.27126607 0.13425703
-0.17655875 -0.307289 0.14192677
-0.11232883 -0.307289 0.144401
-0.051108263 -0.307289 0.14523454
0.087703541 -0.307289 0.14788057
-0.24972302 -0.18455112 0.14317574
-0.24972302 0.011845522 0.14652185
0.242695 0.069105908 0.14979847
0.231885 0.10460013 0.14354084
-0.249723 0.12776117 0.14993483
-0.24972302 0.16940124 0.14892384
-0.010656933 0.19702099 0.14177288
0.11263484 0.21599039 0.14048812
0.21784148 0.22675002 0.14743276
0.231885 0.22505677 0.14636941
-0.17331171 -0.307289 0.1567376
-0.15656325 -0.307289 0.15823801
-0.019790731 -0.307289 0.15919849
0.052865177 -0.307289 0.15323447
0.242695 -0.079096742 0.15408599
0.242695 0.0082712639 0.15795647
0.242695 0.013281987 0.15425771
-0.249723 0.050196037 0.15511903
0.23390222 0.089064494 0.15333244
0.081750877 0.20614311 0.15537019
0.094515257 0.2108081 0.15102115
-0.16830322 0.22674999 0.15722819
-0.15850993 0.22675 0.15455152
-0.11706322 0.22674999 0.15818907
0.10559524 0.22675 0.15867695
0.16492809 0.22675002 0.15604711
-0.22453281 0.307289 0.15400735
0.21001071 -0.307289 0.1670935
0.23188499 -0.19809416 0.16536199
-0.249723 -0.13156781 0.16400406
0.242695 0.031479351 0.16174495
-0.249723 0.13270113 0.16165231
0.23188502 0.14530364 0.16579567
-0.0024997345 0.21495271 0.16364338
-0.15222014 0.22675 0.16963121
-0.05538309 0.22801262 0.16014102
0.1288809 0.22675 0.16264561
-0.20582734 -0.307289 0.17283134
-0.249723 -0.27704692 0.17401201
-0.249723 -0.19919306 0.17727609
0.242695 -0.049856573 0.1788317
0.231885 0.19083533 0.17525338
0.16603392 0.22675 0.1713524
0.17893371 0.22674999 0.17753425
0.1891202 0.22675002 0.17190072
-0.196894 0.28223807 0.17692415
-0.249723 -0.23652029 0.18605614
0.24269499 -0.16463891 0.18802983
-0.249723 0.19887191 0.18849504
-0.249723 0.20507155 0.18413189
-0.17332782 0.22675 0.18141976
0.12722251 0.22675 0.18889859
0.14217794 0.22674999 0.18837403
-0.24972299 0.24734817 0.18974707
-0.24972302 0.2653794 0.18691412
-0.249723 0.27293316 0.18930553
-0.189327 0.27823973 0.18475588
-0.11382729 -0.307289 0.19118519
-0.10539059 -0.307289 0.19288473
0.23244572 -0.11902675 0.19730398
-0.24972299 -0.078759395 0.1993448
0.23675075 0.023292165 0.19730401
0.23463812 0.081255764 0.19730398
0.231885 0.11105967 0.19391057
0.231885 0.13891348 0.19931628
-0.16217835 0.22674999 0.19042084
-0.1084455 0.22675 0.19897339
-0.189327 0.27437603 0.19192554
-0.2161558 -0.307289 0.20707403
-0.13302287 -0.307289 0.20712005
-0.249723 -0.22368912 0.20279907
-0.249723 -0.21454993 0.20490175
-0.249723 -0.17466909 0.20072006
0.231885 -0.090402685 0.20941074
0.231885 -0.037000462 0.20530856
-0.004847303 0.22675 0.2035439
0.0065304786 0.22675 0.20355654
-0.21807183 0.307289 0.20537308
-0.11225878 -0.307289 0.21883279
-0.044741027 -0.307289 0.218849
0.19518773 -0.307289 0.2174132
0.231885 -0.26351887 0.21997684
0.23188502 -0.060475413 0.21148762
-0.24972299 0.04563221 0.21734275
-0.24972299 0.10450368 0.217113
-0.16394836 0.22675 0.21845263
-0.10994457 0.22675 0.21364582
-0.045502551 0.22675002 0.21622974
0.12123637 0.22675 0.21103702
0.20236978 0.22674999 0.21178812
-0.18436913 0.26425213 0.21080723
-0.15120941 -0.307289 0.22903988
-0.1122993 -0.307289 0.22248596
0.15549462 -0.307289 0.22691567
0.18270986 -0.307289 0.22449256
0.2090397 -0.307289 0.22463088
-0.249723 -0.27054974 0.22677593
-0.249723 -0.19428684 0.22781834
-0.24972299 -0.18361731 0.22576791
0.23188502 -0.11541329 0.2286458
0.23188499 0.17147438 0.22714932
-0.249723 0.1827964 0.22561547
-0.11061914 0.22675002 0.22315302
-0.17635401 0.24660392 0.22361296
0.018661395 -0.307289 0.23196214
0.029531635 -0.307289 0.2363196
0.15942864 -0.307289 0.23218378
-0.24972299 -0.1343758 0.23931558
-0.249723 -0.10914893 0.23379289
-0.249723 -0.091364481 0.23910663
-0.24972302 0.17703691 0.23438963
0.231885 0.17295584 0.23500937
-0.054082483 0.22674999 0.23477344
-0.016091075 0.22675 0.23410626
0.16955787 0.22675 0.23522064
-0.24972299 0.29656759 0.23757321
0.23188499 -0.28717342 0.24204676
-0.249723 -0.22127816 0.24553731
0.231885 -0.042475283 0.24144311
-0.24972302 0.071511231 0.24992043
-0.24972299 0.13912737 0.24911499
-0.24972299 0.19619974 0.24769582
-0.249723 0.24499823 0.2418419
-0.18338102 0.2924135 0.24328382
-0.19359465 0.307289 0.24860236
-0.011754587 -0.307289 0.25435045
0.231885 -0.28036821 0.2530143
-0.249723 -0.23448123 0.25254688
0.23188502 -0.1660943 0.25007093
-0.249723 -0.1355571 0.25684658
0.23188499 -0.12515806 0.2581045
-0.24972302 -0.07909058 0.25664178
0.23188502 0.070458993 0.25058252
0.231885 0.10288145 0.2557427
-0.249723 0.16713202 0.2566877
-0.026144598 0.22674999 0.25099373
-0.19844095 0.307289 0.25498575
0.21432173 -0.307289 0.26348412
-0.249723 -0.24704321 0.26528215
0.23188499 -0.24518418 0.26520044
0.231885 -0.21621978 0.26433703
-0.249723 -0.20077887 0.26801756
0.231885 0.16116905 0.26938555
0.23188499 0.18416651 0.26661429
0.04688482 0.22675 0.26775792
-0.249723 0.25786591 0.26491025
-0.249723 0.29735759 0.2669647
-0.22834045 -0.307289 0.2772924
0.097300716 -0.307289 0.27367273
-0.249723 -0.25713533 0.27676511
-0.249723 0.027806839 0.2752457
-0.093472295 0.22675002 0.27203679
-0.189327 0.2730979 0.27443129
-0.24330828 0.307289 0.27704298
-0.21539575 0.307289 0.27690303
-0.23035404 -0.307289 0.2861239
0.026729353 -0.307289 0.28855622
0.042233407 -0.307289 0.28883681
0.231885 -0.28604493 0.28906521
0.23188499 -0.22552925 0.28539142
0.23188502 -0.057828955 0.28928694
-0.24972302 0.025526937 0.2802805
-0.027221678 0.22675 0.28116536
-0.249723 0.23974127 0.28381243
-0.22829807 0.307289 0.28897062
0.17370322 -0.307289 0.29700065
-0.24972302 -0.23805349 0.29477152
0.231885 -0.23509318 0.29312879
-0.249723 -0.22605096 0.29370627
0.23188499 -0.076845706 0.29280084
-0.249723 0.013088901 0.2901651
0.14260904 0.22675 0.29970944
-0.249723 0.26604569 0.29316312
-0.249723 0.28000736 0.29137596
-0.20543936 -0.307289 0.3020376
-0.14904267 -0.30431455 0.305307
-0.13872114 -0.30613878 0.305307
-0.055925623 -0.30665469 0.305307
-0.041265495 -0.307289 0.30288732
0.037982732 -0.307289 0.30244565
0.1137782 -0.30582023 0.305307
0.15361017 -0.30033353 0.305307
0.17523503 -0.3021881 0.305307
0.21701889 -0.30511498 0.305307
-0.019796351 -0.29569787 0.305307
0.056709893 -0.29132316 0.305307
-0.064220458 -0.2826187 0.305307
-0.22120427 -0.27164188 0.305307
-0.2193629 -0.27451095 0.305307
-0.14591876 -0.27079007 0.305307
-0.079544596 -0.27710351 0.305307
0.069722503 -0.27737638 0.305307
0.19235815 -0.2724579 0.305307
-0.18919629 -0.25882971 0.305307
-0.004195191 -0.25396726 0.305307
0.080644108 -0.25298715 0.305307
0.1795657 -0.25280991 0.305307
-0.031180419 -0.24104816 0.305307
0.231885 -0.24530168 0.30113932
-0.18679874 -0.23558615 0.305307
-0.12455122 -0.23246466 0.305307
-0.079783596 -0.23760067 0.305307
-0.020690992 -0.23141155 0.30530703
-0.16321121 -0.22532062 0.305307
0.051542595 -0.22616696 0.305307
0.18675874 -0.22978617 0.305307
0.19079757 -0.22657645 0.30530703
0.049744494 -0.21560927 0.305307
0.079282172 -0.21705306 0.305307
-0.053473458 -0.20138457 0.305307
-0.23560819 -0.19297089 0.305307
-0.12284269 -0.19025409 0.305307
0.088847309 -0.19104126 0.305307
-0.2475715 -0.18905966 0.305307
-0.036143601 -0.18094048 0.305307
0.11143714 -0.18477836 0.305307
-0.21474078 -0.17236203 0.305307
-0.035273485 -0.17625967 0.305307
0.20114124 -0.17050636 0.305307
0.05095087 -0.16407651 0.305307
0.16403718 -0.16299751 0.305307
0.23188502 -0.16865072 0.30284566
-0.18780819 -0.15241568 0.305307
-0.14242452 -0.15093739 0.305307
0.021436054 -0.14969531 0.305307
0.17401609 -0.14580253 0.305307
0.021848928 -0.13696022 0.305307
-0.23191568 -0.12844568 0.305307
-0.15032426 -0.12338802 0.30530703
-0.0085207224 -0.12220071 0.305307
0.0086483955 -0.11677778 0.305307
0.010920718 -0.11335303 0.305307
-0.17245188 -0.10650355 0.305307
-0.15167645 -0.10037665 0.305307
-0.071727827 -0.10526762 0.305307
0.044139523 -0.10370688 0.305307
0.15566833 -0.10415674 0.305307
-0.23754251 -0.0926283 0.305307
0.010274485 -0.094724514 0.305307
0.13581035 -0.092849724 0.305307
-0.17492482 -0.086498283 0.305307
-0.094481289 -0.088358864 0.30530703
-0.030393988 -0.081793904 0.305307
0.080332592 -0.08382187 0.305307
0.11418499 -0.087600358 0.305307
0.15390843 -0.085425541 0.305307
0.20464157 -0.081822112 0.305307
-0.048298478 -0.07224264 0.305307
0.11897949 -0.076956213 0.305307
0.18511479 -0.072442129 0.305307
-0.22376055 -0.061614372 0.30530697
-0.10350803 -0.063296728 0.305307
0.12840398 -0.06413801 0.305307
0.14821868 -0.062998787 0.305307
-0.19216298 -0.058677249 0.305307
-0.22548482 -0.035423595 0.305307
-0.097971246 -0.038383882 0.305307
0.0064534089 -0.028324597 0.305307
0.041067682 -0.023580782 0.305307
0.21613625 -0.013246581 0.305307
-0.23131764 -0.0067074448 0.305307
-0.074815944 -0.0092760772 0.305307
0.084434085 -0.005028747 0.305307
-0.13867611 0.0074240491 0.305307
-0.086331643 0.0052626878 0.305307
0.20353386 0.0039188862 0.30530703
-0.17670909 0.017190173 0.305307
-0.049635705 0.019821614 0.305307
0.10431059 0.016582273 0.305307
0.13019106 0.019312523 0.305307
0.18611945 0.018600464 0.305307
0.17368205 0.026159689 0.30530697
0.029003222 0.034821261 0.305307
0.065398104 0.030724145 0.305307
0.07438989 0.03954234 0.305307
0.12682886 0.03364737 0.30530697
-0.10332508 0.045959841 0.305307
0.13506371 0.046402737 0.305307
0.15066682 0.048771806 0.305307
0.20143226 0.040235452 0.305307
-0.20982341 0.058231156 0.305307
-0.091429763 0.055774547 0.305307
-0.037131581 0.050875224 0.305307
0.16834123 0.051022455 0.305307
0.20341483 0.068895899 0.305307
0.231885 0.066302434 0.30156705
-0.24962893 0.070525452 0.305307
-0.075197272 0.078575879 0.305307
0.18354686 0.072143719 0.305307
-0.097907901 0.08484187 0.305307
-0.00347583 0.089770146 0.305307
0.15848053 0.089389518 0.30530703
0.19896771 0.080194749 0.305307
-0.24972302 0.096201234 0.30432317
0.057418976 0.096392736 0.30530703
0.070444852 0.0982503 0.305307
0.091929346 0.10187615 0.305307
0.15111335 0.10863444 0.305307
-0.12821014 0.11056473 0.305307
-0.099207096 0.11994708 0.305307
0.012390357 0.11079381 0.305307
0.045751356 0.11681879 0.305307
0.13499387 0.11883643 0.305307
0.231885 0.11764643 0.30144292
-0.055209491 0.12885919 0.305307
-0.22569574 0.1307286 0.305307
0.063207611 0.1440672 0.305307
0.14590698 0.14083691 0.305307
0.21563408 0.14129668 0.30530703
-0.17664915 0.1523803 0.30530697
0.20637259 0.15463896 0.305307
-0.21528089 0.16315649 0.305307
-0.15090513 0.16362906 0.305307
-0.069377422 0.1642504 0.305307
0.10806233 0.16639109 0.305307
-0.042094275 0.17085811 0.305307
-0.015383288 0.17177603 0.305307
-0.14211442 0.18686222 0.305307
-0.088200279 0.18076685 0.305307
0.039969429 0.18640158 0.305307
0.098990194 0.18371822 0.305307
-0.19800961 0.1918181 0.305307
-0.065012917 0.1942257 0.305307
-0.038275518 0.19901764 0.30530697
0.034408711 0.19127807 0.305307
-0.16280714 0.20530362 0.305307
-0.22213241 0.21138717 0.305307
-0.21246161 0.21029806 0.305307
-0.0065589249 0.21000651 0.305307
-0.03561509 0.22665222 0.305307
0.050111145 0.22564295 0.305307
-0.21042307 0.26527733 0.305307
-0.20190936 0.28545704 0.305307
-0.1993475 0.28503847 0.305307
