# .PCD v0.7 - Point Cloud Data file format
VERSION 0.7
FIELDS x y z
SIZE 4 4 4
TYPE F F F
COUNT 1 1 1
WIDTH 980
HEIGHT 1
VIEWPOINT 0 0 0 1 0 0 0
POINTS 980
DATA ascii
-0.19194701 -0.34908402 -0.2533879
-0.063477844 -0.34870529 -0.25440601
-0.13978054 -0.33610469 -0.25440601
0.10064479 -0.33333328 -0.25440601
-0.18464643 -0.32319114 -0.25440601
0.037580784 -0.32717851 -0.25440601
0.11705685 -0.32133329 -0.25440601
0.14112806 -0.32789886 -0.25440601
-0.18892443 -0.31585538 -0.25440601
-0.021826871 -0.31337464 -0.25440601
0.16786271 -0.30346799 -0.25440601
-0.19857921 -0.2838226 -0.25440601
-0.082550086 -0.28324628 -0.25440601
-0.16042648 -0.27280912 -0.25440601
-0.042334117 -0.26439273 -0.25440601
-0.04057432 -0.24501739 -0.25440601
-0.01598192 -0.24426718 -0.25440601
0.078002542 -0.24548122 -0.25440601
0.10745932 -0.24155818 -0.25440601
-0.096856415 -0.23133034 -0.25440601
0.14412823 -0.22705252 -0.25440601
-0.099298455 -0.21326402 -0.25440601
0.20215732 -0.20333618 -0.25440601
-0.251829 -0.1996319 -0.25297302
-0.17233521 -0.19947954 -0.25440601
0.011886105 -0.19143838 -0.25440601
0.21703468 -0.19121882 -0.25440601
-0.19109875 -0.18997781 -0.25440603
-0.12566701 -0.18159994 -0.25440601
0.065073207 -0.18371364 -0.25440601
0.22671118 -0.18762296 -0.25440601
-0.22069907 -0.17019448 -0.25440601
0.00040670484 -0.17446712 -0.25440601
0.065685049 -0.17051667 -0.25440601
0.15399522 -0.17441387 -0.25440601
-0.087511063 -0.15292341 -0.25440601
0.044400301 -0.1565831 -0.25440601
-0.13384271 -0.14294389 -0.25440601
-0.23874423 -0.1397711 -0.25440601
0.033191696 -0.12476186 -0.25440601
0.14827639 -0.12965593 -0.25440601
0.21534878 -0.10779347 -0.25440601
-0.23945692 -0.099253215 -0.25440601
-0.19238579 -0.095753051 -0.25440601
-0.17801617 -0.094978876 -0.25440601
-0.14010645 -0.09370333 -0.25440601
0.0059966855 -0.090091184 -0.25440601
0.035236131 -0.078226924 -0.25440601
0.05367275 -0.073207036 -0.25440601
0.18096641 -0.070297472 -0.25440601
0.059478879 -0.068283081 -0.25440601
0.13629411 -0.06610623 -0.25440601
0.21964271 -0.06023851 -0.25440598
0.011700448 -0.052115902 -0.25440601
-0.19982533 -0.047106169 -0.25440601
-0.13724481 -0.037865601 -0.25440601
0.033135623 -0.033189952 -0.25440601
-0.11661672 -0.023400918 -0.25440601
0.048139248 -0.025934009 -0.25440601
0.21992213 -0.027417064 -0.25440601
-0.11915404 -0.011794195 -0.25440601
0.20959496 -0.011199683 -0.25440601
0.082863867 -0.0046208538 -0.25440601
0.21373957 -8.3968043e-05 -0.25440601
-0.16713361 0.0069837272 -0.25440601
-0.11090342 0.0043649897 -0.25440601
-0.093445145 0.0057802945 -0.25440601
0.14236361 0.0024412274 -0.25440601
0.22491369 0.00094920397 -0.25440601
-0.14467815 0.019407526 -0.25440601
0.22322893 0.016833328 -0.25440601
-0.17614576 0.030024253 -0.25440601
-0.066242851 0.035955414 -0.25440601
-0.22412241 0.050407112 -0.25440601
-0.14010826 0.06371972 -0.25440601
-0.085866839 0.067638502 -0.25440601
0.084656775 0.061157182 -0.25440601
-0.12928529 0.077395931 -0.25440601
-0.058503926 0.077787854 -0.25440601
0.030585073 0.074452609 -0.25440601
0.078100592 0.07975892 -0.25440601
0.15984118 0.079699665 -0.25440601
-0.033059347 0.083304591 -0.25440601
0.15480348 0.08215154 -0.25440601
-0.2319461 0.091881566 -0.25440601
-0.18764852 0.091962561 -0.25440601
-0.14868358 0.093275145 -0.25440601
-0.020440869 0.090842225 -0.25440601
0.088496074 0.094295189 -0.25440601
-0.15856582 0.10307285 -0.25440601
0.018316858 0.10559879 -0.25440601
-0.027350396 0.11273671 -0.25440601
-0.012212455 0.11939916 -0.25440601
0.10044441 0.11055618 -0.25440601
-0.18157771 0.12398297 -0.25440601
-0.16553512 0.12374399 -0.25440601
0.049756996 0.1226267 -0.25440601
0.05318239 0.12325804 -0.25440601
-0.17895441 0.13309018 -0.25440601
-0.05605536 0.13170335 -0.25440601
-0.043212138 0.13791397 -0.25440601
0.14722987 0.13129696 -0.25440601
-0.11364368 0.1432285 -0.25440601
0.175946 0.14654253 -0.25440601
-0.053672738 0.15719754 -0.25440601
0.030991182 0.15472233 -0.25440601
0.21973804 0.1585644 -0.25440601
-0.15432219 0.16564068 -0.25440601
0.076039635 0.17696446 -0.25440601
0.10326988 0.17537892 -0.25440601
-0.20974991 0.19578603 -0.25440601
-0.11987671 0.19185378 -0.25440601
-0.10265223 0.19114612 -0.25440601
0.17787296 0.20210254 -0.25440601
-0.23535544 0.21439354 -0.25440601
-0.028278675 0.2175951 -0.25440601
0.033665203 0.21263185 -0.25440601
0.077820227 0.21617943 -0.25440601
-0.097763672 0.23881398 -0.25440603
0.090032637 0.23127457 -0.25440601
0.22595079 0.23198986 -0.25440601
-0.251829 0.24651209 -0.25223359
-0.13131359 0.24809074 -0.25440601
-0.086525284 0.24263045 -0.25440601
0.17615861 0.24544102 -0.25440601
-0.21371907 0.25038797 -0.25440601
-0.16815501 0.25440562 -0.25440601
-0.076383904 0.25747645 -0.25440598
0.069455467 0.26825365 -0.25440601
-0.12825775 0.27884701 -0.25440601
-0.251829 0.28082722 -0.25308928
-0.12263975 0.28387356 -0.25440601
-0.022628717 0.28313488 -0.25440601
-0.10075681 0.29368782 -0.25440601
-0.062647231 0.29550284 -0.25440601
-0.023657873 0.29392681 -0.25440601
-0.16383196 0.30623287 -0.25440601
-0.087721348 0.30338311 -0.25440601
0.13716406 0.30361599 -0.25440601
-0.17788525 0.31860164 -0.25440601
0.16453025 0.31706077 -0.25440601
0.021060973 0.32676399 -0.25440601
0.12705117 0.32284591 -0.25440601
-0.10786968 0.33491531 -0.25440601
-0.23787703 0.34490725 -0.25440601
-0.070636667 0.34908399 -0.25296649
0.035761148 0.34237689 -0.25440603
0.10534228 0.34150839 -0.25440601
0.12193771 0.34806323 -0.25440601
-0.2050826 -0.34908399 -0.24442118
0.22359073 -0.29479152 -0.24820957
-0.251829 0.047499001 -0.24375996
0.229932 0.15921284 -0.24041134
0.23055574 0.21461055 -0.24627528
-0.23499696 0.34908396 -0.24405865
-0.13668057 0.34908399 -0.24116446
-0.11617373 0.34908399 -0.24405797
0.029182844 0.34908399 -0.24344432
-0.23730102 -0.34908399 -0.23394296
-0.17415379 -0.34908399 -0.2318868
-0.14197797 -0.34908399 -0.23456948
-0.13192692 -0.34908399 -0.23495695
0.050313078 -0.34908399 -0.23206818
0.10593537 -0.34908399 -0.23129612
0.14951031 -0.34908396 -0.23027027
-0.251829 -0.1726892 -0.23058127
0.22993201 0.15197758 -0.23299168
-0.251829 0.22483636 -0.23620188
0.092138097 0.34908399 -0.23320979
0.19040053 0.34908399 -0.23664847
-0.16380824 -0.34908399 -0.22929937
-0.090463325 -0.34908399 -0.22638035
0.210609 -0.27866435 -0.2239894
-0.251829 -0.19896305 -0.22936843
0.23044276 0.23501743 -0.22853628
0.229932 0.29647481 -0.22230132
-0.13677245 0.34908399 -0.2229965
0.22993198 -0.23659435 -0.21404019
0.22993198 -0.084985018 -0.21432073
-0.251829 -0.054620117 -0.21517053
-0.251829 -0.024065077 -0.21883872
0.229932 0.067037195 -0.21518821
0.037938595 0.34908399 -0.21378829
0.14940558 -0.34908402 -0.20245317
0.21060902 -0.33191863 -0.20845982
0.21594998 -0.32674688 -0.20848538
-0.251829 -0.14661264 -0.20077237
0.229932 -0.0020615831 -0.20378672
-0.251829 0.11708697 -0.20620543
-0.24965663 0.34908396 -0.20358905
-0.053793095 0.34908399 -0.20718148
0.17944574 0.34908396 -0.20331386
-0.22582409 -0.34908399 -0.19680819
-0.18491435 -0.34908399 -0.19297311
-0.16035815 -0.34908396 -0.19009802
0.015821045 -0.34908399 -0.1963861
0.20431836 -0.34908396 -0.19293776
-0.251829 -0.32478741 -0.19735733
0.2193298 -0.31261176 -0.19354643
0.055609018 -0.031469632 -0.19294623
0.10150672 -0.017535759 -0.19341943
0.081836931 -0.0065385802 -0.19545171
-0.251829 0.011693299 -0.19548832
0.046460371 0.01826336 -0.19623284
0.1373062 0.012662154 -0.19427451
0.18744734 0.010486732 -0.19307297
0.013750061 0.023516838 -0.19651166
0.04205104 0.02066656 -0.19604716
0.067778781 0.023901656 -0.19485752
0.11801811 0.028794793 -0.19272201
0.13490485 0.028711006 -0.19223189
0.16239899 0.032061167 -0.19097467
0.22993201 0.038551923 -0.19211717
0.12385777 0.040847357 -0.1909612
0.020755362 0.056972668 -0.19085236
-0.251829 0.26656377 -0.19937035
-0.251829 0.29693729 -0.19192535
-0.2506381 0.34908399 -0.19275331
-0.08972016 0.34908402 -0.19083285
0.15062037 0.34908399 -0.19787525
0.20417629 0.34908399 -0.19818604
-0.012195639 -0.34908399 -0.18947107
0.060736105 -0.34908399 -0.18350121
0.210609 -0.34900397 -0.18280821
-0.251829 -0.25534436 -0.18819083
0.229932 -0.19909185 -0.18733981
0.22993201 -0.11301965 -0.18904403
-0.251829 -0.07343249 -0.18295306
0.0081165712 -0.058905229 -0.18641347
0.028621202 -0.054124594 -0.18778583
0.074166171 -0.04751927 -0.18917125
0.11454162 -0.048861466 -0.18741682
0.21523952 -0.048863024 -0.18442768
0.229932 -0.031127464 -0.1850481
0.229932 0.032658003 -0.18293342
0.12339755 0.06005159 -0.18653032
0.01425741 0.082209721 -0.18058743
0.229932 0.10585138 -0.18418114
0.229932 0.11635343 -0.18626659
-0.251829 0.26008168 -0.18311515
0.23639821 0.28475872 -0.18075937
-0.24557379 0.34908399 -0.18466797
-0.1560722 0.34908402 -0.18213657
-0.058075182 0.34908396 -0.18405873
0.037723608 0.34908399 -0.1875346
0.160822 0.34908402 -0.18128315
0.15523037 -0.34908402 -0.17785689
0.210609 -0.32863528 -0.17848146
0.21060899 -0.28304017 -0.17166746
-0.251829 -0.23506148 -0.17476749
0.22993201 -0.0946417 -0.17745493
0.062571198 -0.088662036 -0.1724667
-0.251829 0.05327554 -0.17893398
0.10695203 0.07837487 -0.17942551
0.1178794 0.09110906 -0.17382407
-0.251829 0.12014031 -0.1729333
0.22993201 0.17352568 -0.17287348
-0.17981102 0.34908399 -0.17514797
-0.16709375 0.34908399 -0.17825361
-0.090373546 0.34908399 -0.17049026
-0.020824999 0.34908399 -0.17056996
0.0045114607 0.34908399 -0.17657852
0.068897486 0.34908399 -0.17581971
0.082847707 0.34908399 -0.17629367
0.229932 0.3408646 -0.17641161
-0.15570316 -0.34908402 -0.16225892
-0.079872355 -0.34908399 -0.16610989
0.229932 -0.25692046 -0.1657362
-0.251829 -0.14742824 -0.16058196
-0.251829 -0.12641867 -0.16079417
0.10787913 -0.10161269 -0.1612024
0.1087641 -0.091147676 -0.16920999
0.20375341 -0.098801821 -0.16051449
0.251829 -0.091378473 -0.16256551
0.0030381712 -0.0035647228 -0.16594979
-0.251829 0.01542592 -0.16951016
-0.251829 0.063447937 -0.16544406
0.12339692 0.108396 -0.1629689
0.229932 0.15370549 -0.16955258
0.229932 0.317855 -0.16979913
-0.25000033 0.34908402 -0.1630778
0.21840639 0.34908399 -0.16162437
0.229932 -0.20696245 -0.15475008
-0.251829 -0.16370523 -0.15279074
0.17760485 -0.1109027 -0.15200096
-0.059898198 0.032736819 -0.15819046
0.048162747 0.11777685 -0.15800065
0.14468332 0.12230511 -0.15165949
-0.251829 0.13837165 -0.15204608
0.22993201 0.13679829 -0.15970352
0.23587689 0.23343992 -0.15556015
0.22889605 0.29066256 -0.15017669
-0.251829 0.31381527 -0.15652516
-0.21498418 0.34908399 -0.15454936
-0.10297684 0.34908399 -0.15822326
0.1165752 0.34908399 -0.15265465
-0.13234547 -0.34908399 -0.1422478
0.075452209 -0.34908399 -0.14368264
0.229932 -0.23771247 -0.14009255
-0.251829 -0.14468004 -0.14615217
0.068663061 -0.11855495 -0.14936012
0.15962593 -0.11440115 -0.14984892
0.0024456501 -0.028647661 -0.14598927
0.251829 0.0049957251 -0.14818539
-0.059898201 0.030534623 -0.1407
0.14229313 0.13403276 -0.14272751
-0.12023118 0.34908399 -0.14820252
-0.084885143 0.34908399 -0.14705528
0.21859555 0.34908399 -0.14478375
-0.20055619 -0.34908399 -0.13710567
-0.17746879 -0.34908399 -0.13111399
0.0058719441 -0.34908399 -0.13015223
0.067890495 -0.34908399 -0.1373712
-0.059898201 0.052970484 -0.13701153
0.026829138 0.12921031 -0.13219875
0.0021021187 0.13960956 -0.13442104
0.088547632 0.1430551 -0.13363518
0.229932 0.21190497 -0.13721812
0.237661 0.23426411 -0.13821556
0.22647867 0.24230585 -0.13759311
0.23320782 0.24428821 -0.13960858
0.21060899 -0.31968257 -0.12961206
0.21060902 -0.28865662 -0.12861568
0.22993201 -0.18829101 -0.12783553
-0.059898201 -0.052284189 -0.12412941
0.2268701 -0.0021118303 -0.12436546
0.251829 -0.0044038855 -0.12987046
0.251829 0.021763146 -0.12482731
0.251829 0.044794276 -0.12894395
-0.251829 0.05437851 -0.12078506
-0.251829 0.11273067 -0.12581988
0.0070982012 0.12519941 -0.12723468
0.18063931 0.12904313 -0.12741475
0.086007342 0.15286231 -0.12152892
0.11572917 0.34908399 -0.12938775
0.19481072 0.34908399 -0.12210452
-0.16540082 -0.34908402 -0.11083411
0.18665135 -0.34908399 -0.11221964
-0.251829 -0.30239874 -0.11890624
-0.251829 -0.28610626 -0.11723414
0.068226375 -0.14826506 -0.11542354
0.251829 -0.11288384 -0.11136524
-0.059898201 -0.076894388 -0.11537927
-0.059898205 -0.023132715 -0.11142763
0.061352648 0.13340938 -0.11812708
0.08478336 0.13541503 -0.1171739
0.17881605 0.13309094 -0.11468159
0.078375295 0.14269397 -0.11642908
0.043009046 0.15040532 -0.11739347
0.229932 0.24556601 -0.11536596
-0.24643679 0.34908399 -0.11656709
0.1885049 0.34908399 -0.11267239
0.22993201 0.34568664 -0.11846626
-0.20436388 -0.34908399 -0.10464236
0.091384806 -0.34908399 -0.10208035
0.229932 -0.26072606 -0.10629022
0.22993198 -0.19781968 -0.1008842
-0.251829 0.0024651513 -0.10783015
0.048319802 0.16378413 -0.10840769
0.229932 0.20018023 -0.10210735
-0.19823182 0.34908399 -0.10120167
-0.12086882 0.34908396 -0.10930619
0.20448989 0.34908402 -0.10939041
-0.17436664 -0.34908396 -0.096402556
-0.048744533 -0.34908399 -0.099671006
0.0033033155 -0.34908399 -0.094089001
0.21060902 -0.28864217 -0.090852201
0.229932 -0.2454024 -0.092199832
0.12513505 -0.16184708 -0.090887137
0.13774356 -0.15901902 -0.097342692
-0.251829 -0.10290813 -0.098792396
-0.251829 0.15537076 -0.096298054
0.19009362 0.17011623 -0.092377335
-0.25182897 0.30656379 -0.099794909
-0.24942362 0.34908399 -0.092366636
-0.097441398 0.34908399 -0.099570848
-0.041938975 0.34908402 -0.092710048
0.087160036 0.34908399 -0.092847534
-0.18225095 -0.34908399 -0.089234367
-0.03327693 -0.34908399 -0.081836194
-0.251829 -0.31983557 -0.082592465
0.210609 -0.27405536 -0.081507772
0.059560366 -0.16413511 -0.087308213
0.17706369 -0.16566993 -0.080112025
0.19550698 -0.16432557 -0.082811564
0.010986868 -0.15627818 -0.087671675
-0.059898205 -0.078330047 -0.081566989
-0.251829 0.040518798 -0.083835728
-0.059898201 0.06445457 -0.086118661
0.00068208354 0.079115905 -0.086573988
0.23840472 0.15563272 -0.085312225
0.24205956 0.15506341 -0.086654931
0.044141535 0.17323771 -0.089169547
0.20306554 0.17461956 -0.081115425
0.229932 0.19620645 -0.085530989
-0.15621497 0.34908399 -0.085215561
0.15562277 0.34908402 -0.087074965
-0.17971778 -0.34908399 -0.072168551
-0.095990606 -0.34908399 -0.078581221
0.081558444 -0.34908399 -0.078387946
0.023840612 -0.17097458 -0.071848631
0.010781906 -0.15444776 -0.071563296
0.2360507 -0.15147845 -0.070236243
0.13393584 -0.14592765 -0.074841887
0.18182197 -0.14625607 -0.074302241
-0.059898198 -0.091490313 -0.071257047
-0.251829 0.22110789 -0.07902275
0.22993201 0.27791736 -0.076518282
-0.11873282 0.34908399 -0.077377044
-0.016606964 0.34908399 -0.070228927
0.071076423 0.34908396 -0.071302995
-0.084833771 -0.34908399 -0.065984383
0.095439479 -0.34908399 -0.06527409
0.17374492 -0.34908396 -0.061094157
0.22124112 -0.30461812 -0.061392777
0.22993201 -0.1836841 -0.066288933
0.039264642 -0.1740288 -0.064013496
0.1702722 -0.1727635 -0.063181311
0.029041249 -0.16562487 -0.06980665
0.22993198 -0.15509479 -0.064257175
-0.251829 -0.086690947 -0.065516591
-0.251829 0.013689045 -0.068450317
-0.059898198 0.01435044 -0.068391867
0.251829 0.15060788 -0.067394733
0.22993201 0.19637781 -0.064577147
-0.17235065 0.34908399 -0.063927405
0.19813558 -0.34908399 -0.054041803
0.041182801 -0.17713171 -0.050170098
0.13529339 -0.17651445 -0.052067883
0.25112721 -0.15423325 -0.05797448
-0.059898205 -0.087141111 -0.058657646
-0.251829 0.0013609529 -0.050854675
0.10226042 0.18557984 -0.05763464
0.15248264 0.18594183 -0.053508326
-0.251829 0.19193736 -0.05226922
-0.251829 0.25064376 -0.059959754
-0.251829 0.33382156 -0.052083135
-0.117359 0.34908399 -0.050361112
0.004035823 0.34908399 -0.053091511
-0.1484891 -0.34908399 -0.040021069
-0.094591126 -0.34908396 -0.042454824
0.210609 -0.34487686 -0.04887991
-0.251829 -0.25276074 -0.046458036
0.18640608 -0.17750438 -0.043027956
0.2399406 -0.15718423 -0.042527154
-0.00047871555 -0.045738481 -0.047458913
-0.25182897 -0.028174803 -0.047876
-0.251829 0.015221789 -0.04358162
-0.00065294589 0.1009764 -0.041581642
-0.251829 0.11915669 -0.046531528
-0.251829 0.26624018 -0.040312402
0.22993198 0.28192765 -0.043626476
-0.21962336 0.34908399 -0.04803782
-0.16858052 0.34908396 -0.04199852
0.043874107 0.34908399 -0.042727262
-0.21599078 -0.34908402 -0.037681349
-0.18635154 -0.34908399 -0.037845463
-0.050843444 -0.34908399 -0.034516823
0.050521199 -0.34908399 -0.038296968
0.19792309 -0.34908396 -0.03766197
0.24801607 -0.15743376 -0.039147045
-0.00086501439 -0.12539132 -0.034446616
-0.251829 -0.09354955 -0.033948012
-0.00090256566 0.07232137 -0.033168837
-0.251829 0.10033648 -0.038415324
-0.251829 0.11363553 -0.032030832
0.13421352 0.18812591 -0.037455257
0.17833355 0.18786572 -0.038122728
-0.251829 0.32719463 -0.031340033
0.086930104 0.34908399 -0.0376398
-0.036777958 -0.34908399 -0.021827258
0.15506256 -0.34908399 -0.029138297
0.210609 -0.32040805 -0.023220191
-0.251829 -0.29872087 -0.020404583
0.22993198 -0.23666066 -0.025906518
-0.251829 -0.12131184 -0.026611336
-0.0010167288 -0.089172184 -0.029335244
-0.251829 -0.064279541 -0.025724445
-0.251829 0.031985641 -0.027261183
-0.251829 0.11370824 -0.025185347
0.15118523 0.18966132 -0.025284711
0.049129643 0.19003166 -0.025499731
-0.251829 0.21940866 -0.026858302
-0.16816361 0.34908399 -0.022077948
-0.19189505 -0.34908399 -0.011885338
-0.251829 -0.33991531 -0.018418793
0.210609 -0.3210395 -0.016691109
-0.251829 -0.24326888 -0.012861297
-0.251829 -0.12549907 -0.010071553
-0.251829 -0.091292173 -0.01758039
-0.251829 0.055574983 -0.012093261
-0.0013896845 0.068575285 -0.016767345
-0.059898198 0.094607815 -0.019259669
-0.251829 0.1296497 -0.019195419
-0.251829 0.13426313 -0.014788024
-0.0015131569 0.1424907 -0.012596022
0.073852897 0.19135742 -0.014692366
0.11691184 0.19133565 -0.013579882
0.229932 0.23201716 -0.018713323
0.229932 0.26831841 -0.013522409
-0.23963052 0.34908399 -0.010883033
-0.030374184 0.34908399 -0.015464418
0.22993198 0.34451595 -0.010611448
-0.083416291 -0.34908399 -0.0056368932
0.07999827 -0.34908399 -0.0047108307
-0.0018649683 0.17813447 -0.00073963776
0.22993201 0.23631573 -0.0079461513
-0.16159356 0.34908399 -0.0087160319
0.085072584 0.34908399 -0.0036113784
0.20649557 -0.34908399 0.0063739419
0.210609 -0.27250284 0.0057736333
-0.0021640351 -0.10889903 0.0093261804
-0.059898198 -0.021368846 0.0011407258
0.17339048 0.19068247 0.0028365925
-0.071099661 0.34908399 0.0039621331
0.16436186 0.34908396 0.00092669483
0.099956229 -0.34908402 0.01148583
0.12907498 -0.34908402 0.013807632
-0.251829 -0.32906246 0.012765601
-0.251829 -0.26549098 0.018309191
0.229932 -0.22586764 0.012739632
-0.251829 -0.20513895 0.01303282
0.030998748 -0.17923871 0.011978402
-0.059898205 -0.10418548 0.019105613
-0.002285315 0.13707715 0.013413873
0.034844443 0.18871096 0.013705488
-0.251829 0.20246187 0.010494217
-0.19810984 0.34908399 0.018426448
0.16531187 0.34908399 0.012205344
0.10180464 -0.34908396 0.021405406
0.22993198 -0.25037447 0.023044169
0.067762479 -0.17755654 0.0258536
-0.251829 -0.16280559 0.0240696
-0.251829 -0.13366795 0.026633639
-0.059898201 -0.029047552 0.020745726
-0.251829 0.055170417 0.020930745
0.19874915 0.18782103 0.025332076
-0.251829 0.2963351 0.02808962
-0.251829 0.30271029 0.020706236
0.20877647 -0.34908399 0.034173608
-0.059898198 -0.081016175 0.03230384
-0.059898198 0.0096403006 0.039085887
-0.059898201 0.042812381 0.034878042
-0.251829 0.16594896 0.030391388
0.12083157 0.18612447 0.035911188
-0.251829 0.3476367 0.034979619
-0.22186577 0.34908399 0.038828664
-0.21032239 0.34908396 0.036397092
-0.014138632 0.34908399 0.035421249
0.14136922 0.34908399 0.037942979
-0.23687652 -0.34908399 0.040079884
-0.038422875 -0.34908399 0.045157306
0.210609 -0.31437564 0.047040582
0.005661957 -0.17256492 0.044561334
-0.059898201 -0.097891048 0.041716486
-0.003321135 0.010182586 0.048308156
-0.059898201 0.039853502 0.045247763
-0.0031244545 0.039829809 0.04169289
-0.0033416394 0.045004714 0.049011167
-0.059898198 0.053122416 0.048765421
0.12003574 0.18496041 0.041407201
-0.18723319 0.34908396 0.044620857
0.17693046 0.34908399 0.046674877
0.18540025 -0.34908402 0.059669115
0.210609 -0.27303037 0.059246361
0.229932 -0.21564487 0.059882246
0.18502896 -0.17006512 0.055922072
0.229932 -0.15132147 0.05155988
-0.059898201 -0.10235497 0.055919908
-0.059898198 -0.070466369 0.055892199
-0.059898201 -0.026526965 0.053487621
-0.0036036395 -0.014012793 0.057820622
-0.0035890983 0.060630824 0.057352927
-0.0036096114 0.078957714 0.058039896
-0.251829 0.10489759 0.051003389
-0.0035528871 0.12241655 0.056119971
0.10800272 0.17763455 0.058744058
0.15542142 0.17917328 0.056434944
0.229932 0.24896447 0.058595315
-0.251829 0.34370351 0.058148712
-0.251829 -0.34268406 0.062811971
0.02356787 -0.34908399 0.066339135
0.061540522 -0.34908399 0.06994734
0.229932 -0.20065491 0.062826157
0.2381337 -0.14434327 0.061332665
-0.251829 -0.011940449 0.068115473
-0.059898198 -0.0096189082 0.066791922
-0.059898205 0.036600798 0.065756135
-0.0037730117 0.07400918 0.063540831
-0.059898205 0.098273613 0.065515541
-0.251829 0.17866333 0.061464548
-0.251829 0.24098986 0.061944086
0.22993198 0.27804473 0.066459596
-0.1870943 0.34908399 0.061969735
-0.098769486 0.34908399 0.060346894
-0.046479549 0.34908402 0.067076229
0.19468887 -0.34908399 0.072399423
0.2204912 -0.30775446 0.077758171
0.22993198 -0.25357953 0.071862616
0.096501365 -0.16045295 0.07650952
0.15660596 -0.16174956 0.075161807
0.2004915 -0.16149659 0.077075236
0.251829 0.13584907 0.070359297
0.18628599 0.16992779 0.079681374
0.010478867 0.17019315 0.073822737
0.060517106 0.17015374 0.075402975
0.229932 0.20173511 0.077265255
0.22993198 0.23976907 0.075059496
-0.20747319 -0.34908399 0.089066036
-0.020946829 -0.34908399 0.08749415
0.14856774 -0.15958984 0.080139294
0.033328082 0.167771 0.080351055
0.16159956 0.1662595 0.087088957
0.22993201 0.19432266 0.082693197
0.1946767 0.23887227 0.08816088
-0.22604606 0.34908399 0.0843364
-0.13543744 0.34908402 0.080743566
-0.1006542 0.34908396 0.083518721
0.032529846 0.34908399 0.088809989
0.18519329 0.34908399 0.085633814
0.20354711 0.34908399 0.089618668
0.026281625 -0.34908399 0.092681378
-0.251829 -0.24561229 0.093572587
0.041254438 -0.14657271 0.096557744
0.229932 -0.1410961 0.096232317
-0.0048504975 0.1328439 0.099845953
0.23765853 0.14572847 0.098268479
0.19322768 0.20343471 0.09588813
0.19257601 0.23468174 0.097108319
0.229932 0.25789154 0.097640313
-0.17620605 0.34908399 0.09388493
-0.084554665 0.34908399 0.098206811
-0.074042305 0.34908399 0.093284503
-0.00052729994 0.34908399 0.098179407
0.06209347 0.34908399 0.098631598
-0.032022946 -0.34908399 0.10678664
0.12546793 -0.34908399 0.10192086
0.1478859 -0.34908399 0.10921982
-0.251829 -0.31512675 0.10573578
0.22993198 -0.16533989 0.10587397
-0.0022461086 -0.14179811 0.10149188
0.095903806 -0.14484699 0.10042967
0.251829 0.10603084 0.10283941
0.021662176 0.14852108 0.1060634
0.11662298 0.1525999 0.10356365
-0.251829 0.18583199 0.10240296
-0.251829 0.26655471 0.10675184
0.22993198 0.27726334 0.10178094
0.229932 0.28720057 0.10645243
-0.251829 0.32062772 0.1090027
-0.035620376 0.34908396 0.10748467
-0.0049100798 0.34908399 0.10834917
-0.22472362 -0.34908402 0.1118736
0.019833669 -0.34908402 0.1164726
-0.251829 -0.26096943 0.11982785
-0.0051653022 -0.030650368 0.11045308
0.23122102 0.13734365 0.11225155
0.24787095 0.13864782 0.11030523
-0.251829 0.14210014 0.11731716
0.070199229 0.14133872 0.1168683
0.12989137 0.14789516 0.1100915
0.19257601 0.20472302 0.11959188
-0.251829 0.27017468 0.11307758
0.0099610388 0.34908399 0.11323407
0.095381521 0.34908399 0.11963426
0.17759606 0.34908399 0.11737804
-0.029523134 -0.34908402 0.12209363
-0.251829 -0.33388689 0.12032637
0.12036333 -0.12894909 0.12188336
-0.0057393461 0.039524071 0.12978247
0.229932 0.13816826 0.1207599
0.229932 0.14740002 0.12825571
0.22993198 0.16126947 0.12987718
0.19257601 0.22044861 0.12014362
-0.1264378 0.34908399 0.12427617
-0.053808786 0.34908399 0.1281243
-0.1204607 -0.34908399 0.13470152
-0.251829 -0.22626945 0.13073327
0.22993198 -0.20733789 0.13663296
0.014847578 -0.10787404 0.1357165
0.070457101 -0.10989645 0.13581461
0.251829 -0.090454288 0.13294169
-0.251829 -0.041794106 0.13561806
-0.251829 -0.020210028 0.13233936
0.251829 0.0043565873 0.13644837
-0.00575798 0.085437603 0.13040647
0.251829 0.085746467 0.13588692
0.19257599 0.21646786 0.13099536
0.1955801 0.26754031 0.13946182
0.229932 0.27169138 0.13396586
-0.251829 0.3416619 0.13245595
-0.024216712 0.34908402 0.13631268
-0.043636136 -0.34908399 0.14921775
-0.0060846582 -0.036545381 0.14143161
-0.251829 -0.013671562 0.1492548
0.24354321 0.014885626 0.148366
0.251829 0.042312913 0.14615087
0.2443414 0.055109464 0.148366
0.14142072 0.11606944 0.14061618
0.22993198 0.16286007 0.14340335
-0.251829 0.33501855 0.14930579
-0.094149664 0.34908399 0.14276209
0.089506499 0.34908399 0.14051524
-0.17491567 -0.34908399 0.15343329
0.046408132 -0.34908396 0.15845874
0.1057225 -0.34908399 0.15306535
0.210609 -0.3078137 0.15691668
0.22918278 -0.27140445 0.15995865
-0.251829 -0.21033113 0.15485321
-0.251829 -0.17907798 0.15989003
0.22993201 -0.12232897 0.15701491
-0.251829 -0.079297163 0.15954943
0.093600266 -0.072276518 0.15956952
-0.251829 -0.052005947 0.15628792
-0.251829 0.0027264357 0.15835813
0.10893536 0.026980231 0.1533279
-0.0066054016 0.049056917 0.15896395
0.024121335 0.093876526 0.15256968
-0.251829 0.20553514 0.15912257
-0.251829 0.24521193 0.15750504
0.229932 0.28047025 0.15736212
-0.251829 0.29160926 0.15493752
-0.2424079 0.34908402 0.15648718
-0.058841757 0.34908399 0.15579021
0.16842116 0.34908396 0.15050089
0.11081941 -0.34908399 0.16725585
0.16088124 -0.34908399 0.16956779
0.21160221 -0.34493017 0.16463584
0.229932 -0.20046103 0.16175252
0.229932 -0.088255674 0.16320641
0.1925094 0.017651167 0.16943462
0.054668594 0.036913875 0.16184168
0.22993201 0.058011681 0.16349655
0.083213642 0.075051293 0.16212496
0.20419052 0.086256742 0.16107202
-0.13814418 0.34908399 0.16978109
-0.076346882 0.34908402 0.16682525
-0.064014047 0.34908402 0.16323736
0.034299027 0.34908399 0.16590101
0.22993198 -0.21291205 0.17682366
0.14857626 -0.048560075 0.17102899
0.15426438 -0.030705411 0.174954
0.13308698 -0.025736162 0.17498004
0.17696899 -0.02623314 0.17621692
0.10697803 -0.018321259 0.17518188
-0.251829 0.008228749 0.17297402
0.061766628 0.0071504088 0.17658707
0.092643112 0.02689643 0.17490262
0.14485887 0.026229672 0.17654008
0.2063677 0.023778465 0.17805752
0.18469824 0.036690071 0.17601164
0.12748775 0.049212329 0.17299733
0.14054039 0.041543648 0.17417364
0.16167575 0.058304511 0.17139316
0.19257601 0.25397456 0.1755902
0.13246466 -0.34908399 0.18423438
-0.251829 -0.24868104 0.18234883
0.22993201 -0.21582562 0.18591382
-0.251829 -0.011754945 0.18430507
0.229932 -0.014185134 0.18773964
-0.251829 0.050206199 0.1828824
-0.251829 0.14871228 0.18908413
-0.25182897 0.19538882 0.18116592
0.229932 0.19093896 0.18258558
0.2088995 0.26896197 0.18373117
-0.20903559 0.34908399 0.18474473
-0.19785796 0.34908399 0.18361038
-0.15677351 0.34908399 0.18760405
-0.069011495 0.34908399 0.18821761
-0.057970062 0.34908399 0.18475798
-0.0062232018 0.34908399 0.18323842
-0.15382108 -0.34908399 0.19531202
0.15876114 -0.34908399 0.19336018
0.210609 -0.32689345 0.19127628
-0.251829 -0.29347557 0.19085419
0.21175587 -0.268271 0.19539478
-0.251829 -0.11378729 0.19531333
-0.251829 -0.089504354 0.19283667
-0.251829 -0.023138911 0.19692025
-0.251829 -0.0045443475 0.19716763
0.19257601 0.25733998 0.19368243
0.229932 0.33758032 0.19092391
-0.10607996 0.34908399 0.19115357
0.048940387 0.34908399 0.19258104
-0.20495842 -0.34908399 0.20152184
0.093744516 -0.34908399 0.20345509
0.20708705 -0.34908399 0.20670488
0.210609 -0.32125142 0.20573947
0.229932 0.080271944 0.20741822
0.229932 0.3044427 0.20979407
-0.14636815 -0.34908399 0.21389255
-0.098609082 -0.34908399 0.21981451
0.21631119 -0.3252362 0.2119678
0.21060899 -0.30329871 0.21370691
0.22456206 -0.29072922 0.21849236
0.22993201 -0.2412703 0.2106847
-0.251829 -0.22594078 0.21589598
-0.251829 -0.062373698 0.21194497
0.22993198 0.2476525 0.21872444
0.19706461 0.25835291 0.21531306
-0.251829 0.27580348 0.21955585
0.10116539 0.34908399 0.21108973
0.19700426 0.34908399 0.21863157
0.210609 -0.32522911 0.22568159
-0.251829 -0.26678583 0.22509851
-0.251829 -0.18835102 0.22630464
0.229932 -0.094464198 0.22123089
0.22993201 0.0017575324 0.227432
0.229932 0.27709264 0.22864674
-0.23432076 0.34908399 0.2229529
-0.0025499389 0.34908399 0.22160606
0.18157849 0.34908396 0.22157294
-0.20100284 -0.34908399 0.23649502
0.17287101 -0.34908399 0.23062268
-0.251829 -0.17629306 0.2363763
0.229932 -0.0085375234 0.23927295
0.229932 0.01749967 0.23061469
-0.23678306 0.34908399 0.23138046
-0.18059161 0.34908402 0.23180467
-0.23130098 -0.34908399 0.24279755
-0.22079556 -0.34908399 0.24428676
-0.251829 -0.19563434 0.24043956
0.22993201 -0.15318649 0.24398816
0.22993201 -0.12429006 0.24452877
0.22993198 -0.11743316 0.24783956
-0.25182897 -0.094481155 0.24454856
0.229932 -0.089213014 0.24452806
0.22993198 0.08844991 0.24051833
0.229932 0.090949513 0.24717487
0.229932 0.21345505 0.24706136
-0.12490837 0.34908396 0.24671556
-0.10487274 -0.3420279 0.25440601
-0.092996411 -0.34908399 0.2535862
-0.054704044 -0.34908399 0.25302997
-0.13455962 -0.33317289 0.25440603
-0.20286156 -0.3221426 0.25440601
0.067447677 -0.3249076 0.25440601
-0.089341335 -0.31137356 0.25440601
0.043343939 -0.31233132 0.25440601
0.12305783 -0.31412929 0.25440601
-0.23995616 -0.29558709 0.25440601
-0.0065780729 -0.29367942 0.25440601
-0.251829 -0.28830382 0.25283247
0.059539661 -0.2827864 0.25440603
0.10646264 -0.28254876 0.25440601
-0.20307261 -0.27036002 0.25440601
0.082622133 -0.27970725 0.25440601
-0.2204811 -0.25223652 0.25440601
-0.19068803 -0.25635973 0.25440601
-0.25178441 -0.24409145 0.25440601
-0.1733771 -0.24845304 0.25440601
0.15590374 -0.24264148 0.25440601
-0.12248864 -0.23438768 0.25440601
-0.038471345 -0.23859571 0.25440601
0.11740864 -0.23957966 0.25440601
0.15070488 -0.23872826 0.25440601
-0.23011048 -0.22649395 0.25440601
-0.15461053 -0.22535625 0.25440601
0.028476786 -0.2260021 0.25440601
0.17883067 -0.22909227 0.25440601
0.20192465 -0.22833551 0.25440601
0.096705601 -0.21616811 0.25440601
-0.16984969 -0.20166233 0.25440601
-0.12886512 -0.20118254 0.25440601
-0.13083376 -0.19404854 0.25440601
0.054029442 -0.19573593 0.25440601
-0.022535384 -0.17207882 0.25440601
0.005924426 -0.17968768 0.25440601
0.063656531 -0.15899667 0.25440601
-0.049863398 -0.14137031 0.25440601
0.16585022 -0.14288792 0.25440601
-0.12175878 -0.1368483 0.25440601
0.030802011 -0.13406141 0.25440601
0.20145279 -0.1207334 0.25440601
-0.079760984 -0.1115526 0.25440601
-0.2433662 -0.08982151 0.25440598
-0.21616867 -0.087271065 0.25440601
-0.043669373 -0.085042134 0.25440601
-0.032800674 -0.087648764 0.25440601
-0.21828318 -0.072463721 0.25440601
-0.14361334 -0.076466188 0.25440601
0.089804225 -0.070401356 0.25440601
-0.0034843571 -0.059555251 0.25440601
0.015819335 -0.055905458 0.25440601
-0.036456436 -0.048776489 0.25440601
-0.026435614 -0.04004617 0.25440601
-0.084415168 -0.039653823 0.25440601
-0.079811327 -0.032011509 0.25440601
0.20582549 -0.030833237 0.25440601
-0.1687104 -0.025466748 0.25440601
0.080692962 -0.029988065 0.25440603
0.08243423 -0.019224295 0.25440601
0.094259083 -0.012111917 0.25440601
0.22095954 -0.012309499 0.25440601
-0.19197465 0.0079807341 0.25440601
-0.010439973 0.0061011389 0.25440601
0.022837214 0.0094186515 0.25440601
0.031383261 0.00079016387 0.25440601
-0.087397486 0.016088903 0.25440601
-0.044611514 0.011401296 0.25440601
-0.22873592 0.021230556 0.25440601
0.0044287937 0.025186567 0.25440601
0.18839371 0.029786758 0.25440601
0.22918156 0.020733811 0.25440601
-0.23649213 0.031131431 0.25440601
-0.15776822 0.038835716 0.25440601
-0.11802647 0.034406543 0.25440601
0.12576988 0.038302228 0.25440601
-0.077951491 0.044439256 0.25440601
0.1121946 0.04425304 0.25440601
0.13091333 0.043509983 0.25440601
0.18158926 0.047280028 0.25440601
0.078331441 0.051317453 0.25440601
-0.14073434 0.060759075 0.25440601
-0.094678141 0.063753858 0.25440601
-0.10115045 0.077742986 0.25440601
-0.061126836 0.077861264 0.25440601
0.042915918 0.076856196 0.25440601
0.15177129 0.078695908 0.25440601
-0.23528977 0.081012309 0.25440601
-0.086069591 0.086539343 0.25440601
0.095846422 0.09210135 0.25440601
-0.090542696 0.1143216 0.25440601
0.07259535 0.11110149 0.25440601
0.21715859 0.11253209 0.25440601
-0.13089108 0.14091346 0.25440601
0.038273543 0.14967665 0.25440601
0.18883151 0.14294872 0.25440601
-0.15502498 0.15082821 0.25440601
0.2076323 0.15827799 0.25440601
-0.19834781 0.16227718 0.25440601
-0.093213223 0.16856045 0.25440601
-0.015781049 0.17471972 0.25440601
0.045733437 0.17245096 0.25440601
-0.22990043 0.18092726 0.25440601
-0.14624146 0.18816899 0.25440601
-0.18376197 0.19860311 0.25440601
-0.055517122 0.19574662 0.25440601
0.084655419 0.19091749 0.25440601
0.10832045 0.19818175 0.25440601
-0.036654375 0.20997463 0.25440601
0.054305039 0.20603709 0.25440601
0.098648593 0.208482 0.25440601
0.025037155 0.2163807 0.25440601
0.17326403 0.21420954 0.25440601
0.18830541 0.21881913 0.25440601
-0.13481835 0.22348844 0.25440601
0.0062756985 0.22747193 0.25440601
-0.20966505 0.23676571 0.25440601
-0.16771311 0.23730981 0.25440601
0.0012041405 0.23367392 0.25440601
0.17368546 0.23926717 0.25440601
-0.18758889 0.24048445 0.25440601
0.17350894 0.24895442 0.25440601
-0.067291155 0.256338 0.25440601
0.054111429 0.25515664 0.25440601
0.11310665 0.25410169 0.25440601
-0.23567364 0.2613408 0.25440601
-0.1053968 0.26633057 0.25440601
0.039977551 0.26270822 0.25440601
0.19462579 0.26026139 0.25440601
0.20445614 0.26074472 0.25440601
-0.06626752 0.27047378 0.25440601
0.13759688 0.27200496 0.25440601
0.16089685 0.27440766 0.25440601
0.0041757077 0.28714716 0.25440601
0.070501179 0.28888828 0.25440601
0.20621428 0.28188446 0.25440601
-0.18645303 0.29302835 0.25440601
0.059927396 0.29026073 0.25440601
-0.25106072 0.30507213 0.25440601
-0.25114405 0.31705245 0.25440601
0.082644075 0.31697321 0.25440601
-0.15118805 0.32304052 0.25440601
-0.11920325 0.33936274 0.25440601
0.10766728 0.33441803 0.25440601
-0.21372385 0.34008542 0.25440601
-0.049563296 0.34908399 0.25336576
0.0014637858 0.34606099 0.25440601
0.084689423 0.34474126 0.25440601
