# .PCD v0.7 - Point Cloud Data file format
VERSION 0.7
FIELDS x y z
SIZE 4 4 4
TYPE F F F
COUNT 1 1 1
WIDTH 235
HEIGHT 1
VIEWPOINT 0 0 0 1 0 0 0
POINTS 235
DATA ascii
-0.14087585 0.33844429 -0.1562499
-0.13581723 0.33457148 -0.15379268
-0.15520611 0.34923446 -0.15533347
-0.14642806 0.34262744 -0.15685709
-0.16490829 0.35640776 -0.1536894
-0.15853833 0.35170704 -0.15390223
-0.17102915 0.36001521 -0.15075248
-0.14116293 0.33874685 -0.14392187
-0.13637848 0.33497804 -0.14397892
-0.15184753 0.34672543 -0.14661489
-0.14549354 0.34198457 -0.14456952
-0.16626015 0.35756189 -0.14403597
-0.15816484 0.35146281 -0.14592376
-0.17122149 0.36110443 -0.14253327
-0.16968599 0.36007375 -0.1496589
-0.13577965 0.33476919 -0.13574323
-0.15427935 0.34863949 -0.13601916
-0.14602397 0.34247065 -0.13442187
-0.16595609 0.35742649 -0.1361409
-0.15765424 0.35121557 -0.13063349
-0.1706969 0.36101285 -0.13496536
-0.1695382 0.3601346 -0.13578527
-0.14131105 0.33898127 -0.12981352
-0.1351312 0.33439887 -0.12456277
-0.15315029 0.347884 -0.12584019
-0.14757027 0.3437117 -0.12494516
-0.16370584 0.35585546 -0.12518726
-0.15651114 0.35040432 -0.12618063
-0.17136256 0.36139101 -0.12385117
-0.14085482 0.33877555 -0.11428165
-0.13582864 0.33480525 -0.11420242
-0.15459681 0.34907958 -0.11587693
-0.14461091 0.34158564 -0.11462326
-0.16573583 0.35750604 -0.11544188
-0.15784395 0.35155439 -0.11420089
-0.17186585 0.36217773 -0.1116008
-0.13492994 0.33419627 -0.10537126
-0.15353325 0.34842035 -0.10369691
-0.14779292 0.3440685 -0.10470869
-0.16680463 0.3583988 -0.10831705
-0.15690804 0.35093629 -0.10667624
-0.17244698 0.36269689 -0.10472649
-0.1697593 0.36066896 -0.10525855
-0.14153099 0.33943486 -0.09681236
-0.13524188 0.33462128 -0.095099047
-0.15301219 0.34812534 -0.095376909
-0.14607392 0.34288061 -0.095310971
-0.16448981 0.35681233 -0.094559684
-0.15807721 0.35197264 -0.093857378
-0.17218792 0.36258176 -0.097143687
-0.16945645 0.36054486 -0.096440688
-0.14140603 0.33945945 -0.086244367
-0.13601659 0.33539265 -0.086814262
-0.15328974 0.34845594 -0.085218884
-0.14606069 0.34298819 -0.085398614
-0.16321638 0.35597864 -0.083709732
-0.15826067 0.35221159 -0.085425764
-0.17214322 0.36272371 -0.083896205
-0.16946548 0.36069208 -0.084629953
-0.14045279 0.33884901 -0.075047679
-0.1348487 0.33461738 -0.075563274
-0.15153596 0.34724504 -0.073349051
-0.14681369 0.34365043 -0.076135993
-0.16377056 0.35648361 -0.07502614
-0.15620144 0.35072851 -0.078699432
-0.17542017 0.36487967 -0.07277143
-0.16866443 0.36015078 -0.079065949
-0.14119788 0.3395001 -0.064598016
-0.1360824 0.33561987 -0.06694895
-0.15298009 0.34841609 -0.063946687
-0.14422059 0.34177342 -0.066108033
-0.16555539 0.35790211 -0.066048488
-0.1552631 0.35010788 -0.068090588
-0.17335439 0.36359972 -0.065190762
-0.14035042 0.33890814 -0.058762975
-0.13688169 0.33630928 -0.056646075
-0.15186819 0.34765857 -0.05400591
-0.14585161 0.34308496 -0.056802973
-0.16400266 0.35679871 -0.054296874
-0.15623114 0.35096043 -0.053726643
-0.17138471 0.36230138 -0.055600345
-0.16839536 0.36006474 -0.058017261
-0.13852355 0.33762637 -0.046865247
-0.15192406 0.34777918 -0.044660389
-0.14716421 0.34420776 -0.041287094
-0.16230755 0.35557243 -0.044087101
-0.15799817 0.35235035 -0.045331955
-0.17464821 0.36477467 -0.043790717
-0.16857567 0.36023247 -0.04800351
-0.14041446 0.33915779 -0.034773391
-0.13350336 0.33397061 -0.033667188
-0.1514883 0.34751636 -0.035852816
-0.14399025 0.34185016 -0.036186323
-0.16384189 0.35674256 -0.036186419
-0.15754648 0.35205582 -0.03420011
-0.17543858 0.36535239 -0.036334056
-0.168433 0.36018115 -0.031432774
-0.1403214 0.33918598 -0.023021303
-0.13626727 0.33612189 -0.02350702
-0.15209937 0.34803 -0.02361718
-0.14489324 0.34263146 -0.024061244
-0.16492757 0.35758597 -0.025970718
-0.1556509 0.35067728 -0.023772905
-0.17382745 0.36422738 -0.023762161
-0.14087074 0.33964783 -0.017489608
-0.13781692 0.33735216 -0.015843268
-0.15316853 0.34885722 -0.014566476
-0.14500396 0.34277609 -0.012681685
-0.16400599 0.35694054 -0.013444117
-0.15606362 0.35100719 -0.017080344
-0.17327893 0.36384737 -0.014658727
-0.16976157 0.36123982 -0.010926793
-0.14111249 0.33990103 -0.0049728239
-0.13474753 0.33511931 -0.0068424684
-0.15175317 0.34783548 -0.0045068152
-0.14567922 0.34330904 -0.0039432244
-0.16402677 0.35698912 -0.0034838517
-0.15678191 0.35159448 -0.0015129885
-0.17626801 0.36579877 -0.0066979253
-0.14022829 0.33922797 0.0095644603
-0.13618188 0.33623657 0.0023612259
-0.1529358 0.34871235 0.0063670655
-0.14632003 0.34377939 0.0065738722
-0.16477661 0.35754484 0.0048520667
-0.15851945 0.35289115 0.0014409445
-0.1750733 0.36522526 0.0012232572
-0.14114201 0.33989105 0.013378192
-0.13545543 0.33559474 0.014982843
-0.15180776 0.34784198 0.015209831
-0.14499527 0.34275886 0.015040474
-0.16312747 0.35627687 0.016488701
-0.15718697 0.35184646 0.016970797
-0.1732706 0.36372834 0.014347976
-0.16865323 0.36039934 0.015619994
-0.13800262 0.33742094 0.024825692
-0.15312661 0.34879908 0.023077473
-0.14468202 0.34247595 0.024378318
-0.16360264 0.35660037 0.025731755
-0.15728997 0.35189855 0.024406575
-0.17499399 0.36508662 0.026504515
-0.16914688 0.36073768 0.02455396
-0.14040092 0.33918488 0.030750994
-0.13591047 0.33556467 0.035039365
-0.15170704 0.34768313 0.036029655
-0.14602579 0.34340376 0.034927599
-0.16253036 0.35576999 0.035060052
-0.15754347 0.35205412 0.034462824
-0.1731206 0.36366048 0.036650334
-0.16840823 0.36015147 0.035226524
-0.14126775 0.33975014 0.041514095
-0.13686109 0.33632731 0.047068041
-0.15111502 0.34713382 0.049078699
-0.14731914 0.34428391 0.046604566
-0.16311872 0.35617274 0.045843504
-0.1575101 0.35198903 0.045625355
-0.17493859 0.36498976 0.045690261
-0.14112025 0.33955663 0.051285569
-0.1353157 0.33498299 0.054618981
-0.15262431 0.34822857 0.054646563
-0.14650936 0.34359989 0.055147793
-0.1627982 0.3559007 0.054305993
-0.15760113 0.35199186 0.054705113
-0.17160818 0.36247548 0.053959589
-0.16904148 0.3605555 0.055716433
-0.14156651 0.33981752 0.060417593
-0.13603994 0.33562145 0.063014194
-0.15288131 0.34836355 0.061725158
-0.14466059 0.34212649 0.064113006
-0.16713344 0.35908952 0.066796362
-0.15777148 0.35203505 0.064918905
-0.17429982 0.36432987 0.064370707
-0.16932829 0.36072651 0.068590201
-0.1360831 0.33554512 0.076160662
-0.1523874 0.34787616 0.075303055
-0.14603743 0.34308276 0.074245907
-0.16400406 0.35666817 0.074500903
-0.15783156 0.35198355 0.076478422
-0.17209595 0.36276433 0.076581232
-0.16937698 0.36072686 0.07425192
-0.14097814 0.33914635 0.08579278
-0.13483536 0.33439007 0.085569993
-0.15188353 0.34742683 0.082774885
-0.14656366 0.34336644 0.086015306
-0.16426237 0.35676017 0.084906019
-0.15731107 0.35150269 0.085092217
-0.1738212 0.36389169 0.083838463
-0.1417288 0.33961427 0.094359949
-0.1358337 0.33503997 0.097352803
-0.15321675 0.34830123 0.094012976
-0.1463533 0.34307781 0.096918732
-0.16520984 0.35737294 0.09361583
-0.15969563 0.35317144 0.096364111
-0.14126749 0.33914 0.10838368
-0.1356034 0.33492655 0.10512121
-0.15327969 0.34822085 0.10477576
-0.14604411 0.34277028 0.10357068
-0.16449168 0.35667494 0.10665729
-0.15789086 0.35171637 0.10398784
-0.17190991 0.36229128 0.10530935
-0.16947494 0.36042258 0.10832354
-0.1407568 0.33868995 0.11610585
-0.13515203 0.33449793 0.11546848
-0.15330923 0.348097 0.11707079
-0.14790711 0.34404159 0.11650741
-0.1657951 0.35757074 0.11419633
-0.15805039 0.35169756 0.11571044
-0.17001314 0.36077404 0.11298428
-0.16948706 0.36036247 0.11414772
-0.14126955 0.33900723 0.12374049
-0.13585524 0.33460179 0.12359764
-0.15316652 0.34792656 0.12291461
-0.14493898 0.34176221 0.12295469
-0.1638467 0.35596624 0.1252522
-0.15739752 0.35104144 0.1293955
-0.17254318 0.36218151 0.12403828
-0.1697316 0.36036915 0.1289638
-0.1352334 0.33439049 0.13471021
-0.15142632 0.34652862 0.13349397
-0.14308178 0.34025437 0.13632359
-0.16333638 0.35548255 0.13348384
-0.15797567 0.35142335 0.13497508
-0.17160384 0.36165977 0.13494404
-0.14149903 0.33899871 0.14435792
-0.13687684 0.33552423 0.14580412
-0.15434396 0.34861499 0.14478572
-0.14632556 0.34261617 0.14405186
-0.16367024 0.35559666 0.1460347
-0.17152441 0.36068964 0.14325844
-0.14145283 0.3388972 0.15200651
-0.13715947 0.33531672 0.1573797
-0.15395896 0.34819588 0.15744184
-0.14615639 0.34242296 0.15286523
-0.16514763 0.35633403 0.15849793
-0.15681997 0.35041162 0.15242194
-0.1408658 0.33773601 0.16013183
