# .PCD v0.7 - Point Cloud Data file format
VERSION 0.7
FIELDS x y z
SIZE 4 4 4
TYPE F F F
COUNT 1 1 1
WIDTH 920
HEIGHT 1
VIEWPOINT 0 0 0 1 0 0 0
POINTS 920
DATA ascii
0.05434956 0.21773 -0.24480197
0.058253523 0.22464782 -0.24644229
0.029596312 0.21773002 -0.23346239
0.061651379 0.23443367 -0.23823905
0.064105853 0.24723598 -0.23231339
0.062991716 0.25553882 -0.2350032
-0.0028898646 0.20649277 -0.22294098
-0.00097857881 0.21383081 -0.22373307
0.035569578 0.21773 -0.22792768
-0.033056632 0.20605025 -0.21044546
-0.017646115 0.20382063 -0.2168287
0.071359381 0.20421834 -0.21480174
0.026726257 0.21773 -0.21394458
0.069261506 0.24495727 -0.21986648
0.070062295 0.25771141 -0.21793319
0.069319919 0.29903001 -0.21972546
0.072103389 0.32168061 -0.21300551
2.2019725e-05 0.16674341 -0.20076105
-0.0073969243 0.18259206 -0.20204633
0.0031110968 0.19460164 -0.20543627
-0.03329096 0.21773 -0.20411518
0.04471194 0.219614 -0.20414147
0.052689046 0.21773 -0.20844252
-0.030953873 0.0090785809 -0.19228919
-0.033318799 0.12543362 -0.19130927
-0.0039436696 0.12835784 -0.19361728
-0.0017656053 0.13623244 -0.19178855
-0.027975466 0.14439744 -0.19352251
-0.023470778 0.1793267 -0.19538821
-0.027148018 0.18864161 -0.19386518
-0.026567858 0.19551583 -0.19410549
-0.047075078 0.21773 -0.19069774
-0.013224095 0.21333538 -0.19963263
0.012345899 0.21552294 -0.19381258
0.036683388 0.219614 -0.19976804
0.054326929 0.219614 -0.19213556
-0.046491466 0.013261227 -0.18585289
-0.023813661 0.014021415 -0.18770292
-0.053665057 0.034488231 -0.1828818
-0.017198812 0.036990482 -0.18582541
-0.015901431 0.040846549 -0.18437266
-0.047039058 0.06581413 -0.18562633
-0.037531748 0.073906988 -0.18956436
-0.0050835563 0.095744863 -0.18216553
-0.0010541528 0.11415523 -0.18045586
-0.055761121 0.12312577 -0.18201351
0.0047641424 0.14777952 -0.18105346
0.0060559306 0.16353202 -0.18479536
-0.054583088 0.20694122 -0.18250127
-0.05934101 0.21773 -0.18553875
0.014978277 0.21388215 -0.1851836
0.083586179 0.21198113 -0.18528345
0.083876297 0.24610303 -0.18458304
0.084255323 0.26815021 -0.18366799
0.085358396 0.28339154 -0.18100488
0.083145194 0.35995424 -0.1863481
-0.080751203 -0.0063008545 -0.17166246
-0.084232673 0.003389722 -0.17022038
-0.024153177 0.0060297451 -0.17473871
-0.066921592 0.029447976 -0.17739078
-0.072871633 0.04550913 -0.17492616
-0.012345406 0.046155684 -0.17809996
-0.069835417 0.087351322 -0.17618369
-0.077282883 0.099693239 -0.17309889
-0.084558859 0.11946215 -0.17008501
-0.060662799 0.14359646 -0.179983
0.017189052 0.19762078 -0.17276415
-0.067006208 0.20113698 -0.1773555
-0.12635408 0.21156409 -0.17180052
-0.068061858 0.21050572 -0.17691824
0.02041436 0.21091935 -0.17076942
0.088823795 0.21480425 -0.17263865
0.087151133 0.2609407 -0.17667684
0.089383699 0.30503485 -0.17128691
-0.0758349 -0.0082856901 -0.16298705
-0.10601547 0.0096516944 -0.16119759
-0.011800189 0.022878794 -0.16642743
-0.0092086932 0.028058201 -0.16264538
-0.10544869 0.03980067 -0.16143252
-0.10763366 0.053323206 -0.16052699
-0.0013274837 0.06885758 -0.16138765
-0.00056026888 0.081201762 -0.16491158
-0.088860847 0.11866051 -0.16830307
0.0078967465 0.12819861 -0.1649628
-0.099721044 0.13258605 -0.16380467
-0.095040709 0.14379428 -0.16574331
-0.10617384 0.15128517 -0.16113186
-0.098959446 0.1705192 -0.16412014
0.014861304 0.17365494 -0.16794617
-0.095101863 0.19385457 -0.16571799
-0.088309251 0.21344045 -0.16853154
0.093828321 0.21413514 -0.16055658
0.091316722 0.26179966 -0.16662015
0.090394661 0.35405579 -0.16884618
0.091884293 0.360291 -0.1652499
-0.067043796 -0.0082856901 -0.1577404
-0.12071575 0.0081455261 -0.15510857
-0.12935013 0.015135186 -0.15153214
-0.11606312 0.01620258 -0.15703569
-0.11533837 0.057940751 -0.15733573
-0.13199475 0.061342411 -0.15043655
-0.1245858 0.060333114 -0.15350541
-0.12425591 0.094606787 -0.15364206
-0.12653258 0.10732621 -0.15269902
-0.11720976 0.11299914 -0.15656066
0.0085827503 0.11647265 -0.15819973
0.0099142604 0.12111596 -0.15700746
-0.124515 0.17997544 -0.15353474
0.023317136 0.1793351 -0.15000592
-0.13073003 0.1852224 -0.1509604
-0.13093817 0.21773 -0.1509245
0.033619829 0.21773 -0.15876824
0.095053405 0.23736921 -0.15759891
0.095798597 0.3480238 -0.15579987
0.00098290667 0.032817032 -0.14011334
-0.14281364 0.060733512 -0.14595523
-0.13566053 0.064221643 -0.14891815
-0.137407 0.08573164 -0.14819475
0.0078886412 0.0856978 -0.14647233
-0.14499223 0.092586637 -0.14505287
0.0086782649 0.093549937 -0.1479858
0.01063016 0.10530089 -0.14839134
0.021408563 0.14818114 -0.14104538
0.020560924 0.15525594 -0.14617297
-0.20156968 0.20296653 -0.14064533
-0.14468437 0.20431414 -0.14518037
-0.17971534 0.2110332 -0.14969765
-0.14778367 0.21773 -0.14725114
0.029539388 0.21119261 -0.14885877
0.10006122 0.21773 -0.14296138
0.10137016 0.26194727 -0.14234883
0.099490829 0.29417998 -0.14688596
0.10111618 0.30264783 -0.14296199
-0.16788583 0.037657727 -0.13557008
0.00753668 0.048707232 -0.13121179
-0.15986627 0.063816041 -0.13889188
-0.1807573 0.083177082 -0.13023858
-0.16708325 0.093043827 -0.13590252
-0.17395741 0.10495898 -0.13305518
-0.18125787 0.11348453 -0.13003123
-0.17694023 0.13874516 -0.13181965
-0.16410726 0.16878186 -0.13713521
-0.1666068 0.19071725 -0.13609987
0.03204906 0.19525951 -0.13586071
-0.22335374 0.2089881 -0.13162208
0.10357984 0.2717289 -0.13701417
-0.13326599 -0.0066154255 -0.12619603
-0.10929684 -0.0082856901 -0.12128597
-0.082387462 -0.0082856901 -0.12519127
-0.066876285 -0.0082856901 -0.12193174
-0.1697208 0.05503124 -0.12087884
-0.17409168 0.069430023 -0.12097947
0.01861356 0.08651191 -0.12093478
-0.18390116 0.093397804 -0.12726425
-0.18707022 0.17583165 -0.12762371
-0.20260833 0.18096136 -0.12118765
-0.18864791 0.18289593 -0.1269702
-0.19120064 0.19663085 -0.12591285
-0.18632174 0.19775631 -0.12793374
-0.22934517 0.21773 -0.12710775
0.076384626 0.21773 -0.12456027
0.10693475 0.29788557 -0.12891465
0.10767923 0.32379702 -0.12711729
0.010404556 0.031796951 -0.11692324
-0.17030282 0.059296802 -0.11918777
0.020053031 0.074433237 -0.1121991
0.038360585 0.17396639 -0.11134981
-0.2347538 0.20673943 -0.11384783
0.049529642 0.21772999 -0.11618192
0.11184327 0.21075104 -0.11706433
0.11192384 0.25532541 -0.1168698
0.11126771 0.34665617 -0.11845388
-0.20147023 -0.30119196 -0.10239846
-0.20140634 -0.25643423 -0.10224425
-0.2042859 -0.24600843 -0.10282399
-0.20475174 -0.19024247 -0.10263106
-0.20656714 -0.14220232 -0.10187925
-0.20106627 -0.060390066 -0.10142332
-0.07347773 -0.0082856901 -0.10415358
0.013374059 0.031649608 -0.10969007
0.047673952 0.19970235 -0.10007403
0.11658742 0.24572195 -0.10561086
0.11602006 0.26776019 -0.10698061
-0.19641246 -0.31494915 -0.090187877
-0.20037267 -0.30224246 -0.099748641
-0.19853926 -0.24493048 -0.095323034
-0.2032764 -0.1832356 -0.09035375
-0.20421049 -0.14693739 -0.092608973
-0.20658247 -0.12495735 -0.098335773
-0.20486984 -0.11168887 -0.09420085
-0.19841935 -0.075855829 -0.095033355
-0.20564343 -0.033867095 -0.096068911
-0.20452364 -0.028966626 -0.093365468
-0.057589289 -0.0082856901 -0.096438564
-0.14266145 0.0088730818 -0.0942237
0.034559794 0.10842612 -0.091981485
0.037876938 0.13854221 -0.097089432
0.053568598 0.21741827 -0.093558833
0.076656997 0.21773002 -0.091435909
0.087662056 0.21773 -0.093035609
0.12202701 0.32088453 -0.092478476
0.11995202 0.34911603 -0.097488001
-0.19424243 -0.27262819 -0.084949046
-0.19444895 -0.25494027 -0.085447654
-0.200692 -0.18517308 -0.084114075
-0.19324452 -0.11628881 -0.082540303
-0.19961351 -0.10612048 -0.081511423
-0.1934367 -0.085904077 -0.083004132
-0.10031604 -0.0082856901 -0.087590195
-0.13811886 0.0099955555 -0.081491604
-0.14628527 0.020004705 -0.089725196
0.026219923 0.034910869 -0.080097839
-0.16193545 0.073994331 -0.088318884
0.03322839 0.091111511 -0.087654874
-0.1720641 0.10913384 -0.087265037
-0.1737669 0.11516309 -0.086999536
0.040301338 0.12790696 -0.086604573
0.083335288 0.21773002 -0.088382341
0.12630057 0.25601307 -0.082161099
0.12661406 0.36014208 -0.081404276
-0.1928651 -0.310895 -0.074094631
-0.19598381 -0.30963999 -0.077734753
-0.18925759 -0.22428802 -0.07291469
-0.20395686 -0.19738756 -0.075591989
-0.20051526 -0.15288809 -0.071088329
-0.1886715 -0.15285456 -0.071501188
-0.20297602 -0.13809837 -0.07322263
-0.19896451 -0.10884888 -0.079944633
-0.18812236 -0.10717876 -0.070174307
-0.19882105 -0.01879704 -0.079598181
-0.11542923 -0.005651305 -0.075847596
-0.10583099 -0.0080591179 -0.077921957
-0.030782256 -0.0082856901 -0.076687016
-0.13108784 0.0065407101 -0.070780076
-0.1469572 0.048872299 -0.070393503
0.032901805 0.057828724 -0.073947743
0.037287347 0.095901467 -0.079941854
0.040105946 0.097792819 -0.073960923
-0.16670734 0.10366645 -0.078301311
0.038963486 0.10398643 -0.079416499
0.050212555 0.16730352 -0.079834938
0.12957686 0.23752531 -0.074251391
-0.19144309 -0.22869116 -0.06178635
-0.1946712 -0.19168207 -0.069579914
-0.19194382 -0.14230219 -0.062995426
-0.18779998 -0.12162257 -0.069396041
-0.18672013 -0.07802885 -0.066788919
-0.18418704 -0.067615107 -0.060673468
-0.19167872 -0.012721526 -0.062355053
-0.18447244 -0.010560561 -0.06136224
-0.10684017 -0.0072942665 -0.068787456
-0.016821589 -0.0082856901 -0.06482964
-0.12703747 0.003335387 -0.068301231
-0.14648512 0.057873324 -0.062720329
-0.15085326 0.066872872 -0.066733479
-0.16067241 0.10402635 -0.063470557
0.045711618 0.10118032 -0.061902992
0.048588175 0.12466569 -0.065186828
-0.18198217 0.16977377 -0.067193098
-0.17634344 0.16056329 -0.060265586
-0.18473084 0.18155842 -0.065274894
0.13468106 0.22201952 -0.061928682
-0.18760718 -0.29939103 -0.052525498
-0.19031337 -0.26208714 -0.05905883
-0.18062733 -0.2619786 -0.052079417
-0.18090338 -0.24701406 -0.052745819
-0.18123621 -0.22784984 -0.053549424
-0.18378347 -0.19966067 -0.059699066
-0.1889205 -0.1791151 -0.055696502
-0.18721604 -0.15630394 -0.051581062
-0.19016442 -0.14664292 -0.058699381
-0.18744199 -0.11954382 -0.052126721
-0.17993996 -0.11717055 -0.050420325
-0.18212122 -0.054092087 -0.055686038
-0.18168724 -0.01103604 -0.054638188
-0.11192223 -0.003407259 -0.054835513
-0.083944499 -0.0082856901 -0.052208118
-0.055045448 -0.0082856901 -0.0524402
-0.026980523 -0.0082856901 -0.057655215
0.033090539 0.015532245 -0.052263279
-0.13545157 0.036593027 -0.051529661
-0.14108016 0.054624978 -0.052029513
0.039646395 0.052264005 -0.055241317
-0.14887834 0.079169214 -0.053040177
0.04605867 0.083092131 -0.053187244
0.049248736 0.10786702 -0.056275897
0.055735182 0.1373263 -0.053446472
0.13658136 0.3210848 -0.05734092
-0.17727542 -0.27380484 -0.04398717
-0.18426645 -0.21679515 -0.044460382
-0.17705733 -0.21507569 -0.043460734
-0.18361562 -0.16115162 -0.042889014
-0.17625265 -0.1679765 -0.041518725
-0.17622632 -0.11150672 -0.041454788
-0.18519209 -0.10251225 -0.046694968
-0.18481313 -0.090707041 -0.045780055
-0.18369365 -0.056313634 -0.043077424
-0.063978709 -0.0082856901 -0.047737792
0.020253619 -0.0029997542 -0.040327691
-0.1141565 0.00073604804 -0.04453386
-0.12722619 0.024172444 -0.040687568
-0.15697734 0.11118381 -0.049354605
0.057611372 0.13816313 -0.049281441
0.063125104 0.1615977 -0.046176437
0.066968396 0.17041214 -0.040736847
-0.17846009 0.19033954 -0.043761991
0.072348431 0.20993257 -0.044960346
0.10961444 0.21772999 -0.049859326
0.14186348 0.23215866 -0.044588685
0.1406934 0.32932064 -0.047413554
-0.17514947 -0.30126894 -0.038854655
-0.18142164 -0.21569663 -0.037592359
-0.18192971 -0.20209536 -0.038818996
-0.18235816 -0.14874153 -0.03985307
-0.17875718 -0.12251419 -0.031160038
-0.18014519 -0.1127551 -0.034510672
-0.18080655 -0.066817448 -0.036107279
-0.17413236 -0.034777876 -0.036399227
-0.039391499 -0.0082856901 -0.03327018
0.030369576 0.0037727901 -0.038596421
-0.12814294 0.030188978 -0.038533621
-0.13461633 0.055696983 -0.035646435
-0.14729513 0.093863972 -0.038551636
-0.16424976 0.15905283 -0.032165401
0.065292872 0.15426172 -0.037748042
-0.16955237 0.16780308 -0.038615476
0.14457826 0.24804056 -0.038034562
-0.17479016 -0.30309236 -0.021582413
-0.1699523 -0.26036993 -0.026307691
-0.16935371 -0.14923325 -0.024863204
-0.17486838 -0.13568261 -0.021771194
-0.16853806 -0.085593358 -0.022893697
-0.17079644 -0.022309948 -0.02834557
-0.17005794 -0.0073247608 -0.026562642
0.00079160929 -0.0082856901 -0.024666391
-0.12285491 0.025011143 -0.029525653
0.049682546 0.029802453 -0.021229327
0.051681273 0.048945628 -0.024741378
-0.14724326 0.11108288 -0.025927879
0.07028091 0.14720017 -0.022630472
-0.16302235 0.15821405 -0.029811081
-0.17634183 0.20449536 -0.028372657
-0.19838005 0.21215138 -0.026034132
0.087872893 0.21773 -0.027993586
0.093889378 0.21773 -0.027133163
0.10849838 0.21773 -0.026061362
0.14869297 0.25421846 -0.028100725
0.1486377 0.26378766 -0.028234158
0.14849241 0.27274585 -0.028584905
0.14912705 0.28929412 -0.027052745
0.15023111 0.33499873 -0.024387326
-0.17054264 -0.27905133 -0.011328001
-0.16519582 -0.2578049 -0.014824562
-0.16374746 -0.20610532 -0.011328518
-0.17223892 -0.19730495 -0.015423258
-0.17080285 -0.10958157 -0.011955577
-0.16335335 -0.074982367 -0.010376684
-0.16718328 -0.042330153 -0.01962278
-0.07806427 -0.0081012594 -0.012859274
-0.021200204 -0.0082856901 -0.015930204
0.025177678 -0.0058720019 -0.012828447
-0.1068448 0.0066800276 -0.011975508
0.057709359 0.055056036 -0.012849562
0.061880119 0.085214682 -0.015915412
-0.16281575 0.1845997 -0.010159571
0.099189319 0.21772999 -0.018531449
0.1445882 0.21773 -0.015528208
0.15482023 0.35273343 -0.013308123
0.15605454 0.36193845 -0.010328181
-0.16714022 -0.32031301 -0.0031360984
-0.16357212 -0.30963999 -0.0063387901
-0.15976368 -0.30916655 -0.0017101765
-0.16184756 -0.24400328 -0.0067412304
-0.16691522 -0.17162016 -0.0025707893
-0.16281444 -0.10056806 -0.0090757534
-0.16127846 -0.079291202 -0.0053674802
-0.16638024 -0.064173236 -0.0012790672
-0.16934934 -0.022303447 -0.0084471051
-0.023023877 -0.0145641 -0.005091941
0.014925366 -0.0082670515 -0.0031801537
0.036073949 -0.0027120057 -0.0034260787
0.052872535 0.017989356 -0.0067817345
0.056157596 0.032159235 -0.0066236537
-0.13407326 0.096997879 -0.004356619
0.077306256 0.14621751 -0.0052418998
-0.19047566 0.20320258 -0.0069512911
-0.1713195 0.21539076 -0.0083389739
0.12135745 0.21773002 -0.0097896419
0.1574436 0.2327355 -0.0069747083
0.15697053 0.24275038 -0.0081167743
0.15734503 0.35548955 -0.0072126538
-0.16427559 -0.2862941 0.0038020462
-0.15639907 -0.23214439 0.0064125168
-0.16233979 -0.21883565 0.0084754862
-0.1629169 -0.1913688 0.0070821755
-0.15682134 -0.16829635 0.0053926557
-0.15531598 -0.14279737 0.0090268897
-0.16540584 -0.12082589 0.001073353
-0.15859914 -0.10083251 0.0010998324
-0.1553109 -0.094091356 0.0090393834
-0.16340412 -0.064091034 0.0059059411
-0.16432741 -0.035976157 0.0036768913
-0.1610283 -0.0086907186 0.0055584684
-0.11397394 0.036451194 0.00021865778
-0.14133179 0.12871127 0.0011393232
-0.1383163 0.12518664 0.005860962
-0.14592886 0.14383171 0.0010164779
-0.18479522 0.2114611 0.0067624729
0.16251068 0.23433301 0.0052583739
0.087436214 0.29592094 0.0086253062
0.16201523 0.34699816 0.0040622745
-0.15204224 -0.27386183 0.016930912
-0.15138111 -0.26808283 0.018526992
-0.15210915 -0.25901747 0.016769389
-0.15534692 -0.24211341 0.014421069
-0.15232407 -0.23357022 0.016250439
-0.16027316 -0.2277841 0.013464784
-0.15157884 -0.18412146 0.018049121
-0.15923151 -0.16378248 0.015979415
-0.15661733 -0.15381193 0.014087866
-0.16130562 -0.10862018 0.010972008
-0.15190738 -0.084277511 0.0172562
-0.16067278 -0.075336531 0.012499956
-0.15248498 -0.045281749 0.015861919
-0.15986949 -0.030789539 0.014439296
-0.025070485 -0.013311638 0.014398567
-0.099925816 0.017084539 0.019653713
0.067770161 0.037483558 0.019092619
0.072250932 0.078813039 0.011909995
-0.12256882 0.086555198 0.015837474
-0.13234866 0.11702702 0.014345296
-0.13218883 0.12165634 0.018091388
-0.13757966 0.13581945 0.015357301
0.047047518 0.29411736 0.016586106
0.16843055 0.29183459 0.019550331
0.081698753 0.30758542 0.010598002
0.056714494 0.31284213 0.010058755
-0.15472104 -0.30963999 0.021786641
-0.15589769 -0.2717554 0.024028119
-0.15678418 -0.17776442 0.021887913
-0.15485439 -0.11787188 0.026546899
-0.14752769 -0.075012423 0.02782971
-0.15679473 -0.058352649 0.021862425
-0.14721249 -0.044513546 0.028590817
-0.15440138 -0.015955644 0.027640529
-0.040519841 -0.0082856901 0.028896738
-0.026661647 -0.0082856901 0.023396753
-0.0052286745 -0.0082856901 0.028376183
0.0074589308 -0.0082856901 0.022046853
0.073742554 0.051215664 0.027530495
-0.11891577 0.088493332 0.026063461
-0.12107916 0.090039678 0.021963025
-0.13380618 0.13699174 0.025318265
0.086113535 0.13511963 0.020854127
0.088821962 0.14758955 0.021961853
0.092709325 0.15511541 0.028069023
-0.17812259 0.20349489 0.022871576
0.10480703 0.214617 0.02392176
0.15217464 0.21772999 0.021334175
0.16904265 0.21278177 0.02102806
0.17221905 0.24890995 0.028696619
0.031510726 0.27870628 0.023431344
0.042150859 0.28117454 0.025890449
0.17195959 0.28039539 0.028070245
0.03600838 0.29568315 0.024646167
0.17160982 0.29139546 0.027225781
0.1697616 0.33259746 0.022763753
0.063995779 0.34664011 0.02352888
0.1712258 0.34383321 0.026298687
-0.1517022 -0.25236398 0.03415693
-0.15127231 -0.23144248 0.035194814
-0.15169394 -0.17348816 0.034176849
-0.14336418 -0.091871783 0.037880752
-0.15325619 -0.067235172 0.030405223
-0.15325613 -0.029348077 0.030405395
-0.14934668 -0.0088082738 0.037766725
-0.047286183 -0.0082856901 0.035544924
-0.0067925723 -0.0082856901 0.030857459
0.078573421 0.06875661 0.031553637
0.08045499 0.066356689 0.037141375
0.089945436 0.11920076 0.037038237
0.097796008 0.16736738 0.035013281
0.14793113 0.21773 0.03259718
0.17502199 0.23619837 0.035463531
0.041967347 0.28301066 0.034519542
0.17663148 0.36012667 0.039349198
-0.14849652 -0.30059636 0.04189615
-0.14015321 -0.2819891 0.04563348
-0.14765507 -0.26512945 0.043927576
-0.14544661 -0.25943419 0.049259245
-0.1385746 -0.25552133 0.049444526
-0.14728415 -0.18317382 0.04482308
-0.13951126 -0.14917596 0.047182851
-0.14828686 -0.13709964 0.042402178
-0.14190565 -0.12696211 0.041402288
-0.145224 -0.10894563 0.049796492
-0.14539137 -0.075237699 0.049392596
-0.14885797 -0.021156078 0.041023545
0.0073332884 -0.0082856901 0.042176072
0.05542662 -0.0038467378 0.048390958
-0.080175862 0.0052457443 0.049559832
0.072446249 0.014837998 0.043636505
-0.12848119 0.15271515 0.049587134
-0.15288706 0.21772999 0.043763828
0.16038756 0.21773 0.043266155
0.1796577 0.26243836 0.046655245
0.1796919 0.29450166 0.046737775
0.18092336 0.29793555 0.049710792
0.17754391 0.30943394 0.041552022
0.18095535 0.30377299 0.04978805
0.18048503 0.35365027 0.048652563
-0.13949338 -0.32031301 0.055062119
-0.1368936 -0.31165004 0.053502917
-0.13767925 -0.30327278 0.051606167
-0.14440832 -0.259159 0.051765949
-0.13751394 -0.24157193 0.052004825
-0.14291129 -0.20373945 0.055380113
-0.14193979 -0.11197678 0.057725359
-0.13611373 -0.10262166 0.055385195
-0.14401507 -0.046592534 0.052715283
-0.14341035 -0.038498495 0.05417525
-0.13431165 -0.015029635 0.0597362
0.02067912 -0.0082856901 0.054504357
0.043420874 -0.0081019057 0.058248464
-0.084449112 0.015426468 0.055410076
-0.092593528 0.038103912 0.053034876
0.095113933 0.097860776 0.058810227
0.098799899 0.1166607 0.059521034
-0.11659315 0.12633245 0.05913686
0.097966343 0.12913147 0.052077278
-0.1285723 0.16174914 0.055924792
0.10918986 0.18459114 0.055019014
-0.16661489 0.20225842 0.050653543
0.18402269 0.24584503 0.057193309
0.10196919 0.3005307 0.054149054
0.18442874 0.35500139 0.058173589
-0.13136725 -0.24355358 0.066844217
-0.13160594 -0.20282073 0.066267975
-0.13778624 -0.18381982 0.067753069
-0.13964301 -0.16219662 0.06327042
-0.1400502 -0.083121561 0.062287275
-0.13161555 -0.058504164 0.06624496
-0.14019904 -0.049149826 0.061928034
-0.13019744 -0.034340777 0.069668718
-0.055822443 -0.0066870754 0.06009477
-0.045450404 -0.0081576519 0.063156947
0.0091031026 -0.0082856901 0.065368697
0.021425057 -0.0082856901 0.069100007
0.050893102 -0.0077167973 0.068143971
0.093193166 0.062705219 0.069484293
0.09262003 0.074477099 0.062973663
-0.10352752 0.096436404 0.068979323
-0.12468801 0.15666243 0.061609976
0.10905296 0.16717839 0.062272191
-0.13230312 0.19239862 0.069165498
0.18755512 0.20623486 0.065721408
0.18750697 0.23632094 0.065605178
0.088878058 0.28716338 0.069049582
0.10165937 0.28799465 0.066565864
0.13614595 0.28826281 0.069463037
0.087687358 0.29913679 0.062113523
0.18733153 0.33511686 0.065181606
0.079747163 0.35493606 0.066474214
0.10053294 0.35833254 0.068810314
-0.13419954 -0.28841376 0.076412171
-0.13474676 -0.2728911 0.075091034
-0.1295238 -0.14089745 0.071294688
-0.13607687 -0.13878962 0.071879879
-0.13398868 -0.11411751 0.076921165
-0.12749642 -0.097319879 0.076189213
-0.13428077 -0.016428413 0.076216057
-0.12957174 -0.0091051562 0.071179368
-0.051858157 -0.0063039078 0.072735801
0.056351978 -0.0071870745 0.073738962
0.080708273 0.0087521393 0.072506689
-0.076253124 0.014062766 0.073548593
0.087969422 0.021526497 0.075241774
0.10563983 0.1262424 0.071860947
-0.11152094 0.13392334 0.076892346
0.16276842 0.15889759 0.072745234
0.11276179 0.16495614 0.072193936
0.15161644 0.19757551 0.077932
0.15150672 0.20215218 0.078121863
0.16111636 0.20752829 0.072017342
0.15505166 0.220869 0.071811177
0.19173466 0.24506342 0.075811759
0.067455761 0.28932044 0.077221245
0.072451666 0.28925723 0.076675057
0.12784725 0.28976098 0.071514867
0.091945417 0.29815936 0.0763373
0.10276957 0.29534292 0.072618991
0.19303037 0.29973453 0.078939922
0.12746526 0.30535197 0.074517787
0.094914488 0.31611404 0.071520209
0.19133845 0.31038651 0.074855231
0.073609114 0.32473034 0.074185006
0.092104807 0.35783982 0.0704723
0.088421926 0.36154997 0.077653088
-0.12523553 -0.30944178 0.081647903
-0.13051501 -0.23451839 0.085307412
-0.13008381 -0.15124542 0.086348414
-0.12207694 -0.14452609 0.089273013
-0.12756789 -0.10707044 0.084219471
-0.13145168 -0.048869092 0.083046071
-0.12737268 -0.044558171 0.084690869
-0.12318547 -0.035704482 0.086597025
0.089814961 0.012880292 0.088090584
0.092303365 0.01968661 0.086839832
0.09236148 0.024799384 0.084306449
-0.11098242 0.14662088 0.087409288
0.12499056 0.1945173 0.088842027
0.15134984 0.20512542 0.086507097
0.17046702 0.21629643 0.082918458
0.066757068 0.29754794 0.087529294
0.13845639 0.2902711 0.08072266
0.14278775 0.298572 0.089666933
0.19607797 0.31010804 0.086297527
0.13787258 0.34562731 0.082765222
0.1414977 0.34866264 0.08866626
0.068429075 0.35181794 0.081303634
-0.12069891 -0.30963999 0.096741192
-0.11769566 -0.30560556 0.09985067
-0.12005618 -0.29701099 0.094151869
-0.12541994 -0.28272942 0.097607985
-0.12639606 -0.22944582 0.095251441
-0.12656681 -0.19660515 0.094839223
-0.12748307 -0.18017554 0.092627198
-0.1276141 -0.14152257 0.092310861
-0.12730521 -0.097028092 0.093056448
-0.12475997 -0.086578049 0.099201217
-0.12718248 -0.053312618 0.093352795
-0.12137535 -0.040320106 0.090967029
-0.12842739 -0.024355117 0.090347379
-0.11801343 -0.024155281 0.099083453
-0.017037636 -0.0082856901 0.097503886
0.00055496488 -0.0082856901 0.09288805
0.075029507 -0.0032210757 0.092907131
0.10463472 0.056519762 0.099800505
-0.097720973 0.10822991 0.091558181
0.16629723 0.16932777 0.0906078
-0.11929724 0.18655407 0.096322097
0.13137285 0.20868637 0.098079197
0.20129266 0.2278547 0.098886989
0.16278943 0.24473509 0.091007367
0.14382491 0.298572 0.098280214
0.14875126 0.30573562 0.090402797
0.1320719 0.31845543 0.09916836
0.14898223 0.31313094 0.090700269
0.15028609 0.31334299 0.09507221
-0.12088373 -0.24053939 0.10855943
-0.11741568 -0.21036141 0.10052628
-0.11394692 -0.20226303 0.1089006
-0.12088628 -0.19152345 0.10855327
-0.1205593 -0.16947553 0.10934266
-0.1211101 -0.091976881 0.10801286
-0.12285422 -0.034591705 0.10380222
-0.12248524 -0.025817223 0.10469303
-0.12205105 -0.017169287 0.10574125
0.049861092 -0.0082856901 0.10588117
0.06590423 -0.0079252915 0.10745218
-0.061317962 0.009765815 0.10356091
-0.062799975 0.017419301 0.10957821
-0.073893577 0.043204654 0.10188271
0.1086311 0.068260349 0.10433527
0.11204833 0.076412007 0.10903491
0.11455239 0.097760983 0.10578217
-0.14102744 0.21773 0.10790253
-0.12686852 0.21772999 0.10908668
0.13085453 0.31077984 0.10146175
0.20398138 0.36214083 0.10537816
-0.11659067 -0.24709342 0.11892378
-0.11760012 -0.073802844 0.11648668
-0.11276971 -0.044019867 0.11174276
-0.015410312 -0.0082856901 0.11316229
-0.066100597 0.039866388 0.11827338
-0.065773465 0.040206138 0.11930977
-0.090985656 0.12209589 0.11788366
0.12507229 0.12713268 0.11838721
0.12684841 0.14610159 0.11441366
0.18350247 0.21773 0.11408699
0.14294782 0.27700439 0.11628089
0.13914561 0.29649597 0.11000642
0.14503877 0.30222118 0.11416272
0.20813015 0.32089475 0.11539423
0.20610717 0.34501776 0.11051032
-0.11404534 -0.3146047 0.12506877
-0.10757603 -0.25699195 0.12428133
-0.11553076 -0.23155162 0.12148264
-0.10812015 -0.18816981 0.12296767
-0.11530364 -0.16584393 0.12203096
-0.11356433 -0.15729281 0.12623002
-0.11264997 -0.12439174 0.1284375
-0.11326309 -0.11540392 0.12695731
-0.10777903 -0.057708748 0.12379121
0.012589009 -0.0082856901 0.12246549
0.036432128 -0.0082856901 0.12188493
0.10419242 0.011409287 0.12470205
0.12825264 0.12341575 0.12768406
0.13018617 0.13773306 0.12611644
0.13704674 0.17405227 0.12686126
0.13399333 0.18785408 0.12876989
-0.10873429 0.19275071 0.12632135
0.13844882 0.19419734 0.12692434
0.14130926 0.20557904 0.12573951
0.16617811 0.21772999 0.12407235
0.17173228 0.21773 0.12053296
0.14892298 0.23355639 0.12820518
0.18573953 0.25396964 0.1227021
0.14876337 0.27988183 0.12631731
0.15065058 0.279744 0.12893814
0.15377493 0.29294765 0.12542209
-0.10899724 -0.22537328 0.13725597
-0.11197481 -0.21439496 0.1300675
-0.10113788 -0.1844871 0.13982439
-0.11017807 -0.14002013 0.13440521
-0.10602683 -0.12753768 0.1362243
-0.11115929 -0.11121459 0.1320363
-0.11014336 -0.055218071 0.13448891
-0.11116709 -0.040311191 0.13201745
0.080912709 -0.0069023091 0.13056634
0.096182369 -0.00025761634 0.13222331
-0.041749544 0.0036543538 0.13839139
0.10483491 0.005063796 0.13884282
-0.064163052 0.060502883 0.13793029
0.1105265 0.060337882 0.13849001
-0.082780786 0.12264505 0.13809061
-0.088516414 0.13061741 0.13003051
0.12521265 0.19410715 0.13240696
0.15419532 0.2031244 0.13942857
0.176623 0.20819594 0.13013867
-0.12854315 0.21772999 0.13385761
0.15741828 0.23792595 0.13455749
0.14850511 0.24168837 0.13071266
0.15764505 0.2418091 0.1315458
-0.10737006 -0.28152913 0.14118433
-0.096941486 -0.26720712 0.14995535
-0.10753035 -0.24085501 0.14079736
-0.10059135 -0.19530265 0.14114383
-0.10752708 -0.17072403 0.14080526
-0.10377949 -0.12617823 0.14985274
-0.098819509 -0.097123057 0.14542143
-0.098948613 -0.038468875 0.14510955
0.061267234 -0.0082856901 0.14105839
-0.036432263 0.0026288813 0.14868888
-0.049193464 0.023306614 0.14707047
0.10027149 0.02511348 0.1427377
0.10651472 0.078617483 0.14015177
-0.069114909 0.087939799 0.14589125
0.091245838 0.10036588 0.14647627
-0.079124734 0.11799644 0.1435428
0.086385079 0.14274698 0.14848977
-0.090642251 0.16177021 0.14751136
0.16877601 0.19681531 0.14898038
0.089089088 0.20423326 0.14736985
0.16205306 0.21139321 0.1404662
-0.10098487 -0.32031301 0.15507898
-0.096786566 -0.31991124 0.15032952
-0.095484428 -0.30374998 0.15347314
-0.10121752 -0.25549749 0.1560379
-0.09326221 -0.21663024 0.15883791
-0.096700653 -0.19861552 0.15053678
-0.098174982 -0.14676572 0.15518034
-0.092835814 -0.063719004 0.15986732
0.19075219 -0.034480445 0.15246448
0.059460741 -0.0082856901 0.15195456
0.071815111 -0.0043428126 0.15452486
0.17435282 -0.002578371 0.15023825
0.068593755 0.0043489309 0.15585913
0.072413035 0.0034381114 0.15427718
0.078841805 0.055308305 0.15161419
0.07024461 0.062870748 0.15517515
0.063648127 0.078704797 0.15790734
0.17220092 0.080289826 0.1560033
-0.067167081 0.093064569 0.15431365
0.069782227 0.092552185 0.15536655
0.17296493 0.092496566 0.15826257
-0.069035009 0.10453656 0.15813135
0.061445944 0.10155917 0.15881956
-0.074769855 0.11643661 0.15292415
0.16635107 0.11928448 0.15188941
0.082461163 0.12613331 0.15011518
-0.091936991 0.16953556 0.1500223
0.16486055 0.16857123 0.15928002
-0.092765406 0.18438919 0.15880424
0.16765273 0.18095605 0.15597934
0.074046925 0.19173776 0.15360048
0.071212538 0.21237206 0.15477459
0.11201242 0.21773 0.15460692
-0.091456637 -0.31703734 0.16319707
-0.095559604 -0.30963999 0.1647501
-0.097148739 -0.2552067 0.16586083
-0.089904964 -0.25929576 0.16694301
-0.096185103 -0.13574845 0.16818725
-0.090826727 -0.10843398 0.16471769
0.19234084 -0.10179801 0.16586249
-0.098137349 -0.091523342 0.1634741
0.19072011 -0.085103281 0.16580743
0.20310716 -0.065842785 0.16464128
-0.09209922 -0.043937743 0.16164561
0.18539448 -0.022529157 0.16300163
-0.092811421 -0.0092958035 0.16799219
-0.016178109 -0.0054465309 0.16510913
0.0091627436 -0.0082856901 0.16031495
0.018846242 -0.0082856901 0.16261482
0.17453094 0.02323522 0.16229644
0.18838671 0.024059631 0.16918972
0.043435976 0.049276806 0.16627936
0.19165435 0.042693906 0.16338146
0.17350231 0.058700629 0.16210794
0.18872185 0.05233033 0.16788858
0.17393884 0.063827619 0.16018133
0.054040633 0.079076797 0.16188669
0.20117101 0.070337579 0.16275486
-0.065490082 0.099429838 0.1629827
0.19412813 0.091393419 0.16213022
0.047711011 0.10370104 0.16450864
0.19115263 0.10005996 0.16384284
-0.069153145 0.12005761 0.1691125
0.050768688 0.12806717 0.16324246
0.16359529 0.12768097 0.16300538
-0.076506019 0.14414264 0.16884387
0.054830134 0.15174206 0.16156024
0.20269179 0.15018004 0.16401242
0.044597685 0.17270097 0.16579872
0.039352201 0.18781148 0.16797152
0.053212136 0.18889976 0.16223055
0.18930098 0.18116537 0.16607065
0.18836907 0.20655428 0.16957018
0.09412729 0.2133542 0.16430947
0.1014204 0.21125251 0.1612886
0.18637086 0.24104086 0.16287985
-0.087995224 -0.19367537 0.17155354
-0.095287949 -0.14686169 0.17035317
0.20559832 -0.13732624 0.17055283
-0.085678458 -0.12651648 0.1771467
0.19149289 -0.12286732 0.17724626
0.20448987 -0.12876701 0.1771704
-0.092686482 -0.11151417 0.17663367
0.20277816 -0.11735418 0.17820248
0.19547613 -0.094811827 0.17788434
0.19079481 -0.081581809 0.17522845
-0.088403627 -0.050491869 0.17056757
0.19933395 -0.031019155 0.17547575
0.20094037 -0.0049257763 0.17458005
0.013516454 0.010141086 0.17867233
0.016966896 0.02562698 0.17724368
0.20241567 0.061737668 0.17322786
0.01815201 0.093298689 0.17675266
0.19336736 0.094443582 0.17594993
0.19203496 0.1357024 0.17540653
-0.077602565 0.15102653 0.17119342
0.018271744 0.1817843 0.17670333
0.033705235 0.20189857 0.17031062
0.058074467 0.20787427 0.17924312
-0.10483612 0.21773002 0.1737266
0.19152209 0.2106165 0.17515096
0.19619611 0.22126642 0.17622542
-0.087745041 -0.26799268 0.18856339
-0.083083376 -0.25194171 0.18341179
-0.082724601 -0.21153739 0.18427795
-0.082491286 -0.14510231 0.18484122
-0.088847265 -0.085159853 0.18590239
0.0031384069 -0.0051168734 0.18297091
-0.012761484 0.0020685997 0.18955663
0.0060025011 0.018650319 0.18178484
-0.0036350568 0.075494409 0.18577713
-0.008916948 0.082097344 0.18796499
0.0014081029 0.083618566 0.18368821
-0.082503349 0.18635717 0.18500757
0.0026963353 0.19929305 0.18315496
-0.0095150806 0.20547388 0.18821311
-0.0027734749 0.21760418 0.18542069
-0.079567611 -0.28738898 0.19956067
0.2116994 -0.25085902 0.19284365
0.20500635 -0.24118012 0.19042805
-0.086964324 -0.23912112 0.19044819
0.21457368 -0.22874823 0.19307619
-0.079198338 -0.2113131 0.1927911
-0.084072039 -0.19714405 0.1974308
-0.086955234 -0.15062658 0.19047013
-0.085911438 -0.13745256 0.19299009
-0.083831459 -0.0093783792 0.1902962
-0.030355174 0.025594275 0.19421044
-0.025678042 0.047507986 0.19490758
-0.02459006 0.056200385 0.19445693
-0.071039759 0.16874607 0.19989964
-0.030788474 0.16528186 0.19702473
-0.074642055 0.17216435 0.19368418
-0.08067473 0.19439958 0.19526003
-0.027838873 0.19828534 0.19580308
-0.016465921 0.19611825 0.19109221
-0.022691611 0.20655657 0.19367102
-0.092661373 0.21773002 0.19294274
-0.020620383 0.21773 0.19738278
-0.082701452 -0.309154 0.20073971
0.21444416 -0.29315215 0.20742801
-0.081374042 -0.14719218 0.2003087
-0.044324193 0.10204013 0.20263124
-0.039274111 0.12179054 0.20053947
-0.043945499 0.13680448 0.20247449
-0.07134749 0.17422907 0.20313668
-0.038905025 0.19317335 0.20038682
-0.0070982389 0.20888205 0.20623852
-0.10273494 0.2102403 0.20487288
-0.01097288 0.21772999 0.20550779
0.21140751 -0.26148817 0.21140635
-0.06250608 0.18284792 0.21016268
-0.029414065 0.21475312 0.21548203
0.21262187 -0.30164081 0.22537915
0.21687236 -0.29245722 0.22252065
0.2320381 -0.0038414067 0.22855872
0.23452038 0.054294389 0.22901049
-0.08358229 0.21773002 0.22279932
-0.060814641 0.21607915 0.22848856
0.22354765 -0.094406702 0.23063178
0.22717737 -0.078823879 0.23797557
0.2348284 -0.077682823 0.23882963
0.22632755 -0.041347615 0.23731461
0.2279819 0.073379785 0.24039157
0.21237218 0.087791599 0.24033654
