# .PCD v0.7 - Point Cloud Data file format
VERSION 0.7
FIELDS x y z
SIZE 4 4 4
TYPE F F F
COUNT 1 1 1
WIDTH 122
HEIGHT 1
VIEWPOINT 0 0 0 1 0 0 0
POINTS 122
DATA ascii
-0.16186388 0.3496846 -0.074035615
-0.15931524 0.34882557 -0.073208168
-0.16230509 0.34969696 -0.066945143
-0.15726495 0.34801379 -0.066142
-0.16412926 0.34869987 -0.050362654
-0.15707392 0.34606087 -0.051375616
-0.19137514 0.35889101 -0.052915026
-0.18426174 0.35623032 -0.052360833
-0.17420173 0.35246742 -0.052518543
-0.21231198 0.36672229 -0.052050941
-0.20575075 0.36426806 -0.053106643
-0.19715513 0.36105296 -0.052053694
-0.16376247 0.34856269 -0.04538393
-0.15535527 0.34541804 -0.044172328
-0.19188344 0.35908115 -0.044276595
-0.18579154 0.35680255 -0.04523246
-0.17637092 0.35327879 -0.045455579
-0.16914576 0.35057625 -0.047052454
-0.21231325 0.36672273 -0.046402842
-0.2048168 0.36391875 -0.045039788
-0.19733782 0.3611213 -0.04672328
-0.16451751 0.34884509 -0.035389669
-0.15515576 0.34534344 -0.035901472
-0.14999954 0.34341478 -0.039980981
-0.19210881 0.35916543 -0.035744365
-0.18492021 0.35647658 -0.035362564
-0.17505996 0.35278848 -0.036925592
-0.16851027 0.35033858 -0.033466239
-0.21267097 0.36685652 -0.03408559
-0.20530881 0.36410272 -0.036379196
-0.19788191 0.36132482 -0.034254905
-0.10475431 0.33137608 -0.022209808
-0.16260539 0.3481299 -0.028461674
-0.15535186 0.34541675 -0.024815435
-0.19219114 0.35919628 -0.028414564
-0.18569508 0.35676643 -0.026845593
-0.17625816 0.35323662 -0.024705544
-0.16843641 0.35031095 -0.025294954
-0.21343462 0.3671422 -0.024640396
-0.20505919 0.36400941 -0.024504827
-0.19746238 0.36116788 -0.026697826
-0.10339835 0.33127543 -0.016246535
-0.099838063 0.33101118 -0.010581663
-0.16316873 0.34834063 -0.014876325
-0.15551515 0.34547782 -0.01554243
-0.19170535 0.35901451 -0.01550708
-0.18409115 0.35616648 -0.014950945
-0.17435195 0.3525236 -0.014006945
-0.16896434 0.35050842 -0.017612029
-0.21224944 0.36669892 -0.01532851
-0.20558526 0.36420625 -0.015118819
-0.19786176 0.36131728 -0.014979368
-0.10346045 0.33128002 -0.0065342993
-0.1634291 0.34843799 -0.0035742545
-0.15426576 0.34501052 -0.0045983535
-0.19216059 0.3591848 -0.0047825314
-0.18486464 0.3564558 -0.0046929619
-0.17539759 0.35291472 -0.0052028634
-0.16916329 0.35058284 -0.0053020949
-0.21283668 0.36691853 -0.0046699196
-0.20537905 0.36412907 -0.0055490038
-0.19773591 0.36127019 -0.0056410045
-0.103283 0.33126685 0.0036291645
-0.16343527 0.34844032 0.0059133298
-0.15457788 0.34512731 0.0053007519
-0.1921892 0.3591955 0.0059312368
-0.18567152 0.35675764 0.0052564344
-0.17727908 0.3536185 0.0040699751
-0.16871463 0.35041499 0.0046680328
-0.21298665 0.36697465 0.0048015607
-0.20638883 0.36450672 0.0047064163
-0.19748783 0.36117744 0.0060017151
-0.1037005 0.33129781 0.014453718
-0.16275503 0.3481859 0.014841721
-0.15406242 0.34493449 0.013835739
-0.14990912 0.34338099 0.014847528
-0.19253048 0.35932314 0.013100645
-0.1842353 0.35622039 0.015981441
-0.17508283 0.352797 0.014459547
-0.16851376 0.35033989 0.015027578
-0.21387117 0.36730546 0.016428275
-0.20509748 0.36402377 0.014337658
-0.19670294 0.3608838 0.014520782
-0.10317522 0.33125886 0.022400543
-0.16361649 0.34850809 0.025368519
-0.15538192 0.34542799 0.023265064
-0.14994574 0.34339467 0.029631699
-0.19238082 0.35926715 0.0262654
-0.18408802 0.35616532 0.025321627
-0.17482293 0.35269979 0.025059428
-0.16913879 0.35057369 0.025555441
-0.2124836 0.36678648 0.023851147
-0.20552468 0.36418352 0.025479114
-0.19771497 0.36126238 0.024665929
-0.1632207 0.34836006 0.033446379
-0.15537329 0.3454248 0.034822747
-0.19073397 0.35865116 0.035308409
-0.18478289 0.35642526 0.034409534
-0.17369348 0.35227728 0.036245696
-0.16851525 0.35034046 0.031051297
-0.21361519 0.3672097 0.035313025
-0.2047645 0.36389917 0.034470901
-0.1977669 0.36128178 0.035136554
-0.16377209 0.34856629 0.04350137
-0.15484378 0.34522671 0.045169555
-0.19168879 0.35900831 0.045174945
-0.18440026 0.35628211 0.043838818
-0.17472371 0.35266265 0.044553801
-0.16881216 0.35045147 0.044487454
-0.2130602 0.36700216 0.045259982
-0.20513223 0.36403674 0.045187965
-0.19628264 0.36072659 0.045403007
-0.16296335 0.3482638 0.05259769
-0.15405732 0.34493259 0.051955469
-0.14985904 0.34336224 0.053316053
-0.19308536 0.35953069 0.050157346
-0.18719831 0.35732871 0.052279968
-0.1755233 0.35296175 0.052577727
-0.16973163 0.35079542 0.051497571
-0.21398881 0.36734945 0.050682113
-0.20573132 0.36426085 0.052428551
-0.19786704 0.36131924 0.053062785
