# .PCD v0.7 - Point Cloud Data file format
VERSION 0.7
FIELDS x y z
SIZE 4 4 4
TYPE F F F
COUNT 1 1 1
WIDTH 978
HEIGHT 1
VIEWPOINT 0 0 0 1 0 0 0
POINTS 978
DATA ascii
-0.13392714 -0.33354473 -0.23422921
0.026913516 -0.33393499 -0.23227891
-0.014725853 -0.32188308 -0.23423567
0.16537799 -0.32516417 -0.23424557
-0.21897002 -0.31371647 -0.23422459
-0.095789574 -0.30069149 -0.23423129
0.22746827 -0.30840623 -0.23424904
-0.22626321 -0.28305554 -0.23422417
-0.02945118 -0.28990036 -0.2342349
-0.016346451 -0.28903797 -0.23423558
0.077458933 -0.28189242 -0.23424071
-0.19744274 -0.27910367 -0.23422575
-0.18405521 -0.27946132 -0.23422648
-0.076664202 -0.2754944 -0.23423231
-0.15215482 -0.26552957 -0.23422822
0.13609 -0.26968071 -0.23424399
0.11641079 -0.25396961 -0.23424292
0.13015413 -0.2528179 -0.23424366
0.089591078 -0.23310392 -0.23424143
0.19380893 -0.23083854 -0.23424751
-0.02663861 -0.22202049 -0.23423505
0.11142156 -0.2271021 -0.23424262
0.23222241 -0.21448132 -0.23424962
-0.17118551 -0.20169234 -0.23422717
-0.14236259 -0.18168032 -0.23422875
0.18904237 -0.18072677 -0.23424724
-0.051184025 -0.17525333 -0.23423371
0.20359984 -0.17878209 -0.23424807
-0.15550463 -0.16062555 -0.23422804
-0.094138846 -0.1675749 -0.23423138
-0.035866588 -0.16365418 -0.23423453
-0.02220086 -0.16347837 -0.2342353
0.17829135 -0.15413736 -0.23424664
0.18783681 -0.15893972 -0.23424715
0.25774366 -0.15739629 -0.23058014
-0.25660378 -0.1456902 -0.23422253
0.058412611 -0.14660068 -0.23423974
-0.2477928 -0.13333558 -0.23422301
-0.19955675 -0.13136894 -0.23422563
0.087135717 -0.13639057 -0.23424134
0.048333324 -0.1205914 -0.23423919
-0.22158471 -0.11303186 -0.23422444
0.13574073 -0.11465901 -0.23424429
-0.13544126 -0.10271572 -0.23422913
-0.051226389 -0.091979936 -0.23423369
0.21473216 -0.09762539 -0.23424867
0.095249623 -0.087218523 -0.23424204
-0.24476168 -0.078436263 -0.23422319
-0.20105833 -0.046213299 -0.23422557
-0.16626564 -0.048326313 -0.23422745
0.050891131 -0.045965895 -0.23423958
-0.095928647 -0.034648512 -0.23423126
0.2204316 -0.031876214 -0.234249
-0.20416579 -0.02510811 -0.23422539
-0.061889701 -0.022134781 -0.23423314
0.034037024 -0.024768353 -0.23423865
-0.18554649 -0.015899435 -0.23422641
-0.16898389 -0.014140911 -0.2342273
0.12583804 -0.016585469 -0.23424374
0.19735712 -0.01478171 -0.2342477
-0.20612457 -0.0015465021 -0.23422527
-0.080322132 0.0039322525 -0.23423213
0.10032067 0.017451175 -0.23424232
0.1179267 0.017037809 -0.2342433
-0.2455585 0.024911582 -0.23422314
-0.1820944 0.023666576 -0.23422658
-0.13250124 0.020012517 -0.2342293
0.22546265 0.027321048 -0.23424926
0.025266521 0.036262855 -0.23423816
0.24784197 0.032119222 -0.23425049
0.16602783 0.04196997 -0.23424596
0.19350897 0.045075268 -0.23424748
0.062448658 0.059782229 -0.2342402
0.075942226 0.059245553 -0.23424098
0.22417209 0.054725491 -0.23424917
-0.13299103 0.062948629 -0.23422925
-0.24183148 0.07966511 -0.23422334
-0.070559874 0.076325186 -0.23423272
0.17256877 0.085293755 -0.23424633
0.237872 0.086635016 -0.23424995
-0.21143869 0.092916414 -0.23422498
-0.099949114 0.10630587 -0.23423111
-0.19283158 0.11859984 -0.23422599
0.1666216 0.11310112 -0.23424599
0.21798399 0.119036 -0.23424885
-0.2625781 0.12649316 -0.2342222
-0.013245717 0.13927034 -0.23423603
-0.14457051 0.14278257 -0.23422864
0.034690402 0.14682123 -0.23423868
-0.016533896 0.15267166 -0.23423585
0.067520969 0.1584897 -0.2342405
0.19650875 0.15459836 -0.23424764
0.23122339 0.15321884 -0.23424958
0.25600943 0.15532194 -0.23425095
-0.20504652 0.1677866 -0.23422533
0.079490326 0.18914723 -0.23424117
0.22056685 0.18240115 -0.234249
0.246803 0.18114111 -0.23425044
-0.12158881 0.20757695 -0.23423001
-0.10220785 0.20769978 -0.2342311
0.1416512 0.22775459 -0.23424461
0.16224176 0.22948055 -0.23424576
0.19384529 0.2243641 -0.23424751
0.23381251 0.22813523 -0.23424973
-0.10958754 0.23849514 -0.23423067
0.23367518 0.23795903 -0.23424971
0.037349582 0.24315852 -0.23423882
0.074759103 0.24297273 -0.2342409
0.0224576 0.25405395 -0.234238
0.017743789 0.26999056 -0.23423775
0.22183672 0.26517901 -0.23424906
-0.23449415 0.27372706 -0.23422375
-0.21740565 0.27704683 -0.23422472
-0.13753328 0.27661893 -0.23422915
-0.10011707 0.27440262 -0.2342312
0.093154848 0.27235508 -0.23424193
-0.17919321 0.28359276 -0.23422682
0.1057305 0.28001919 -0.23424262
-0.093061075 0.29916406 -0.23423159
-0.21292979 0.30880815 -0.23422498
-0.11709784 0.3068403 -0.23423028
-0.2689355 0.31678766 -0.23422199
-0.11712993 0.33032942 -0.23423027
-0.030183665 0.33393499 -0.23289728
0.046607018 0.33393499 -0.23378639
0.20978041 0.332268 -0.23424838
0.25934663 -0.22542097 -0.22201066
0.25874242 -0.17005141 -0.22524083
-0.26648799 -0.030040219 -0.2226049
-0.26648799 -3.5956502e-05 -0.22011036
0.25968531 0.011157882 -0.22020015
-0.26648799 0.13331492 -0.22400507
-0.26648799 0.22937797 -0.22613899
-0.20744115 0.33393502 -0.22638579
-0.19927779 0.33393496 -0.22968148
0.10982642 0.33393499 -0.22207505
-0.26648799 -0.090390056 -0.21623458
-0.26648799 -0.042888109 -0.21502128
0.26050851 0.26333737 -0.21579933
-0.13583215 0.33393499 -0.21658002
0.012333274 -0.33393499 -0.20910054
0.24003918 -0.33393499 -0.20753486
-0.26648799 -0.32367632 -0.20480517
-0.26648799 -0.072544508 -0.2011006
-0.26648799 0.27271435 -0.20273796
-0.14962515 0.33393499 -0.20434953
-0.096256934 -0.33393499 -0.19808149
0.26353264 0.17593108 -0.19963238
-0.26648799 0.25829262 -0.19346657
-0.27010739 0.30089501 -0.19779761
-0.10758875 0.33393499 -0.19921719
0.05083546 0.33393499 -0.19158576
-0.032545008 -0.33393499 -0.18220282
-0.26648799 0.077855185 -0.183432
-0.24563551 0.33393499 -0.1877231
-0.1285754 0.33393502 -0.18879731
-0.097854756 0.33393499 -0.18391342
0.032139957 0.33393499 -0.1825784
0.25383139 0.33393499 -0.1814772
0.26692677 -0.28155059 -0.17830285
-0.26648799 -0.20534001 -0.17308134
-0.26648799 -0.069769204 -0.17687909
0.26296577 -0.030491408 -0.1739521
0.26731092 0.055737823 -0.17578721
-0.26648799 0.28982028 -0.17408295
-0.26880676 0.30089498 -0.1733048
-0.19042005 0.33393499 -0.17022406
0.25092265 0.33393499 -0.17940386
-0.1690107 -0.33393499 -0.164529
-0.069921464 -0.33393499 -0.16228068
0.12270666 -0.33393502 -0.16707344
-0.26648799 -0.30814314 -0.16923562
0.26882178 -0.21466945 -0.16588981
0.26845199 -0.18833163 -0.16831195
-0.26648799 -0.12782906 -0.16573934
0.2693674 -0.11546081 -0.16231562
-0.26648799 -0.063655898 -0.16673438
0.26937807 -0.068090722 -0.16224566
0.26906979 -0.020951506 -0.16426513
-0.26648799 -0.0043034106 -0.16476786
0.26970938 0.06065413 -0.16007629
-0.26648799 0.23112139 -0.16624154
0.25713885 0.23520491 -0.16788846
0.26761344 0.25545099 -0.16573665
-0.084761359 0.33393502 -0.1623285
-0.045252368 0.33393499 -0.16012242
0.25698328 -0.31769118 -0.15159787
0.27801314 -0.018016621 -0.15689799
-0.22151572 0.33393499 -0.15553668
0.016442815 -0.33393499 -0.1472251
0.21936247 -0.33393496 -0.14093223
-0.26648799 -0.24292445 -0.14590792
-0.26648799 -0.22194526 -0.14460194
0.27171078 -0.18290441 -0.1441568
0.18576849 -0.026585624 -0.14237878
0.2715559 -0.023266813 -0.14546238
0.094766662 0.00871736 -0.1457454
-0.26648799 0.016222008 -0.14484861
0.22905169 0.011381706 -0.14539461
0.059568781 0.043282889 -0.14119457
0.257635 0.049459625 -0.1418047
0.27205876 0.10791123 -0.14122507
0.2718586 0.16581562 -0.14291123
-0.26648802 0.21506687 -0.14531085
-0.25011185 0.33393502 -0.14155948
-0.18507373 0.33393496 -0.14502181
-0.15802956 0.33393499 -0.14764415
0.091529593 0.33393499 -0.14662084
-0.24130121 -0.33393499 -0.13349178
-0.02112975 -0.33393499 -0.1358517
0.27228284 -0.12901843 -0.13933706
0.27296713 -0.11277437 -0.13357034
0.257635 -0.070828989 -0.13016398
0.063598059 -0.053211998 -0.13411115
0.1805511 -0.045269359 -0.13740124
0.27261543 -0.048876852 -0.13653418
0.079034582 -0.039822958 -0.13965729
0.257635 0.018740533 -0.13988373
0.257635 0.038021445 -0.13842312
0.040833034 0.054157525 -0.1369102
0.11720431 0.051287599 -0.13809897
-0.26648799 0.23655157 -0.13804826
-0.16295977 0.33393499 -0.1335299
0.054860957 0.33393499 -0.13549304
-0.21991324 -0.33393499 -0.12642696
-0.03160036 -0.33393499 -0.12306213
-0.26648799 -0.31210262 -0.1241845
0.2739104 -0.26088813 -0.12562078
-0.26648799 -0.20779997 -0.12689003
0.13180712 -0.037750363 -0.12263291
0.17149268 -0.025425877 -0.12586728
0.19118609 -0.0081821168 -0.12813702
0.0013620183 0.0089384858 -0.12905143
0.045942437 0.0080949953 -0.12916248
0.033126965 0.012906908 -0.12852909
0.09873151 0.027291294 -0.12663572
-0.0345966 0.045188304 -0.12274286
0.23409 0.053605385 -0.12590352
-0.040605001 0.063343108 -0.12814939
0.23409 0.068655431 -0.12773219
0.27437112 0.065518573 -0.1217387
0.056848742 0.071375422 -0.12977818
0.11622596 0.085380986 -0.12261792
-0.26648799 0.11938332 -0.12581208
0.25719416 0.32532239 -0.12304571
-0.27725488 0.33393499 -0.12202893
-0.18058752 0.33393499 -0.12294312
-0.041143127 -0.33393499 -0.11135036
0.11541487 -0.33393499 -0.11573964
0.22018538 -0.33393499 -0.11054929
0.27533299 -0.31624839 -0.11199665
-0.26648799 -0.091703996 -0.11348642
0.028815467 -0.092853077 -0.11097358
-0.010892615 -0.081112288 -0.11998238
0.037894636 -0.081712417 -0.11952191
0.23409 -0.082679495 -0.1180933
-0.26648799 -0.068370141 -0.11899535
0.085757017 -0.060535438 -0.11319526
0.10351992 -0.061623815 -0.11274444
0.19388917 -0.064300559 -0.11163574
0.026712127 -0.050877187 -0.11719574
0.14489725 -0.052594323 -0.11648449
0.2482844 -0.046710826 -0.11892144
0.25922328 -0.0061902739 -0.11385159
0.26010185 -0.0079232352 -0.11083259
0.25861704 0.0028064796 -0.11696181
-0.26648799 0.014041707 -0.11220275
0.016297147 0.054948073 -0.11870033
0.16586885 0.057446949 -0.11766529
0.22224617 0.059125066 -0.11697021
0.11436261 0.060975015 -0.11620396
0.23409 0.078410454 -0.11519632
0.257635 0.092575535 -0.11400891
0.22885522 0.10063821 -0.11091115
0.28117999 0.10366999 -0.11962533
-0.26648799 0.26540703 -0.11903542
-0.16828656 0.33393502 -0.11276154
-0.097802207 0.33393499 -0.11402977
0.062547237 -0.33393499 -0.10932662
0.27575803 -0.24252477 -0.10699051
-0.26648799 -0.1121206 -0.10908719
0.15779029 -0.10236835 -0.10367243
0.045885727 -0.068525232 -0.10881658
0.25640374 -0.069235511 -0.10827155
0.26150119 -0.0050896485 -0.10676052
0.23409 0.040360309 -0.10583115
-0.26648799 0.059690468 -0.10649422
0.27398801 0.053316977 -0.10259504
0.072487578 0.077081524 -0.10816208
0.096378043 0.075108722 -0.10967593
0.069247857 0.084066853 -0.10280181
0.095923401 0.10723588 -0.10584879
0.28117999 0.10379148 -0.10747188
0.20652342 0.11362574 -0.10094589
0.26448321 0.14753966 -0.10597982
0.27570945 0.21330453 -0.10756711
-0.28916001 0.33211023 -0.10049618
-0.0040808469 0.33393499 -0.10889643
-0.16544461 -0.33393499 -0.097882085
-0.26648799 -0.28457457 -0.097302482
0.10335182 -0.11004581 -0.095615886
0.23409 -0.10192427 -0.096649565
0.057614215 -0.08248654 -0.098103344
0.12963654 -0.081834391 -0.09860377
0.21145988 -0.083356641 -0.097435676
0.23409 -0.060292758 -0.093129858
0.257635 -0.046435431 -0.096021205
-0.26648799 -0.033738941 -0.099025138
0.24394558 -0.033733498 -0.097109035
0.26261899 0.037590578 -0.09428297
0.23787154 0.05829969 -0.090124518
-0.26648799 0.083573453 -0.090949096
-0.019757254 0.090560891 -0.097818568
0.052069917 0.093955204 -0.095213905
0.15200588 0.12184253 -0.090281665
-0.26648799 0.15611947 -0.090083346
0.27688852 0.17193402 -0.093684845
0.27658314 0.2383641 -0.09728045
0.25723377 0.26359421 -0.090912655
0.26971799 0.33393499 -0.098849952
0.0087379888 -0.33393499 -0.086996242
0.27788907 -0.21596 -0.081903934
0.257635 -0.1297127 -0.081140608
0.068969257 -0.11859711 -0.084471524
0.22063152 -0.10027447 -0.081210703
0.12567444 -0.097220473 -0.085190557
0.042865697 0.12939221 -0.080442235
0.1086016 0.12736219 -0.083087951
-0.26648799 0.16635077 -0.080526069
0.26385668 0.224058 -0.083233565
0.25723597 0.27975962 -0.089118242
-0.032356247 0.33393499 -0.087958306
0.1165881 0.33393499 -0.089846708
0.16650282 0.33393499 -0.080828957
-0.18873118 -0.33393499 -0.074945174
-0.061874613 -0.33393499 -0.070383668
-0.011389691 -0.33393499 -0.079090714
-0.0071439967 -0.33393499 -0.075634435
0.014763899 -0.33393499 -0.076299824
0.19685331 -0.33393499 -0.078576915
0.27621335 -0.14597642 -0.072299823
0.074716754 -0.12415228 -0.077231809
-0.032625884 -0.10204113 -0.078908443
-0.027781932 -0.10803408 -0.071098655
0.033293739 -0.10160895 -0.079471655
0.13569145 -0.10462173 -0.075545497
-0.040605001 -0.082489558 -0.075567931
0.26261899 -0.029658187 -0.07794264
-0.040605001 0.040884208 -0.077279747
0.25813428 0.076738231 -0.076764777
-0.26648799 0.082851313 -0.072561763
0.017838566 0.13116975 -0.078125589
0.077439338 0.13173349 -0.077390894
0.17869028 0.13410129 -0.074304961
0.257635 0.13903655 -0.07063625
0.27831084 0.16462101 -0.075845607
0.27207121 0.25545099 -0.075615212
-0.26648799 0.26368502 -0.075530559
0.27615789 0.326087 -0.070896849
-0.2124753 0.33393502 -0.07213597
-0.12847611 0.33393499 -0.070758939
0.093720503 0.33393499 -0.07060501
-0.10994709 -0.33393499 -0.069046058
-0.26648799 -0.29545191 -0.061072774
0.27909866 -0.2918438 -0.060525082
0.26503557 -0.16253906 -0.068295702
0.10588062 -0.13278043 -0.063670285
0.1952233 -0.13089651 -0.068218589
-0.040605001 -0.07161469 -0.062295321
-0.26648799 -0.032286096 -0.064133756
-0.040605001 -0.0097939689 -0.069598816
0.26261899 0.058436967 -0.061686233
-0.040605001 0.078462847 -0.067001902
0.098074049 0.11657961 -0.069999874
-0.040605001 0.12967207 -0.060320564
-0.020299913 0.12079736 -0.064503178
0.074021995 0.12090699 -0.064360291
-0.004530333 0.14169896 -0.06073571
-0.26648796 0.19530921 -0.063337415
0.2702601 0.326087 -0.063666396
0.23016894 0.33393502 -0.065540373
0.049283475 -0.33393496 -0.058922861
-0.021128153 -0.13802756 -0.051002298
-0.040605001 -0.12015713 -0.052044176
0.1354308 -0.12022202 -0.050817475
-0.26648799 0.048393667 -0.055902109
-0.040605001 0.074042842 -0.05371986
0.27958825 0.19395728 -0.050993677
0.2572813 0.25653237 -0.052364223
0.25727284 0.29104409 -0.059215568
0.27922335 0.3094174 -0.058097806
0.018733963 0.33393499 -0.051269002
-0.19460925 -0.33393499 -0.049263
-0.1624237 -0.33393499 -0.046718098
0.2801232 -0.19857723 -0.04057882
0.27990985 -0.15248436 -0.044729605
-0.26648799 -0.14006406 -0.04991319
0.257635 -0.13176537 -0.048909895
0.27982688 -0.11212853 -0.042747401
-0.040605001 -0.083353594 -0.049571708
-0.040605001 -0.074393004 -0.042369157
-0.040605001 -0.0099790217 -0.048038632
-0.26648799 0.028011039 -0.043000445
-0.040605001 0.0867626 -0.040101372
0.095812574 0.12831397 -0.049876776
0.118526 0.13000268 -0.045799848
0.25729382 0.28486067 -0.04220809
0.26724941 0.326087 -0.048928704
0.19510993 0.33393499 -0.047043223
-0.091637261 -0.33393499 -0.032205895
-0.031622432 -0.33393499 -0.037018307
0.21802242 -0.33393496 -0.030435439
0.23463228 -0.33393499 -0.031885326
-0.26648799 -0.31033403 -0.030697174
0.26642895 -0.17346956 -0.035262275
-0.26648799 -0.15231168 -0.037153132
-0.040227503 -0.14536501 -0.033287711
-0.012888178 -0.14458132 -0.035179757
0.15805748 -0.14585881 -0.032095548
0.057059418 -0.12790111 -0.032277133
-0.26648799 -0.10660781 -0.032205924
-0.040605001 -0.081484802 -0.039254837
0.26261899 -0.042480312 -0.035586666
0.26261899 -0.015828624 -0.038125969
-0.26648799 -0.0061846105 -0.036884435
-0.040605001 -0.0082386564 -0.037587315
0.28022689 0.23731187 -0.037114359
0.25730315 0.2553266 -0.03465312
-0.28781503 0.33393499 -0.030613562
-0.088705093 0.33393499 -0.032478381
-0.082794763 -0.33393496 -0.025920734
0.016855054 -0.33393499 -0.021463923
0.12547523 -0.33393499 -0.024106201
-0.26648799 -0.30971318 -0.029582575
-0.26648799 -0.14849123 -0.021801338
0.12381294 -0.14689094 -0.026101489
-0.038587242 -0.13022518 -0.026115814
0.026358992 -0.12892553 -0.029803801
-0.040605001 -0.045978006 -0.026370345
-0.040605001 -0.031655278 -0.028641028
0.26261899 0.05442591 -0.02698921
-0.040605001 0.099498197 -0.022452701
0.23834667 0.11330801 -0.020469479
0.01594311 0.13817006 -0.024278441
0.035251655 0.13723311 -0.028344013
0.28048787 0.19833273 -0.022567693
-0.26648799 0.28036839 -0.021740183
-0.21531531 0.33393499 -0.02849111
0.035859443 0.33393499 -0.029465623
0.25694099 0.33393499 -0.025793642
0.11093616 -0.33393499 -0.010642681
0.23083617 -0.33393499 -0.010216258
0.28063005 -0.231509 -0.014637208
-0.26648799 -0.14172237 -0.015509661
-0.017506883 -0.14836478 -0.014906746
0.01630792 -0.13145521 -0.016772659
0.257635 -0.12053996 -0.016208092
0.2622911 -0.10645632 -0.014218504
-0.040605001 -0.074909702 -0.010925891
-0.011225194 0.13894716 -0.018375674
-0.011260632 0.1558938 -0.016228255
0.078167848 0.15618922 -0.01398442
-0.26648799 0.17727229 -0.013180241
0.28448614 0.27372316 -0.010482703
-0.28851187 0.33393499 -0.014459923
0.22354621 0.33393502 -0.018071279
-0.15879096 -0.33393499 -0.004167147
0.053637035 -0.33393499 -0.0073160287
0.23133712 -0.33393496 -0.00091598928
0.089418694 -0.14996308 -0.0027666811
0.061409809 -0.13273366 -0.0070618517
0.24475642 -0.10749394 -0.006337415
0.26261899 -0.066865228 -0.0098436438
0.257635 0.12025131 -0.0096685328
0.032848045 0.14103246 -0.0025362549
0.20128417 0.14026739 -0.0083476231
0.257635 0.14871824 -0.0059215352
0.048148546 0.15756409 -0.0035414277
0.19993453 0.15774053 -0.0022011073
0.257635 0.15279236 -0.002093506
0.2826969 0.27124286 -0.00079676491
0.25717294 0.30574927 -0.0095206955
0.10660344 -0.33393496 0.0096421055
-0.26648802 -0.32304382 0.0085774735
-0.035750248 -0.1507262 0.003029485
0.044968177 -0.1347408 0.0097668897
0.17070287 -0.13459714 0.0070927292
-0.26648799 0.010989944 0.00067683216
-0.26648799 0.120554 0.0090749189
-0.040605001 0.12225786 0.00092922524
0.2156897 0.142094 0.005526958
0.11174214 0.15872061 0.0052431566
-0.26648799 0.19007485 0.00061652809
-0.26648799 0.20123097 0.0072254464
0.28083166 0.25744298 0.0038563933
-0.20592332 0.33393496 0.0097609162
-0.075595587 0.33393499 0.0085273385
-0.18108624 -0.33393499 0.010360502
-0.16480255 -0.33393499 0.017481048
-0.11018623 -0.33393499 0.016651142
-0.091182716 -0.33393499 0.014698155
0.037593901 -0.33393499 0.018902719
0.20741095 -0.33393499 0.015460894
0.24931209 -0.32840118 0.011827294
0.26538837 -0.31681103 0.01616168
0.28063986 -0.23267181 0.016252257
-0.028824069 -0.1339021 0.016137371
0.28117999 -0.12879899 0.014521964
-0.26648799 -0.09190277 0.012484159
0.26261899 0.033908665 0.018890467
-0.26648799 0.1351164 0.012757011
0.16904214 0.15850398 0.014353132
0.257635 0.15858851 0.012289622
0.2806927 0.18102548 0.012815516
-0.017724529 0.33393499 0.011753641
0.18099114 0.33393499 0.010085792
0.21560493 -0.33393499 0.024306796
-0.26648799 -0.24732322 0.02367796
-0.034166835 -0.14928722 0.025850398
-0.26648799 -0.10594327 0.028108085
0.26261899 -0.061388753 0.021587737
-0.040605001 -0.048015859 0.021936093
0.26261899 -0.026340514 0.027865261
0.26261899 0.069746092 0.02024065
0.2756151 0.224058 0.024353277
0.25737351 0.24262089 0.02239681
-0.1597717 0.33393499 0.024233025
-0.0054219635 0.33393499 0.026600998
-0.13207081 -0.33393499 0.036495037
-0.11682989 -0.33393499 0.0315632
-0.26648799 -0.31744242 0.034458943
0.27297112 -0.316811 0.039127454
0.2802918 -0.29217929 0.038748603
-0.26648799 -0.26533854 0.03711801
-0.26648799 -0.22069372 0.034825973
-0.031398423 -0.13144976 0.034764387
0.26261899 0.085562348 0.036882252
0.26261899 0.090589069 0.039189469
0.028160211 0.1556922 0.035709262
0.047364146 0.15575252 0.035251178
0.15769897 0.15637472 0.030525288
0.28117996 0.1549722 0.034021463
0.28042209 0.19226019 0.030317597
0.28034505 0.20394446 0.035301294
-0.021896005 0.33393499 0.034582697
0.20682108 0.33393499 0.032089297
-0.26648799 -0.26880729 0.049559705
0.27994567 -0.22060505 0.046172149
0.27994391 -0.21958859 0.046208456
0.12006377 -0.14709477 0.042502794
0.2339139 -0.14740284 0.040162951
0.23409 -0.12144268 0.043425329
0.23409 0.1537814 0.046988193
-0.26648799 0.24053469 0.041771822
0.25740704 0.24788986 0.049597848
-0.080378637 0.33393502 0.048827127
0.13537663 0.33393499 0.049355794
0.22236796 -0.33393499 0.054256879
-0.26648799 -0.22682284 0.05205135
0.041781463 -0.14261171 0.057884593
-0.26648799 -0.13934451 0.058897994
0.08953274 -0.12408292 0.059445407
0.14136587 -0.12407792 0.059457488
0.19844396 -0.12457377 0.058260344
0.20843296 -0.12415241 0.059277643
0.26261899 -0.016095219 0.0587584
-0.21484929 -0.33393499 0.06703712
-0.049210243 -0.33393499 0.067328312
0.27923512 -0.21331978 0.060698099
-0.26648799 -0.16023198 0.062955402
0.086074449 -0.14150408 0.060558844
0.099238768 -0.12212665 0.064168505
0.17268048 0.12832828 0.067791663
0.228267 0.12927061 0.065516725
0.061841898 0.14786521 0.063798606
0.11794561 0.14602137 0.068250313
0.15805957 0.14925106 0.060452651
0.20080559 0.14585237 0.068658359
-0.19080563 0.33393499 0.067946091
0.089956768 0.33393499 0.069068454
-0.016950015 -0.33393499 0.073831081
0.2434428 -0.33393499 0.074422851
-0.26648799 -0.28308213 0.074933156
0.27839437 -0.19099839 0.077903584
-0.26648799 -0.18939543 0.075400591
0.27841473 -0.16620654 0.077486798
-0.040605001 -0.13445571 0.071020916
0.1013594 -0.13484323 0.076640606
-0.0063761547 -0.11635298 0.078108087
0.13816391 -0.11705573 0.076411396
0.27109915 -0.094805241 0.076808065
0.25663471 -0.086978748 0.075227447
-0.26648799 0.070418797 0.071245819
0.17008042 0.14313634 0.075215869
-0.26648799 0.21861833 0.071673684
0.27836061 0.28362203 0.078558154
0.093184061 0.33393499 0.070782065
-0.18452978 -0.33393499 0.080624402
0.078079425 -0.33393499 0.082317308
0.16946612 -0.33393499 0.080287546
-0.26648796 -0.21177319 0.080163389
-0.012079128 -0.11078081 0.08546856
0.28117999 -0.10479736 0.084894694
0.25026882 -0.080739252 0.083358921
-0.26648799 0.11517782 0.087177545
0.016285915 0.1158321 0.088923469
0.17873594 0.11628724 0.088330314
0.25416258 0.11545369 0.089416638
0.002898708 0.12228032 0.080519788
0.078414232 0.12206703 0.080797747
0.27816674 0.15998767 0.08090879
0.26590011 0.2633 0.083529927
0.27806562 0.3108058 0.082135081
-0.26719269 0.33393499 0.083235964
-0.036889434 0.33393499 0.089656577
0.0042247325 0.33393499 0.082406655
0.032988537 -0.33393499 0.098976493
0.18610367 -0.33393499 0.095060654
0.27725536 -0.17312218 0.09196303
-0.040605001 -0.10361785 0.0942728
-0.023768194 -0.10072842 0.098568752
-0.016749235 -0.10553899 0.092299655
0.13051093 -0.10195884 0.096965261
0.18001005 -0.106847 0.090595074
0.18558139 -0.099928208 0.099611565
0.26273021 -0.066498078 0.096779764
-0.26648799 0.015148226 0.096864954
0.26261899 0.072034791 0.090301678
0.27171332 0.083686374 0.099077374
0.1462241 0.11205676 0.093843713
0.1890164 0.1301879 0.097355835
0.25746158 0.22841273 0.093815714
0.27700862 0.29963964 0.094952099
-0.021165729 0.33393499 0.097316138
0.27703297 0.3323195 0.094656736
-0.086675793 -0.33393499 0.10325483
0.067246407 -0.33393499 0.10764349
0.14569785 -0.33393499 0.10842459
0.27598935 -0.18094358 0.10731472
0.10074936 -0.12001404 0.10057543
0.15762237 -0.11629093 0.10542737
-0.26648799 0.073552817 0.10625255
0.020632509 0.10235602 0.10648626
0.22753741 0.10439423 0.10382996
0.257635 0.11178474 0.10235173
0.0065721031 0.12206441 0.10794279
0.25747159 0.22898185 0.10194243
-0.16513649 0.33393499 0.10192917
0.10534614 0.33393499 0.10796265
0.14056915 -0.33393499 0.11125165
0.21267851 -0.33393499 0.11784613
-0.26648799 -0.28031558 0.11223149
0.27539349 -0.16729915 0.11453854
0.27565393 -0.15639827 0.11138106
-0.0025684817 -0.11192591 0.11111587
-0.26648799 -0.063550524 0.11981552
0.26217371 -0.036459301 0.11544794
-0.26648799 -0.0042841211 0.1128076
0.23409 0.038938105 0.11733972
0.015048487 0.092033565 0.11463835
0.053255364 0.097410336 0.1105124
0.23409 0.098879904 0.11109624
0.13718465 0.11759794 0.11376373
-0.063146695 -0.33393499 0.12879358
0.18797687 -0.33393496 0.1231439
-0.027041746 -0.10100268 0.12267047
0.12575012 -0.10014364 0.12332965
0.18672299 -0.10029036 0.12321708
0.044167578 -0.095792696 0.1266683
-0.26648799 -0.08699891 0.12766236
-0.020177806 -0.067864612 0.1272735
-0.26648799 -0.00085240602 0.1243686
0.23429282 0.002145967 0.12211242
0.24649948 0.016330276 0.12069404
0.084076077 0.073744163 0.12867303
-0.030479215 0.10779391 0.12337079
0.16496867 0.10465545 0.12577902
0.22600648 0.10551412 0.12512013
0.010363754 0.11203994 0.1201127
0.27419734 0.15425193 0.12574551
-0.26648799 0.22686149 0.12594457
-0.16741806 0.33393499 0.12402026
0.27301005 0.33393502 0.12778154
-0.2418575 -0.33393499 0.13749343
0.061389882 -0.33393502 0.13979973
0.27336457 -0.27265006 0.13291541
-0.26648799 -0.14095069 0.13797188
0.27292514 -0.14910294 0.13670447
-0.26648799 -0.13364813 0.1311028
-0.004639158 -0.084377915 0.13542731
0.065529063 -0.085423447 0.13462505
0.19332881 -0.085738115 0.13438357
0.0084601585 -0.078602016 0.13985939
0.28117999 -0.064508863 0.13394532
-0.039765071 -0.058430724 0.13201682
0.23409 -0.056628771 0.1303551
-0.026640132 -0.040497024 0.13944447
0.094960704 -0.040996365 0.13923767
0.18558182 -0.043346096 0.13826448
0.084055439 0.051994033 0.13787328
0.23653769 0.058812 0.13504945
-0.024869334 0.086342365 0.13983111
0.17644536 0.087927878 0.13861451
-0.01146482 0.090279095 0.13681035
0.27276549 0.17467973 0.13807489
-0.26648799 0.2019015 0.13951378
0.27268726 0.25545099 0.13763729
-0.11058572 0.33393499 0.13468765
-0.17850123 -0.33393502 0.14318243
0.092872903 -0.33393499 0.14239866
0.27164602 -0.31640455 0.14771244
0.2722289 -0.2473577 0.14269376
0.25831482 -0.13652264 0.14073038
-0.26648799 -0.096867234 0.14929827
0.010384791 -0.065420859 0.14700463
0.118049 -0.028008401 0.14347658
0.20718148 -0.024038509 0.14399935
0.10016595 -0.0085216751 0.14604264
0.19873621 -0.00055635325 0.14709154
0.23880562 -0.0097616892 0.14587936
0.13514999 0.010282186 0.14682521
0.17838483 0.013010411 0.14646596
0.19337735 0.014192675 0.14631027
0.14751273 0.023781875 0.14504755
0.23827566 0.02902472 0.14435714
0.257635 0.067785561 0.14794497
0.013078878 0.078203917 0.14490059
-0.26648799 0.15903109 0.1415512
-0.26648799 0.23573539 0.1444453
0.041981317 0.33393499 0.14257328
0.05324183 0.33393499 0.14418523
0.16524275 -0.33393499 0.15771706
-0.26648799 -0.15128171 0.15103041
0.27721956 -0.078192368 0.15714248
0.23071919 -0.046490856 0.15484552
0.28117999 -0.046737157 0.15377195
0.017545745 -0.033005536 0.15948355
-0.26648799 -0.016057596 0.15335223
0.20747124 0.043880582 0.15906587
0.22799069 0.047541589 0.15760073
0.054297782 0.050042801 0.15656474
0.10053366 0.056421138 0.15392289
0.27095872 0.10859024 0.15363078
-0.26648799 0.20537898 0.15266037
0.26483333 0.24930072 0.15141678
0.26752472 0.25545099 0.15859219
-0.2527096 0.33393499 0.15190208
-0.127152 0.33393499 0.15226364
-0.037062638 0.33393499 0.15323897
-0.20319785 -0.33393499 0.16405044
-0.041070528 -0.33393499 0.16841155
0.26989585 -0.17734677 0.16140676
0.26942796 -0.16888016 0.16452312
0.093604907 -0.022399038 0.16087997
0.20327218 -0.01675787 0.16162264
0.047343984 0.0036509112 0.16430956
0.19863439 0.023086984 0.16180351
0.022200383 0.032417737 0.16057505
0.18851447 0.032953016 0.16050456
-0.26648799 0.19455552 0.16724744
0.26166981 0.24665746 0.16164754
0.26858848 0.28096014 0.16852425
-0.15311459 0.33393499 0.1669834
-0.19477232 -0.33393499 0.1745261
-0.26648799 -0.10740019 0.17715815
0.26801333 -0.080608875 0.17394507
0.26800281 -0.06020283 0.17401528
0.26747066 -0.020330332 0.17755961
-0.26648799 0.0079333335 0.17462845
0.26850981 0.13374549 0.17063841
0.26723155 0.14874235 0.17915222
0.26719171 0.18546207 0.17941767
0.26794428 0.19765015 0.17440501
0.26817688 0.20415875 0.17285582
-0.26648799 0.23050824 0.17819229
0.26427633 0.326087 0.1733807
0.04889226 0.33393499 0.17695916
0.16377036 0.33393499 0.17173529
-0.1413476 -0.33393499 0.18339315
0.24578044 -0.33333907 0.18169627
-0.26648799 -0.25001991 0.18122615
0.26707789 -0.18907823 0.18017575
0.2659981 -0.17376401 0.18736768
0.26568943 -0.075732946 0.18942359
-0.26648799 0.078860909 0.18552478
0.26579037 0.17085324 0.18875131
0.26562548 0.18998322 0.18984954
0.26692832 0.25647566 0.18084012
-0.28842366 0.30089501 0.18832758
-0.28486297 0.33393499 0.18172628
-0.10059878 0.33393499 0.18857743
0.15934733 0.33393499 0.18688902
0.14529479 -0.33393499 0.19566195
0.24985589 -0.32765639 0.19194201
0.26469392 -0.14493047 0.19596459
0.26420009 -0.0299647 0.19864099
-0.26648799 -0.0035755187 0.19669294
-0.26648799 0.047154106 0.19063234
0.26225543 0.047848031 0.19151355
0.26552704 0.24671383 0.19050607
0.26187602 0.25545099 0.19372891
0.25758499 0.29693753 0.19375417
0.0063035935 0.33393499 0.19689015
0.020796195 0.33393499 0.1958524
0.059330776 -0.33393499 0.20566106
0.13118599 -0.33393496 0.20420866
0.26211792 -0.30691287 0.2099258
0.26351389 -0.29140896 0.20236012
0.26359451 -0.16553408 0.20192316
0.26233989 0.28666234 0.20872284
-0.12493139 0.33393499 0.20927641
-0.10969323 0.33393499 0.20870373
0.03205663 0.33393499 0.20028841
-0.16802388 -0.33393496 0.21058002
0.2396948 -0.33393499 0.21823092
-0.26648799 -0.28212863 0.21791829
-0.26648799 -0.19694491 0.21339996
-0.26648799 -0.18355128 0.2162604
0.26111901 -0.12256499 0.21533978
-0.26648799 -0.077166915 0.21792573
0.26209188 0.26814175 0.21006699
0.2589705 0.326087 0.21554045
-0.19500992 0.33393502 0.21259525
-0.11239083 0.33393499 0.21811372
0.25988021 0.33393499 0.21943438
-0.0629595 -0.33393499 0.22399835
0.12267922 -0.33393502 0.22924869
0.13962948 -0.33393499 0.22479004
0.21540999 -0.33393499 0.22472879
-0.26648799 0.017001942 0.22730206
-0.26648799 0.071645729 0.22994219
0.2593652 0.097061425 0.22484484
0.25920129 0.13737884 0.22573322
-0.25068855 -0.33135065 0.2342501
0.039391764 -0.33318093 0.23423365
0.24518442 -0.33393499 0.23330665
0.255831 -0.31688344 0.23422199
-0.033724595 -0.30268148 0.23423782
0.048207365 -0.30460858 0.23423317
0.064493582 -0.29805249 0.23423225
0.15665029 -0.2951667 0.23422702
0.055303648 -0.2833398 0.23423278
-0.015586369 -0.27054965 0.23423679
0.17372291 -0.27179492 0.23422606
0.18471895 -0.27908251 0.23422544
0.25340298 -0.27858463 0.23422199
-0.210884 -0.26917389 0.23424786
0.10134729 -0.26532644 0.23423016
0.013093024 -0.25519228 0.23423517
0.08033739 -0.25958475 0.23423134
0.15124349 -0.25337324 0.23422733
-0.21852864 -0.24180479 0.23424828
-0.094890192 -0.24335292 0.23424128
0.14060239 -0.24878323 0.23422793
-0.22282101 -0.23798928 0.23424853
-0.23158406 -0.2108468 0.23424903
0.16370696 -0.21590649 0.23422645
0.036785651 -0.20804286 0.23423383
0.11050996 -0.19481172 0.23422964
0.23360778 -0.19987847 0.23422277
-0.13847825 -0.18830249 0.23424375
-0.1516498 -0.17134991 0.2342445
-0.19438061 -0.16241089 0.23424691
-0.074194573 -0.1636935 0.23424011
0.19094345 -0.16509774 0.23422505
-0.1484272 -0.15287539 0.23424432
-0.19193012 -0.14655685 0.23424679
-0.019803442 -0.14580037 0.23423703
-0.25263181 -0.13974334 0.23425023
0.099700823 -0.13454624 0.23422992
0.20018592 -0.13994969 0.23422459
0.21452415 -0.13289049 0.23422384
0.20909765 -0.12560594 0.23422414
-0.010989279 -0.11391436 0.23423652
0.10056198 -0.11039133 0.23422989
-0.19344236 -0.10488471 0.23424685
-0.062738135 -0.10991516 0.23423946
-0.0013376325 -0.090380155 0.23423597
0.20276341 -0.0936267 0.2342245
-0.067285985 -0.088312104 0.23423971
0.032697424 -0.08362668 0.23423405
0.10876191 -0.082145087 0.23422951
-0.16438165 -0.079023868 0.23424521
-0.17352884 -0.064588159 0.23424575
-0.14649412 -0.060130715 0.2342442
0.057983905 -0.058466304 0.23423222
0.14498524 -0.056708232 0.23422761
0.19613501 -0.054975316 0.23422492
-0.018379092 -0.049117789 0.23423696
0.16246954 -0.041589752 0.2342267
0.24105892 -0.049919479 0.23422253
-0.25601697 -0.032876 0.23425043
-0.051953405 -0.036449581 0.23423885
0.1346982 -0.038692638 0.23422816
0.0088584945 -0.023620784 0.23423484
0.015741564 -0.022326771 0.23423448
-0.026903505 -0.0023206882 0.23423743
0.2325602 0.0036105663 0.23422304
-0.24975052 0.015603051 0.23425004
0.24675086 0.019012034 0.23422232
-0.21880819 0.023156881 0.23424831
-0.1097799 0.025371864 0.23424214
-0.031817839 0.020998374 0.23423705
-0.0016818494 0.029393613 0.23423547
0.043218948 0.02856043 0.23423308
-0.007430248 0.030592561 0.23423576
0.13188498 0.037910476 0.2342284
0.14041486 0.03951858 0.23422796
-0.056825168 0.050243065 0.2342384
0.0095305257 0.057000056 0.2342349
0.10672112 0.054231852 0.23422974
0.13488562 0.055165507 0.23422825
0.17043996 0.057362571 0.23422639
-0.23445791 0.076222315 0.2342492
-0.21881162 0.070580035 0.23424831
-0.1548363 0.071347468 0.23424467
-0.099105142 0.078354999 0.23424152
0.053294804 0.076572128 0.2342326
-0.26632529 0.085523739 0.23224443
-0.25013864 0.088267125 0.2342501
-0.18017083 0.089326382 0.2342461
-0.078730971 0.096863978 0.23423962
0.10140264 0.095651463 0.23423007
0.13614969 0.091342837 0.23422825
-0.21620215 0.10769292 0.23424816
-0.23623043 0.11324854 0.23424929
-0.2151151 0.11710936 0.23424809
-0.072210625 0.11910965 0.2342393
-0.23150411 0.12667985 0.23424903
-0.048511088 0.12739669 0.23423806
0.028565396 0.12456594 0.23423398
0.25598562 0.12242655 0.23325454
-0.1884751 0.13760999 0.23424658
-0.055963673 0.13448377 0.23423845
0.015824936 0.132865 0.23423466
-0.059040479 0.14737985 0.23423862
0.058435518 0.14115983 0.23423241
-0.18064539 0.1604871 0.23424615
-0.17627952 0.16827759 0.2342459
0.19361709 0.17756864 0.23422529
0.21825676 0.19251205 0.23422401
0.22375751 0.19175313 0.23422371
0.05247961 0.20198801 0.23423278
0.16454993 0.20680943 0.23422685
-0.23937388 0.21517423 0.23424946
-0.13583672 0.21440266 0.23424277
0.010574386 0.21073115 0.23423502
0.086292937 0.21326661 0.23423101
0.16704115 0.2134023 0.23422675
0.18377133 0.21158747 0.23422584
0.077028424 0.22290927 0.2342315
0.11696164 0.23776163 0.23422942
0.14896223 0.23323192 0.23422772
0.027941499 0.24185473 0.23423412
-0.23531902 0.2506828 0.23424923
0.091951914 0.26676139 0.23423079
0.15391597 0.26995027 0.23422751
0.23776329 0.2689698 0.23422304
-0.23267114 0.27651313 0.23424795
-0.1569905 0.28431255 0.23424394
-0.061701357 0.29016933 0.23423892
-0.055330765 0.2976692 0.23423859
0.18431927 0.29578599 0.23422588
0.19666417 0.29790726 0.23422521
0.22108185 0.29072231 0.23422393
0.24378982 0.29409164 0.23422273
-0.20637916 0.30525327 0.23424661
-0.14703131 0.31318718 0.23424348
0.17180352 0.31087333 0.23422655
0.19680262 0.31265682 0.23422521
0.25763467 0.31858134 0.23393388
-0.26616058 0.32843778 0.23424979
0.08240626 0.32275164 0.23423129
0.14823927 0.32827997 0.23422781
0.2576305 0.32391468 0.23058201
-0.072788253 0.33368346 0.23423953
-0.027476057 0.33393499 0.23006999
0.13729677 0.33256844 0.23422839
