# .PCD v0.7 - Point Cloud Data file format
VERSION 0.7
FIELDS x y z
SIZE 4 4 4
TYPE F F F
COUNT 1 1 1
WIDTH 113
HEIGHT 1
VIEWPOINT 0 0 0 1 0 0 0
POINTS 113
DATA ascii
-0.14612643 0.32637125 -0.050492413
-0.18212415 0.33983541 -0.050495431
-0.17172688 0.3359465 -0.050446887
-0.16527091 0.33353177 -0.050902832
-0.20314768 0.34769878 -0.051134031
-0.19447877 0.34445634 -0.051430941
-0.18800043 0.34203327 -0.050900619
-0.15308955 0.32897565 -0.046687994
-0.14746323 0.32687119 -0.043694433
-0.1805084 0.33923104 -0.043850422
-0.17618443 0.33761376 -0.044258609
-0.16540062 0.33358034 -0.045468345
-0.15774855 0.33071822 -0.043590393
-0.20228155 0.34737483 -0.045426685
-0.19467159 0.34452844 -0.044163249
-0.18665947 0.34153175 -0.046435874
-0.15351878 0.32913613 -0.035703152
-0.14632995 0.32644737 -0.035926051
-0.18225719 0.33988515 -0.03549061
-0.1738632 0.33674553 -0.035714377
-0.16493528 0.33340627 -0.035396814
-0.15806209 0.33083549 -0.034152243
-0.2026013 0.34749439 -0.032911275
-0.19567589 0.34490412 -0.035159741
-0.1857671 0.34119797 -0.034150537
-0.10844848 0.31875366 -0.021696188
-0.15279457 0.32886529 -0.026831849
-0.14720592 0.32677498 -0.023627458
-0.18099886 0.33941448 -0.025316326
-0.17625266 0.3376393 -0.025821071
-0.16418551 0.33312583 -0.025046742
-0.15766455 0.33068681 -0.027244871
-0.20273316 0.34754375 -0.024729535
-0.1942443 0.34436867 -0.024793621
-0.18631688 0.3414036 -0.026514541
-0.11010669 0.31887662 -0.016286291
-0.10629003 0.31859362 -0.014647583
-0.15288475 0.328899 -0.01519804
-0.14681232 0.32662779 -0.0148792
-0.18133193 0.33953905 -0.013916739
-0.17431651 0.33691514 -0.014528379
-0.16509782 0.33346704 -0.013932706
-0.15792772 0.33078527 -0.014255881
-0.20231326 0.34738672 -0.015127667
-0.19547343 0.3448284 -0.015349767
-0.18788604 0.3419905 -0.01475157
-0.11024243 0.31888667 -0.0053918315
-0.10540894 0.31852829 -0.0053896634
-0.15239687 0.32871652 -0.0049955677
-0.14583594 0.32626253 -0.0043771844
-0.18087977 0.33936995 -0.004965716
-0.17458209 0.33701447 -0.0041169976
-0.16574684 0.33370981 -0.0048952312
-0.15679909 0.33036309 -0.0031824454
-0.20248877 0.34745234 -0.004716075
-0.19497992 0.3446438 -0.0059575462
-0.18688881 0.34161749 -0.0056599737
-0.11057363 0.31891125 0.0089607192
-0.10571788 0.31855121 0.0031208172
-0.15301292 0.32894695 0.0034762779
-0.14595327 0.32630643 0.0064160498
-0.18107094 0.33944151 0.0062933364
-0.17501473 0.33717623 0.0047179093
-0.164727 0.33332834 0.0050273887
-0.15699181 0.33043522 0.0050158398
-0.20298201 0.34763682 0.0055458448
-0.19663283 0.34526202 0.0046868464
-0.18647927 0.34146434 0.0050651398
-0.10701257 0.31864718 0.014843528
-0.15336154 0.32907733 0.014051273
-0.14631552 0.32644194 0.014465203
-0.18057771 0.33925697 0.016115088
-0.17364092 0.33666241 0.014986378
-0.16504997 0.33344916 0.0140105
-0.15734212 0.3305662 0.01584829
-0.20304322 0.34765971 0.015876101
-0.19497356 0.34464142 0.014463392
-0.18589601 0.34124616 0.013009072
-0.1062089 0.3185876 0.022949863
-0.15308037 0.32897222 0.024745513
-0.14681816 0.32663 0.024463452
-0.18183738 0.33972812 0.023207629
-0.17457816 0.33701301 0.025088016
-0.16446282 0.33322951 0.02471062
-0.157938 0.33078909 0.025683206
-0.20219536 0.34734258 0.024922887
-0.19518378 0.34472007 0.025340771
-0.18615068 0.34134141 0.024794901
-0.15378989 0.32923758 0.032625206
-0.14695123 0.32667971 0.035132285
-0.18151571 0.33960781 0.033219177
-0.17560294 0.33739629 0.03476084
-0.16496442 0.33341718 0.036048431
-0.15719207 0.33051008 0.036904536
-0.20369084 0.34790197 0.034481712
-0.19497032 0.3446402 0.034345798
-0.18676753 0.34157217 0.036171496
-0.15288939 0.32890075 0.044933006
-0.14737774 0.32683924 0.044869062
-0.18091245 0.3393822 0.045029599
-0.17546564 0.33734491 0.04536486
-0.1656853 0.33368677 0.043364853
-0.15846589 0.33098653 0.042306721
-0.20292114 0.34761405 0.043948304
-0.19589528 0.34498617 0.046187349
-0.1857587 0.34119481 0.044475459
-0.15454426 0.32951972 0.050555546
-0.14368251 0.32545713 0.050195105
-0.17999886 0.33904046 0.050828449
-0.16623069 0.3338908 0.050678171
-0.15801138 0.33081654 0.050388496
-0.19139481 0.34330288 0.050704539
-0.18888777 0.34236515 0.051003121
