# .PCD v0.7 - Point Cloud Data file format
VERSION 0.7
FIELDS x y z
SIZE 4 4 4
TYPE F F F
COUNT 1 1 1
WIDTH 158
HEIGHT 1
VIEWPOINT 0 0 0 1 0 0 0
POINTS 158
DATA ascii
0.23129082 0.26362815 -0.19042683
0.2298999 0.27374718 -0.19017565
0.22831166 0.29494211 -0.1950289
0.22768843 0.30199352 -0.19382489
0.23459268 0.23340526 -0.18372931
0.23209089 0.25780752 -0.18508132
0.23130363 0.26353487 -0.18437649
0.22977498 0.27465603 -0.18402712
0.23016763 0.2717995 -0.18581858
0.22833413 0.29468805 -0.18510552
0.22751276 0.30398118 -0.18448728
0.23498909 0.22967833 -0.17542802
0.23461853 0.23316261 -0.17454964
0.23216139 0.25729465 -0.17568389
0.23108883 0.26509765 -0.17715266
0.22976752 0.27471027 -0.17566773
0.23022234 0.27140132 -0.17586915
0.22832979 0.29473692 -0.17511943
0.22766031 0.30231166 -0.17597108
0.23470189 0.23237863 -0.16996792
0.23209874 0.25824553 -0.14370228
0.23128408 0.26537144 -0.14399807
0.22979082 0.27843338 -0.14304422
0.2302947 0.27402589 -0.14199683
0.23223345 0.25706714 -0.13594975
0.23143651 0.26403803 -0.13497749
0.22982113 0.27816805 -0.13601701
0.2301932 0.27491361 -0.1333987
0.23489447 0.22635639 -0.12491778
0.23438604 0.23175372 -0.12569939
0.23219538 0.25740016 -0.12798612
0.23138212 0.264514 -0.12543908
0.22978103 0.27851906 -0.12618358
0.23046562 0.2725307 -0.1246566
0.23474196 0.22797552 -0.11294405
0.23432776 0.23237234 -0.112523
0.23124421 0.2661908 -0.1137181
0.22987534 0.27870545 -0.11060166
0.2301783 0.27593577 -0.1119467
0.22950344 0.28210577 -0.11108089
0.23487473 0.22656584 -0.1053664
0.23430699 0.23259294 -0.10459254
0.232113 0.25824782 -0.10726526
0.23119716 0.2666209 -0.10506693
0.22979462 0.27944356 -0.10800692
0.2304398 0.273545 -0.10408843
0.22937626 0.28326839 -0.10347404
0.23489667 0.22633289 -0.094979353
0.23438053 0.23181246 -0.094107062
0.23208459 0.25850764 -0.098468028
0.23154163 0.2634716 -0.098861165
0.22987005 0.27875388 -0.099165499
0.23059909 0.27208874 -0.098739058
0.22948188 0.28230265 -0.098636471
0.23488872 0.2264173 -0.085821085
0.23434536 0.23218565 -0.08569441
0.23208916 0.25906178 -0.083543658
0.23139529 0.26660126 -0.084145054
0.23062028 0.27502236 -0.084550455
0.22957042 0.28642967 -0.083853476
0.22897658 0.2928822 -0.084852681
0.23490649 0.22622862 -0.075423099
0.23419154 0.23381853 -0.075774848
0.23224604 0.25735736 -0.076787062
0.23151952 0.26525149 -0.075919129
0.23053905 0.27590463 -0.076039918
0.22988962 0.28296152 -0.077329092
0.23014396 0.2801978 -0.079321504
0.22907768 0.2917836 -0.076727122
0.2351092 0.23453821 0.0067365039
0.23422725 0.24503775 0.0058046146
0.23336628 0.25528798 0.0059721344
0.23260787 0.26431662 0.0045537874
0.23177163 0.2742725 0.0058796839
0.23090343 0.28460863 0.0065961387
0.22977644 0.29802555 0.0053715664
0.23013911 0.29370815 0.0074789939
0.22929431 0.30376548 0.0065200389
0.23549066 0.2299967 0.014089858
0.23496607 0.23624198 0.014752267
0.23429103 0.24427831 0.014441867
0.23342738 0.25456044 0.014285677
0.23258233 0.26462105 0.015810873
0.23178567 0.27410528 0.014567735
0.23086643 0.28504893 0.015359749
0.22983904 0.29728022 0.015513049
0.23024198 0.29248348 0.012030208
0.22932696 0.30337724 0.015744394
0.23549093 0.22999342 0.02586358
0.23519994 0.23345783 0.024932835
0.23433827 0.24371625 0.025372734
0.23347051 0.2540471 0.025264401
0.23256654 0.26480898 0.024576746
0.23166177 0.2755805 0.024628345
0.23095933 0.28394297 0.026163388
0.22985221 0.29712349 0.024342773
0.23042679 0.29028326 0.020666432
0.22921801 0.30467409 0.025189336
0.23513101 0.23427807 0.034808178
0.23433802 0.24371907 0.034613822
0.23346759 0.25408173 0.035262972
0.23258294 0.26461375 0.036517791
0.23171522 0.27494425 0.035284482
0.23094872 0.28406996 0.035629775
0.22970887 0.29883009 0.035311498
0.23023744 0.2925373 0.033790659
0.22927952 0.30394176 0.036138859
0.2354911 0.22999129 0.048230264
0.23500283 0.23580448 0.043796208
0.2341745 0.24566589 0.046437599
0.23345026 0.25428823 0.044964425
0.23247044 0.26595294 0.04425193
0.2317934 0.27401301 0.045982599
0.23078023 0.28607541 0.046615362
0.22989616 0.29660049 0.044530954
0.23015022 0.293576 0.044769906
0.22921546 0.30470416 0.045778427
0.23500612 0.23576514 0.05557204
0.23423043 0.2450002 0.054931212
0.23335142 0.25546458 0.054387618
0.23253097 0.26523253 0.055304714
0.23171107 0.27499336 0.055324364
0.23085152 0.2852267 0.054247245
0.22983344 0.29734716 0.056120832
0.23020934 0.29287213 0.05560261
0.22926895 0.30406734 0.055454489
0.23512219 0.23438339 0.063236251
0.23418823 0.24550222 0.062570684
0.23336419 0.25531268 0.062299795
0.23275909 0.26251662 0.060671553
0.23131591 0.2796979 0.063465036
0.23071744 0.28682306 0.0625434
0.22971201 0.29879275 0.060744084
0.23023069 0.29261786 0.061884094
0.22952673 0.30099866 0.063971959
0.22733361 0.29912847 0.16382805
0.22663708 0.30623609 0.16570374
0.22618511 0.31084821 0.16628958
0.22738998 0.29855314 0.17505634
0.22659767 0.3066383 0.17464019
0.22622052 0.310487 0.1747655
0.22738922 0.29856113 0.18540776
0.22686908 0.30386874 0.1834829
0.22622161 0.31047598 0.18341906
0.22741592 0.29828838 0.19376625
0.22665848 0.30601785 0.19449413
0.22618866 0.31081218 0.19241606
0.22744992 0.29794163 0.2020101
0.22669744 0.30562031 0.20597182
0.22622088 0.31048334 0.2039887
0.22735947 0.29886451 0.21771441
0.22663589 0.30624834 0.21472184
0.2262063 0.31063205 0.21427564
0.22740687 0.29838064 0.22442466
0.22688505 0.30370563 0.22617713
0.22618553 0.31084394 0.22505356
0.22742233 0.29822332 0.23263237
0.22672798 0.30530861 0.23318833
