# .PCD v0.7 - Point Cloud Data file format
VERSION 0.7
FIELDS x y z
SIZE 4 4 4
TYPE F F F
COUNT 1 1 1
WIDTH 987
HEIGHT 1
VIEWPOINT 0 0 0 1 0 0 0
POINTS 987
DATA ascii
-0.17538871 -0.336283 -0.30690333
0.17343223 -0.336283 -0.30378357
-0.18756282 -0.32374197 -0.30787399
-0.12365815 -0.31630364 -0.30787399
-0.067969114 -0.30111828 -0.30787399
0.030736286 -0.30164188 -0.30787396
0.13186045 -0.30838975 -0.30787399
0.0608165 -0.29255667 -0.30787399
0.13491577 -0.29337659 -0.30787399
-0.13286677 -0.26786599 -0.30015239
-0.04658192 -0.26786599 -0.30006889
0.06249731 -0.26753977 -0.30787399
-0.1731775 -0.25957403 -0.30787399
0.0083281249 -0.25736877 -0.30787399
0.076711901 -0.25397515 -0.30787399
-0.012984835 -0.24853876 -0.30787399
-0.1731195 -0.23661907 -0.30787399
-0.059591338 -0.2360912 -0.30787399
-0.030483134 -0.23676066 -0.30787399
0.12221059 -0.23287478 -0.30787399
-0.056405589 -0.22401953 -0.30787402
-0.027527004 -0.22006693 -0.30787399
0.12947874 -0.2245262 -0.30787399
-0.17089704 -0.21693268 -0.30787399
-0.081621103 -0.21745442 -0.30787399
0.054406069 -0.19463769 -0.30787399
0.081071846 -0.19312167 -0.30787399
-0.15045378 -0.1816771 -0.30787399
-0.1203889 -0.17743191 -0.30787399
-0.055876773 -0.17734629 -0.30787399
0.028620541 -0.17467438 -0.30787399
0.10051028 -0.17633468 -0.30787399
-0.16326979 -0.16636939 -0.30787399
-0.069946326 -0.16392452 -0.30787399
0.14553161 -0.16912435 -0.30787396
0.096936777 -0.15274063 -0.30787399
-0.12058858 -0.14597461 -0.30787399
0.085115016 -0.14950994 -0.30787399
-0.11152812 -0.13482189 -0.30787399
0.17343858 -0.11058128 -0.30787399
-0.013981087 -0.10127351 -0.30787399
-0.011098787 -0.095839053 -0.30787399
-0.080222353 -0.08881364 -0.30787399
0.20165586 -0.088576593 -0.30778462
-0.053498987 -0.075888209 -0.30787399
0.057625018 -0.063606597 -0.30787399
0.010614827 -0.052794896 -0.30787399
0.064599156 -0.053213716 -0.30787399
-0.20380379 -0.041446917 -0.30787399
-0.18547034 -0.048836552 -0.30787399
-0.11918011 -0.042522244 -0.30787399
-0.029443022 -0.044851203 -0.30787399
0.026220113 -0.049403273 -0.30787399
0.20524999 -0.047800593 -0.30119184
-0.0023613926 -0.032616962 -0.30787399
0.18097508 -0.034520499 -0.30787399
-0.00071604224 -0.02223218 -0.30787399
0.10407608 -0.025221817 -0.30787399
0.018721141 -0.01913663 -0.30787399
-0.033492021 -0.001967378 -0.30787399
-0.18891349 0.002005741 -0.30787399
-0.14265636 0.0015697926 -0.30787399
-0.076789871 0.015230361 -0.30787399
0.19216987 0.024689816 -0.30787399
0.040803179 0.032067619 -0.30787399
0.19402525 0.041164786 -0.30787399
0.16859844 0.054730393 -0.30787399
0.18614653 0.069600098 -0.30787399
0.20265733 0.060975552 -0.30748934
-0.1412058 0.078330837 -0.30787399
-0.12350954 0.079850703 -0.30787399
0.027012058 0.078958139 -0.30787399
0.15339774 0.079826728 -0.30787396
0.0057718009 0.086896673 -0.30787399
0.01618024 0.095287204 -0.30787399
0.17883053 0.098544717 -0.30787399
0.20515706 0.090062283 -0.30430269
-0.062748313 0.10033154 -0.30787399
0.1570718 0.10088916 -0.30787399
-0.16679737 0.12875758 -0.30787399
0.022020906 0.13921568 -0.30787399
-0.18360759 0.14302862 -0.30787399
-0.062367514 0.14486155 -0.30787402
-0.0044400655 0.14959756 -0.30787399
0.030987699 0.14839616 -0.30787399
-0.030687012 0.15478735 -0.30787399
0.149423 0.15091017 -0.30787399
0.15538049 0.15633048 -0.30787399
0.16121092 0.17344578 -0.30787399
0.15304291 0.1877273 -0.30787399
0.1658742 0.1844693 -0.30787399
-0.038398027 0.2169185 -0.30787399
0.079183616 0.2172862 -0.30787399
-0.0080098137 0.22759293 -0.30787399
0.041757885 0.2406937 -0.30787399
-0.14081365 0.25981432 -0.30787399
-0.09025076 0.25381139 -0.30787399
-0.014934802 0.25077721 -0.30787399
-0.19779772 0.30274695 -0.30787399
0.13993682 -0.3303487 -0.29533982
-0.031529956 -0.30359471 -0.29855639
-0.20524999 -0.27285179 -0.29438242
-0.080374233 -0.26786599 -0.29212478
0.20524999 -0.22366859 -0.29897356
0.20524999 -0.17386577 -0.29306364
-0.20524999 0.080406189 -0.29557666
-0.20524999 0.15264584 -0.29405725
0.20524999 0.17628871 -0.29533815
0.20524999 0.26546675 -0.29500762
0.055816252 0.27946499 -0.29609025
-0.12637442 -0.26786599 -0.28443816
-0.20524999 -0.16650683 -0.28919756
-0.20524999 -0.03465917 -0.28149062
0.20524999 0.01260078 -0.28694099
0.20524999 0.029355213 -0.28722
0.20524999 0.22462153 -0.28452227
-0.038229644 0.27946499 -0.28808364
0.19660592 0.27946499 -0.28472683
-0.16351233 -0.33628297 -0.27423173
0.20524999 -0.32441035 -0.27564228
-0.12971951 -0.26786599 -0.27562234
0.10537063 -0.26786599 -0.27207384
-0.20524999 -0.12489338 -0.27669358
-0.20524999 0.060254365 -0.27028269
0.20524999 0.075283103 -0.2721408
-0.20524999 0.16412404 -0.27552927
-0.20524999 0.25792286 -0.27805561
-0.10239361 0.27946499 -0.27304086
-0.019743562 0.27946499 -0.2713649
0.16025105 0.27946499 -0.27579397
-0.10558029 0.28123832 -0.27384061
0.18045291 -0.336283 -0.26250365
-0.096155949 -0.3152442 -0.26783764
-0.0063393055 -0.30230588 -0.2677334
-0.12983844 -0.26786599 -0.26581931
-0.20524999 0.077456988 -0.26031604
-0.20524999 0.198679 -0.26595116
-0.20524999 0.25269756 -0.26854014
0.057831414 0.27946499 -0.26032433
0.10737817 0.27946499 -0.26106086
0.12887919 0.27946499 -0.26239789
0.027235333 -0.31578255 -0.25656199
-0.016926276 -0.30634764 -0.25656199
-0.1626067 -0.26786599 -0.25576091
-0.12053967 -0.26786599 -0.25608084
0.043348953 -0.26786599 -0.25411826
0.10788782 -0.26786599 -0.25324759
0.12134036 -0.26786599 -0.25795001
-0.20524999 -0.24412882 -0.25295609
0.074587815 -0.13040024 -0.25656199
-0.049544044 -0.10741714 -0.25656199
0.12091396 -0.028320149 -0.25656199
-0.043312538 -0.012876928 -0.25656199
-0.015339761 -0.016633283 -0.25656199
-0.027291492 -0.0085354522 -0.25656199
0.069794759 -0.005194284 -0.25656199
-0.05127462 0.017219312 -0.25656199
0.028217357 0.026256286 -0.25656199
0.20524999 0.026696704 -0.25654122
0.024018034 0.030573856 -0.25656199
-0.030428227 0.041734815 -0.25656199
-0.0067463182 0.076152816 -0.25656199
0.10922615 0.072579384 -0.25656199
0.039636549 0.10470725 -0.25656199
0.011510761 0.11958628 -0.25656199
0.10344929 0.14810055 -0.25656199
0.058689006 0.16222112 -0.25656199
-0.0051280614 0.18404341 -0.25656199
0.10770225 0.19562644 -0.25656199
0.068737805 0.20768206 -0.25656199
-0.0055910908 0.21053898 -0.25656199
0.0086856224 0.22198761 -0.25656199
-0.0030250046 0.2391413 -0.25656199
0.075223975 0.25042766 -0.25656199
0.11352517 0.25714776 -0.25656199
-0.091481462 -0.26786599 -0.24530953
0.12583661 -0.26786599 -0.24741282
0.072059579 -0.131033 -0.24152011
0.20524999 -0.10112482 -0.24535739
-0.20524999 -0.044418819 -0.24786121
-0.20524999 0.058425546 -0.24898741
-0.051312201 0.14943102 -0.24945453
0.153937 0.25887561 -0.24245742
0.1212614 0.27518901 -0.24780647
-0.14517048 0.30499318 -0.24106084
-0.16523723 -0.33167845 -0.23802873
0.1180158 -0.33148491 -0.2372499
0.13427483 -0.33148351 -0.23724419
-0.042781822 -0.32984781 -0.23066056
-0.17088512 -0.26786599 -0.2300235
-0.087066419 -0.26786599 -0.23956577
-0.071261033 -0.26786599 -0.23734888
-0.046347965 -0.26786599 -0.23896378
0.20524999 -0.23748702 -0.23830384
0.10121988 -0.131033 -0.23259868
-0.051312197 -0.088203654 -0.23341846
0.20524999 -0.043553442 -0.2306637
0.20524999 0.0071148053 -0.23372358
0.153937 0.063395903 -0.238865
0.20524999 0.10661171 -0.23088406
-0.051312201 0.12260802 -0.23175728
0.15393698 0.15529741 -0.23228145
0.20524999 0.25109774 -0.2302516
-0.18337362 -0.32899961 -0.22724655
-0.059529692 -0.3277455 -0.22219872
-0.11893621 -0.26786599 -0.22895265
0.11463919 -0.26786599 -0.22613986
0.20524999 -0.19104733 -0.22124055
0.052410848 -0.131033 -0.2271502
0.153937 0.026356913 -0.22018808
-0.051312201 0.056387968 -0.22408026
0.20524999 0.12495321 -0.22323593
0.20524999 0.15312228 -0.22337346
0.15393701 0.17508151 -0.22997399
0.153937 0.18681155 -0.22037795
-0.20524999 0.27474305 -0.22384062
0.12714221 0.27518901 -0.22659191
0.18974476 0.27946499 -0.22623001
-0.20524999 0.30340701 -0.22427855
-0.099400043 -0.26786599 -0.21801008
0.1415357 -0.26786599 -0.21274458
0.055748127 -0.131033 -0.21722347
0.20524999 0.026862189 -0.21762396
-0.051312201 0.11739965 -0.21322247
-0.051312201 0.13800609 -0.21529908
0.15451166 -0.26786599 -0.20449719
-0.030941624 -0.131033 -0.20447226
0.080615193 -0.131033 -0.20678963
0.14406018 -0.131033 -0.20429385
0.153937 0.0064876731 -0.20475054
0.20524999 0.12092113 -0.20596065
-0.20524999 0.15411671 -0.20186175
-0.051312201 0.23332445 -0.20795879
-0.10236879 0.27946499 -0.20665145
-0.059256576 0.27946499 -0.20945407
0.13491312 0.27518901 -0.20660797
-0.19389251 0.33060616 -0.20572765
0.0083702877 -0.32211131 -0.19603193
-0.10337737 -0.26786599 -0.19257592
0.059245639 -0.26786599 -0.19896737
-0.20524999 -0.25350747 -0.19347663
0.20524999 -0.21897863 -0.190115
0.20524998 -0.20856164 -0.19180502
-0.044804644 -0.131033 -0.19558848
-0.0067113433 -0.131033 -0.19381134
0.153937 0.10671251 -0.19416822
0.153937 0.11208244 -0.19943607
0.20524999 0.21888325 -0.19646984
-0.20524999 -0.30391636 -0.18854834
0.098203853 -0.26786602 -0.18333521
0.16653696 -0.26786599 -0.18600315
0.03229773 -0.131033 -0.18863797
0.071388222 -0.131033 -0.18486673
0.10375576 -0.131033 -0.18410163
-0.20524999 0.0072057694 -0.18137009
0.153937 0.059570797 -0.18173775
-0.20524999 0.085146695 -0.18139499
-0.20524999 0.10512286 -0.18633129
0.20524999 0.2238774 -0.18796027
0.059734754 0.27518901 -0.18175721
0.20524999 -0.25282398 -0.1746316
-0.051312201 -0.06531132 -0.17932123
-0.051312201 0.021508604 -0.17641687
-0.051312201 0.084772438 -0.17524023
-0.20524999 0.1988401 -0.1796381
0.153937 0.26253313 -0.17197216
0.20524999 0.26892805 -0.17988557
0.10247308 0.27518901 -0.17571563
-0.087140948 -0.31659445 -0.16764653
-0.058765851 -0.31651586 -0.16714351
-0.045573764 -0.31581178 -0.16263674
0.20524999 -0.31372893 -0.16374663
-0.20524999 -0.30328599 -0.16292289
-0.20524999 -0.25127307 -0.16583782
-0.20524999 -0.12818711 -0.16970277
-0.20524999 -0.078857414 -0.16090095
-0.051312201 -0.058018658 -0.16142389
-0.20524999 -0.022158694 -0.16694821
0.20524999 0.10580581 -0.16615814
0.153937 0.23288883 -0.16827658
-0.054845989 0.27946499 -0.16681844
-0.20524999 0.32585862 -0.16954587
-0.14080426 -0.31389344 -0.15035743
0.085159719 -0.31523591 -0.15895048
0.13359037 -0.31400457 -0.15106881
-0.055186234 -0.26786599 -0.15714574
0.20524999 -0.14566813 -0.15830734
-0.041041881 -0.131033 -0.15186161
0.11075054 -0.131033 -0.15576652
-0.20524999 -0.12784047 -0.15850729
0.20524999 -0.073269516 -0.15237671
0.153937 -0.063101992 -0.15426566
-0.20524999 0.038532101 -0.15561633
-0.20524999 0.090251446 -0.15495811
0.20524999 0.10636082 -0.15445481
0.153937 0.17099392 -0.15845099
-0.11845187 0.28896198 -0.15125075
-0.098052606 -0.31381476 -0.14985377
-0.058243759 -0.31248474 -0.14134067
0.12531187 -0.31380832 -0.14981258
-0.028531935 -0.26786599 -0.14294435
-0.20524999 -0.11317194 -0.14169991
-0.051312201 -0.11756056 -0.14478497
-0.051312201 -0.049819961 -0.14270544
0.20524999 -0.040650435 -0.14705278
-0.051312201 -0.034924753 -0.14233463
0.15393698 0.068465441 -0.14474934
0.20524999 0.10406579 -0.14168072
0.046725344 0.27518901 -0.14947219
-0.16428098 0.31645936 -0.14814393
0.075738549 -0.31213129 -0.13907799
-0.12282814 -0.26786599 -0.13091801
-0.061843313 -0.26786599 -0.13269271
-0.039592572 -0.26786599 -0.13626739
0.20524999 -0.075447015 -0.13415045
-0.051312201 0.007013903 -0.13519453
-0.051312201 0.07565403 -0.13809432
0.153937 0.19156873 -0.13595399
-0.051312201 0.24557468 -0.13231911
-0.07585863 0.27946499 -0.13281162
-0.042096153 0.27518901 -0.13966568
0.076774381 0.27518901 -0.1328932
-0.1838333 0.32788613 -0.13638091
-0.010659076 -0.31052035 -0.12839347
0.11178641 -0.31013274 -0.12490596
-0.17333306 -0.30990267 -0.1228359
0.16667521 -0.26786602 -0.12432336
-0.20524999 -0.24072909 -0.12988427
0.081832394 -0.131033 -0.12706892
-0.20524999 -0.11942276 -0.12302052
0.153937 0.021796606 -0.12461472
-0.20524999 0.031892743 -0.12054905
-0.051312201 0.1167627 -0.12785965
0.153937 0.17744444 -0.12289797
-0.13856603 0.30103037 -0.12699999
0.010194831 -0.30893254 -0.11410698
0.20524999 -0.18421513 -0.11590424
-0.20524999 -0.021688469 -0.11081363
-0.051312201 0.061247472 -0.11124768
-0.051312201 0.17960629 -0.11361357
0.153937 0.18444958 -0.11369827
-0.051312201 0.26451129 -0.11704201
0.028069124 0.27518901 -0.11551956
0.15365741 0.27518901 -0.11774454
-0.13635615 -0.30803218 -0.10600638
0.034432523 -0.30846322 -0.10988446
-0.14405701 -0.26786599 -0.10461857
0.20524999 -0.23298135 -0.10241531
-0.037809696 -0.131033 -0.10781616
-0.20524999 -0.046217203 -0.10898798
0.153937 -0.046404298 -0.1069499
0.153937 -0.025375426 -0.10521193
-0.051312201 -0.0088799521 -0.1081215
0.153937 0.06353043 -0.10483953
0.153937 0.075100556 -0.10198755
0.15393701 0.1196174 -0.10048825
-0.051312201 0.24074015 -0.10269299
0.19113253 -0.30717918 -0.098331235
0.18386571 -0.26786602 -0.094553106
0.20524999 -0.22451404 -0.091523439
0.20524999 -0.15031686 -0.093397543
-0.051312201 -0.13015807 -0.098618537
-0.200974 -0.11115226 -0.090491682
-0.051312201 -0.071240492 -0.095551074
0.153937 -0.0021615773 -0.099381156
0.20524999 0.031510621 -0.097139604
0.20524999 0.04486556 -0.093124285
-0.051312201 0.086380392 -0.099052414
-0.20524999 0.10801303 -0.094571866
0.15393698 0.15696108 -0.091830663
-0.051312201 0.19706358 -0.094385162
-0.051312201 0.21553767 -0.090237424
0.20524999 0.22376165 -0.098562554
0.076844238 -0.26786599 -0.085203335
-0.200974 -0.20844561 -0.08202441
0.063544706 -0.131033 -0.080152526
0.153937 -0.057775412 -0.081742212
0.20524999 -0.0056193322 -0.082466662
-0.20524999 0.10341375 -0.087385483
-0.20524999 0.18685657 -0.08538606
0.153937 0.26699179 -0.088473365
0.079887271 -0.3050321 -0.073802017
0.20524999 -0.29921049 -0.077570282
-0.19923958 -0.26786599 -0.073328599
-0.18098457 -0.26786599 -0.078481264
0.0098334504 -0.131033 -0.072224125
0.033847053 -0.131033 -0.077211976
-0.051312201 -0.094171971 -0.077107236
0.153937 -0.070163861 -0.07669159
-0.051312201 0.080077648 -0.07618203
-0.20524999 0.20405406 -0.078959867
-0.13456157 -0.26786599 -0.065371782
-0.094294071 -0.26786599 -0.068764627
-0.039443996 -0.26786599 -0.063391499
-0.051312201 -0.13035811 -0.064250946
0.083821937 -0.131033 -0.069709614
-0.20524999 -0.042003956 -0.06403745
0.153937 0.17365831 -0.061727799
-0.20524999 0.21801504 -0.060843065
0.20524999 0.21959832 -0.060865387
-0.0884488 0.27946496 -0.064547136
-0.076325446 0.27946499 -0.060359802
-0.14924423 -0.30392691 -0.057183832
0.153937 -0.13037544 -0.051380988
0.084688656 -0.12952156 -0.051312201
0.044533372 -0.10092624 -0.051312201
0.0096592549 -0.08401148 -0.051312201
0.12827726 -0.085496947 -0.051312201
-0.022799768 -0.067845464 -0.051312201
0.076582119 -0.016815141 -0.051312201
-0.20524999 -0.0034587439 -0.057715319
0.077126533 0.024573807 -0.051312201
0.12498634 0.021120733 -0.051312201
-0.20524999 0.047935028 -0.059354495
0.15307865 0.042320862 -0.051312201
0.022400353 0.06743449 -0.051312201
0.084449634 0.069358692 -0.051312201
0.1273694 0.06889338 -0.051312201
0.082918875 0.08951439 -0.051312201
0.10522947 0.088767238 -0.051312201
0.058913477 0.10672963 -0.051312201
0.06748125 0.10460604 -0.051312201
0.12241301 0.11918037 -0.051312201
-0.051312201 0.12415164 -0.052193601
-0.035484668 0.1228558 -0.051312201
0.073962212 0.12433974 -0.051312197
0.025058735 0.13698377 -0.051312201
0.10150989 0.14008084 -0.051312201
-0.20524999 0.16590859 -0.05258638
0.063089475 0.17662747 -0.051312201
0.05588007 0.18913405 -0.051312201
0.084440485 0.18596499 -0.051312201
0.062811658 0.20845412 -0.051312201
0.10825808 0.20386122 -0.051312201
0.12305123 0.21410015 -0.051312201
0.028796472 0.24295241 -0.051312201
0.020806571 0.25324756 -0.051312201
0.11507814 0.25485098 -0.051312201
0.12428291 0.25951344 -0.051312201
-0.20524999 0.26756394 -0.057418071
0.097210377 0.26593131 -0.051312204
0.0010372512 0.27946499 -0.050682552
0.08663734 0.2710835 -0.051312201
-0.13528885 0.29906386 -0.05024277
-0.20524999 0.32227451 -0.057738945
-0.13892049 -0.30299741 -0.042224217
-0.01415257 -0.26786599 -0.040395215
0.016755642 -0.26786599 -0.04240334
0.10226081 -0.26786599 -0.048424192
0.20524999 -0.26647827 -0.04476659
0.20524999 -0.029391479 -0.047835134
-0.076735616 -0.26786599 -0.031211689
-0.048214287 -0.26786599 -0.03944695
-0.023718663 -0.26786599 -0.037987448
-0.200974 -0.253629 -0.036648914
-0.20097399 -0.21281192 -0.032879472
0.20524999 -0.1648549 -0.032360476
0.20524999 -0.10722624 -0.034771629
-0.20097402 -0.088857405 -0.039784886
0.20524999 0.07785508 -0.031756908
-0.20524999 0.15674639 -0.035048425
0.20524999 0.15394148 -0.036267892
-0.20524999 0.24237016 -0.036524929
-0.014103349 0.27946499 -0.036874592
0.058386613 0.27946499 -0.03149537
0.14487131 0.27946499 -0.033435896
-0.20524999 0.31243369 -0.034384206
0.064089745 -0.30266309 -0.027115323
0.19116233 -0.30252421 -0.020836515
0.20061763 -0.30267218 -0.027524281
0.0843933 -0.26786599 -0.021381311
-0.200974 -0.10857293 -0.022744777
-0.20524999 0.0026431899 -0.022806212
0.20524999 0.055791892 -0.020979717
-0.20524999 0.22240083 -0.020808391
0.20524999 0.22581819 -0.024977908
0.20524999 0.2385194 -0.021980269
-0.20524999 0.24652448 -0.023244843
0.12872365 0.27946499 -0.023587259
-0.048616223 -0.30241948 -0.016103873
0.1150043 -0.30249044 -0.01931164
-0.043096192 -0.26786599 -0.017113194
-0.0072232112 -0.26786599 -0.017423682
0.020763669 -0.26786599 -0.013538472
0.20524999 0.080932543 -0.012018979
-0.20524999 0.1035618 -0.01645872
0.20524999 0.10704023 -0.012523383
-0.20524999 0.11117989 -0.015143596
-0.20524999 0.24049619 -0.017114788
-0.11133932 0.28469372 -0.01992717
-0.14392759 -0.26786599 -0.0066348761
-0.13114348 -0.26786599 -0.0071026236
-0.200974 -0.083110236 -0.0020131804
-0.200974 -0.064577401 -0.0065513588
-0.045357428 0.27946499 -0.0051534753
0.14365335 0.27946499 -0.0010037663
-0.062405728 -0.30214927 0.002821913
0.12179021 -0.30226308 0.0079661952
-0.16964929 -0.26786596 0.00056001171
-0.079851493 -0.26786599 0.0037531257
-0.008130176 -0.26786599 0.0018089265
0.20524999 -0.24961323 0.0099156797
-0.200974 -0.17366049 0.0023290296
-0.20524999 0.094487235 0.0058364421
-0.077562891 0.27946499 0.0076703243
0.022953767 0.27946499 0.0044205473
-0.04972443 -0.30252615 0.019856256
0.0051199906 -0.30240202 0.014244465
0.12369805 -0.30239838 0.014081745
-0.0178812 -0.26786599 0.017520271
0.20524999 -0.19939157 0.016632088
-0.20524999 0.022264011 0.016363371
0.20524999 0.13946447 0.015552849
0.20524999 0.19221699 0.014431618
-0.089060314 0.27946499 0.010198756
-0.05646994 0.27946499 0.01394828
-0.025775604 0.27946499 0.01893579
-0.14332575 0.30388635 0.01043883
-0.20524999 0.31925493 0.016504765
-0.03495305 -0.26786599 0.020376705
0.20524999 -0.26379383 0.021229044
0.20524999 -0.25290462 0.026336052
-0.200974 -0.21864001 0.029693585
-0.200974 -0.15342999 0.023899427
-0.20524999 -0.049892582 0.023809314
0.20524999 0.10835124 0.028723694
0.20524999 0.13061285 0.022907041
-0.20524999 0.15340181 0.027233966
0.20525001 0.26811185 0.025900567
-0.13598807 -0.30281973 0.033123847
0.019762103 -0.30284724 0.034366924
0.049279958 -0.30292755 0.037996572
-0.10313322 -0.26786599 0.033577383
-0.085620314 -0.26786599 0.032587633
-0.033214238 -0.26786599 0.039750658
0.20524999 -0.012654237 0.035292633
0.20524999 0.056915991 0.032051627
-0.20524999 0.090128116 0.03415674
0.20524999 0.13628846 0.03005518
-0.20524999 0.1777246 0.038990796
0.20524999 0.19425769 0.032532424
-0.15290791 0.32227689 0.030972831
-0.091459088 -0.26786599 0.047882047
0.14928299 -0.26786599 0.045743562
-0.200974 -0.22511016 0.046628844
-0.20524999 0.03469988 0.047123995
-0.20524999 0.26337153 0.049054995
-0.04955386 0.27946499 0.041879348
0.15470991 0.27946499 0.041787397
-0.20524999 0.2874555 0.045260735
-0.17236701 -0.30400434 0.057278432
0.16089348 -0.30392602 0.056100868
0.20524999 -0.19528286 0.053103842
-0.20400091 -0.0626169 0.050398655
0.153937 0.16275129 0.056022812
0.20524999 0.19011968 0.052008569
-0.051312201 0.21018811 0.058237951
0.20524999 0.21811414 0.057732325
0.153937 0.26606277 0.052700825
-0.062174711 0.27946499 0.057568911
-0.0056755282 0.27913797 0.051312201
-0.15917459 0.33081636 0.055959605
-0.19458541 -0.30474758 0.068454266
-0.058253475 -0.30465955 0.067130581
-0.036227122 -0.30441225 0.063411638
0.0066831615 -0.30468819 0.067560799
-0.200974 -0.20237365 0.063298717
0.20524999 -0.10477082 0.061570205
0.153937 -0.024092715 0.066428788
-0.20524999 0.015007352 0.061152987
-0.051312201 0.014552332 0.063394785
-0.20524999 0.028605975 0.062217433
0.15393701 0.11763254 0.069650121
-0.20524999 0.1438064 0.062532112
-0.20524999 0.18173163 0.068789199
0.153937 0.18913215 0.060035482
0.20524999 0.19297212 0.060687944
-0.051312201 0.21535468 0.068157598
-0.20524999 0.24362454 0.060605325
-0.12368733 -0.3052386 0.075837418
0.0078996047 -0.30547023 0.079320528
0.021171957 -0.30515683 0.074608028
-0.200974 -0.26132908 0.074705221
-0.15542765 -0.26786599 0.078209452
-0.13562241 -0.26786599 0.079594046
0.10779474 -0.26786599 0.079878375
-0.051312201 -0.050961394 0.078393027
0.20524999 0.00057753921 0.07155358
-0.051312201 0.047605574 0.071244538
0.153937 0.063969746 0.073238067
-0.051312201 0.10354203 0.075974546
0.20524999 0.2405543 0.074957311
-0.20524999 0.25118965 0.073842227
-0.1326969 0.30029827 0.073122054
-0.096887723 -0.30599901 0.086643115
0.20524999 -0.18242809 0.087996952
0.20524999 -0.00252828 0.081286289
-0.051312201 0.037729621 0.084543943
-0.051312201 0.054788738 0.086968787
-0.20524999 0.12459674 0.086109489
-0.20524999 0.1637322 0.087657884
-0.051312201 0.20387577 0.084671065
-0.051312201 0.22230075 0.081662223
-0.20524999 0.29272979 0.081747517
-0.18459781 0.32819554 0.08214093
0.080959573 -0.30699357 0.09559197
0.18857221 -0.30655655 0.09165971
-0.051312201 -0.13067228 0.092604876
0.15393698 -0.073048651 0.096691735
-0.20524999 -0.026156791 0.092069581
-0.051312201 0.053922184 0.095413342
0.153937 0.061340295 0.090479873
0.20524999 0.14145198 0.095090665
-0.095886283 0.27946499 0.09826535
0.087729894 0.27518901 0.09965916
0.13049987 0.27518901 0.099210553
-0.12650442 0.2937932 0.099365324
-0.021676272 -0.30809844 0.10553281
-0.017788742 -0.30828622 0.10722282
0.20524999 -0.28419796 0.10174166
0.11504374 -0.26786599 0.10009921
-0.051312201 -0.12991576 0.10164649
-0.051312201 -0.078772068 0.10568136
-0.20524999 -0.050605711 0.108125
-0.20524999 0.15898122 0.10599025
-0.051312201 0.2189402 0.10053314
0.153937 0.23517182 0.10017859
-0.0026526172 0.27518901 0.10268271
-0.16621922 -0.30870461 0.1109869
-0.020477608 -0.30944017 0.11760547
0.080460593 -0.30968386 0.11979833
-0.20524999 -0.27028057 0.11498698
-0.18233667 -0.26786599 0.11094616
-0.051312201 -0.089727774 0.11576745
-0.20524999 -0.078318715 0.1166535
-0.051312201 0.06611599 0.11227144
0.153937 0.11257124 0.11593092
-0.20524999 0.20555595 0.11072586
-0.20524999 0.22586468 0.11911145
-0.095503435 0.27946499 0.1101581
-0.041174993 0.27518901 0.1148482
0.061242156 0.27518901 0.11319762
-0.20524999 0.29769671 0.11149056
-0.20524999 0.30165458 0.11617928
-0.061676141 -0.31016797 0.12415393
-0.20524999 -0.18235889 0.12492214
-0.051312201 -0.12235075 0.12226493
-0.051312201 -0.10827968 0.12042197
0.153937 0.064485557 0.12988973
-0.20524999 0.18948697 0.12122718
0.20524999 0.22030087 0.12618086
0.153937 0.23266031 0.12151914
0.14973423 0.27518901 0.12095068
-0.11981021 0.28977644 0.12302092
-0.14975098 -0.31192875 0.13671266
0.0031622164 -0.31144208 0.13359733
0.04117357 -0.31128448 0.13258862
-0.20524999 -0.15576604 0.13390811
-0.20524999 -0.13384216 0.1372381
-0.20524999 -0.063254796 0.13154
0.153937 -0.0048629194 0.1324684
-0.051312201 0.10707232 0.13748562
-0.20524999 0.13895822 0.13020514
-0.051312201 0.27627203 0.13061468
-0.20524999 0.29158574 0.13098693
-0.14481056 0.30477726 0.13252175
-0.024965338 -0.26786599 0.14885479
0.20524999 -0.24839503 0.14671223
-0.051312201 -0.073422134 0.1457573
-0.051312201 -0.031532418 0.14082454
-0.051312201 -0.022193588 0.14100049
-0.051312201 0.016486302 0.14548188
-0.20524999 0.12491997 0.14071856
-0.20524999 0.14992884 0.14705773
0.20524999 0.16816154 0.14442156
0.153937 0.21888533 0.14005828
0.0048483405 0.27518901 0.14121658
0.18124142 0.27946499 0.14177196
-0.13686651 -0.26786599 0.15858582
-0.044998437 -0.26786599 0.15807495
0.20524999 -0.18957515 0.15015115
-0.051312201 -0.12221608 0.15857276
-0.20524999 -0.11314943 0.15994875
-0.051312201 -0.073316082 0.15895404
0.153937 -0.010351619 0.15455052
0.20524999 0.058572896 0.15467387
-0.051312201 0.14174977 0.15751523
-0.20524999 0.22046424 0.15260765
0.046611529 0.27518901 0.15505835
-0.12564577 0.29327801 0.15308234
-0.1573777 -0.31578737 0.16141135
-0.093983747 -0.26786599 0.1645551
-0.01021485 -0.26786599 0.16667818
-0.20524999 -0.24873935 0.16434076
0.20524999 -0.16566651 0.16587865
-0.20524999 -0.068666421 0.16974537
0.153937 -0.03035228 0.16009375
-0.051312201 0.087600827 0.16514471
-0.20524999 0.22695374 0.16339888
-0.051312201 0.25373617 0.16777036
0.047486257 0.27518901 0.16025679
0.14381847 0.27518901 0.16961828
-0.20524999 0.28539985 0.16182619
-0.1080074 -0.31902406 0.1796729
-0.051954921 -0.31896946 0.17940247
0.14669861 -0.26786599 0.17162073
0.20524999 -0.25413215 0.17738168
0.20524999 -0.22109783 0.17186388
0.153937 -0.035677228 0.17546251
-0.20524999 0.010472037 0.17973448
-0.051312201 0.068082929 0.17321439
-0.20524999 0.13162075 0.17342097
0.20524999 0.21560797 0.17929205
-0.20524999 0.28223163 0.17047675
-0.20524999 0.31618488 0.17543739
0.056217209 -0.32030123 0.18599825
0.15309848 -0.26786599 0.18148629
0.20524999 -0.19551705 0.18802391
-0.051312201 -0.040703285 0.18413788
0.153937 0.11528946 0.18190657
0.20524999 0.20736979 0.18537669
0.20524999 0.25540394 0.18666001
-0.20524999 0.26284593 0.18337746
0.18119103 0.27946499 0.18125317
-0.13321221 0.29781815 0.18432431
-0.13489729 0.3187758 0.18059108
0.20524999 -0.27978987 0.19368713
0.153937 -0.066530779 0.19022356
-0.20524999 -0.051194698 0.19634122
-0.051312201 -0.0055205096 0.19767024
-0.051312201 0.0086790323 0.19673502
0.153937 0.077834204 0.19152632
0.153937 0.17514125 0.19074246
0.20524999 0.17601356 0.19188535
0.11130188 0.27518901 0.19650772
-0.11755975 -0.26786599 0.20981319
0.20524999 -0.19709967 0.20099197
-0.20524999 -0.12250306 0.20660862
-0.051312201 -0.074117139 0.20321678
-0.20524999 0.012344946 0.20766023
-0.051312201 0.07890553 0.20170218
0.153937 0.070216082 0.20868888
0.20524999 0.24176967 0.20856057
-0.20524999 0.29949293 0.20793554
0.030302839 -0.32675824 0.21715604
0.13309336 -0.32656693 0.21638614
0.15187125 -0.32563579 0.21241823
-0.20524999 -0.31237495 0.21181744
0.20524999 -0.25557059 0.21573687
0.20524998 -0.15490653 0.21619619
-0.051312201 -0.12041293 0.21969274
-0.051312201 -0.048374671 0.21365444
0.20524999 0.11541835 0.21299267
0.20524999 0.17146608 0.21760781
0.20524999 0.26641202 0.21673925
-0.12414996 -0.32947484 0.22809026
0.13395868 -0.32895458 0.22599639
0.17550518 -0.32941329 0.22784263
-0.20524999 -0.20370191 0.22350965
0.20524999 -0.20244731 0.22497103
0.15393698 -0.0053658038 0.22856556
-0.20524999 0.10058725 0.22998659
-0.20524999 0.16967812 0.22528252
-0.20524999 0.18900505 0.22374696
-0.20524999 0.26682618 0.22861837
0.17238575 0.27946499 0.22365035
-0.16501987 -0.33166909 0.23692223
-0.13165888 -0.33129469 0.2354151
-0.012683198 -0.33074403 0.23319875
0.063739777 -0.26786599 0.23539326
0.1489 -0.26786599 0.23455888
-0.20524999 -0.23942348 0.23311177
-0.20524999 -0.15581211 0.23660859
-0.20524999 -0.11295319 0.23087624
0.153937 -0.09488707 0.23524867
0.153937 -0.011303894 0.23705781
0.20524999 0.0057021379 0.23499677
-0.051312201 0.032045942 0.23035587
-0.051312201 0.21805683 0.23684487
-0.20524999 0.24686524 0.23833705
0.18838781 0.27946499 0.23424777
0.20524999 -0.33110905 0.24520567
-0.056250338 -0.26786599 0.24994208
0.20524999 -0.225109 0.24110988
0.20524999 -0.04874891 0.24607734
-0.051312201 -0.033939578 0.24845432
-0.20524999 -0.024596959 0.24266466
-0.20524999 0.067921177 0.24069645
-0.20524999 0.080645911 0.24209885
0.20524999 0.1034281 0.24879816
0.20524999 0.13626608 0.24876764
0.15393701 0.14521253 0.24345975
-0.085429013 0.27946499 0.24840674
0.096317224 0.27518901 0.24490289
-0.10212526 -0.33286893 0.25549299
-0.015971906 -0.3303678 0.25549299
0.14174794 -0.33501029 0.25037044
-0.047254678 -0.32804888 0.25549299
-0.0095896237 -0.32890096 0.25549299
0.038690742 -0.32906362 0.25549299
-0.011566911 -0.31006986 0.25549299
-0.20524999 -0.13881052 0.25058451
-0.051030137 -0.10878521 0.25656199
-0.04999413 -0.084411114 0.25656199
-0.030602485 -0.088272832 0.25656199
0.09688855 -0.080523506 0.25656199
0.024655908 -0.070754893 0.25656199
0.016941551 -0.064377651 0.25656199
0.020533249 -0.060986146 0.25656199
0.11972547 -0.061266981 0.25656199
-0.051312201 -0.016648166 0.25022599
0.080195114 0.017976794 0.25656199
0.12160678 0.012271721 0.25656199
0.067027442 0.02918122 0.25656199
0.0073223561 0.035416961 0.25656199
0.20524999 0.034538038 0.25292668
0.12766775 0.046222955 0.25656199
-0.041921332 0.059443187 0.25656199
0.095883489 0.058423974 0.25656199
-0.036759309 0.083265796 0.25656199
0.058201984 0.098209247 0.25656199
0.020731881 0.10203788 0.25656199
0.059988011 0.11246171 0.25656199
0.064443886 0.116823 0.25656199
-0.20524999 0.13524279 0.25943983
-0.0043522008 0.14771807 0.25656199
0.090047151 0.14393929 0.25656199
0.11958008 0.1421638 0.25656199
0.06624873 0.16945884 0.25656199
0.051214214 0.17704739 0.25656199
0.12553243 0.18397976 0.25656199
-0.009899972 0.19456702 0.25656199
0.0032164697 0.20817268 0.25656199
-0.20524999 0.21489534 0.25380084
0.016904954 0.22060454 0.25656199
0.059772223 0.22200233 0.25656199
-0.029537089 0.25513151 0.25656199
0.12489621 0.2699146 0.25656199
0.098162338 0.27518904 0.25627112
0.11683039 0.27364707 0.25656199
0.18804821 -0.33628303 0.26716363
-0.20524999 -0.30886647 0.26933682
-0.030249296 -0.30345407 0.26852566
0.17742641 -0.26786599 0.2676895
0.20524999 -0.20187311 0.26730001
-0.20524999 0.0015172586 0.26943016
0.18610558 0.27946499 0.26956221
-0.15139753 0.30872887 0.26630431
-0.19490135 -0.336283 0.2751731
-0.16233495 -0.336283 0.27185044
0.20524999 -0.32751563 0.27210936
0.024300542 -0.30296004 0.27388969
-0.02244512 -0.26786599 0.27996957
0.17412321 -0.26786599 0.27260908
-0.20524999 -0.24778274 0.27177349
-0.20524999 -0.11218514 0.27565566
-0.20524999 -0.087408133 0.27240688
-0.20524999 0.019891463 0.27222925
0.081718639 0.27946499 0.27737373
-0.10935646 0.28350389 0.27845579
-0.15872976 0.31312826 0.27241147
-0.17562355 0.32326478 0.27810219
0.20524999 -0.27326342 0.28466654
-0.20524999 -0.049995765 0.28035367
-0.20524999 -0.014818564 0.28498754
-0.20524999 0.12497617 0.28503951
0.2047497 0.2771503 0.28956702
-0.20473915 0.32848772 0.28893736
0.15934588 -0.336283 0.29820475
-0.20524999 -0.32383552 0.29721802
0.12701631 -0.32508388 0.2984584
-0.059491832 -0.30716354 0.29098272
0.070685446 -0.30922621 0.29404587
-0.12488037 -0.26786599 0.29471505
0.20524999 -0.099473327 0.29620343
0.20524999 -0.035477452 0.29089341
-0.20524999 0.050321087 0.2951085
-0.20524999 0.071877144 0.29415315
-0.20524999 0.10687868 0.29688945
0.062692918 0.27946499 0.29194328
0.17630339 0.27946499 0.29972172
-0.13597719 0.29947656 0.29911697
0.11713745 -0.31100118 0.30787399
-0.17503271 -0.30403399 0.30787399
-0.031482641 -0.30358952 0.30787078
0.046430402 -0.30162111 0.30787399
0.05760961 -0.30261856 0.30787399
0.18744767 -0.30406296 0.30787399
-0.17661634 -0.29447639 0.30787399
0.12743068 -0.29609472 0.30787399
-0.19325152 -0.28830495 0.30787399
-0.074172482 -0.28812483 0.30787399
-0.06304957 -0.2810756 0.30787399
0.15941098 -0.28925136 0.30787399
-0.082018852 -0.26786599 0.30350018
-0.066144809 -0.26819208 0.30787399
0.032464698 -0.26786599 0.30392936
0.17560424 -0.26786599 0.30783254
-0.030818582 -0.25127462 0.30787399
0.0070478022 -0.25906283 0.30787402
0.043516591 -0.25142038 0.30787399
0.15061633 -0.25891447 0.30787399
-0.20524999 -0.24730195 0.30146384
-0.19142646 -0.24508798 0.30787399
-0.20524999 -0.23849376 0.3004148
-0.085440077 -0.23778969 0.30787402
0.1068299 -0.23918156 0.30787399
0.1496844 -0.22660162 0.30787399
-0.17967084 -0.21146896 0.30787399
-0.15262689 -0.21585812 0.30787399
0.051352188 -0.21522421 0.30787399
0.09321221 -0.21650928 0.30787399
0.11870263 -0.21097335 0.30787399
-0.19078505 -0.19507281 0.30787399
-0.11395823 -0.19430348 0.30787399
0.084545568 -0.19066176 0.30787396
-0.10756695 -0.18252251 0.30787399
0.0714828 -0.18785095 0.30787399
0.092018217 -0.18191329 0.30787399
-0.18807384 -0.172452 0.30787399
-0.13016179 -0.17372903 0.30787399
-0.097978413 -0.17851558 0.30787399
0.10776931 -0.17511526 0.30787396
-0.13632064 -0.15911581 0.30787399
-0.10193445 -0.15319942 0.30787399
0.099392012 -0.150846 0.30787399
0.14042486 -0.13121791 0.30787399
-0.080527179 -0.12209894 0.30787399
0.08051993 -0.12746432 0.30787399
-0.20524999 -0.11123253 0.30557671
-0.16934709 -0.091624394 0.30787399
0.087602302 -0.082567066 0.30787399
-0.15028183 -0.07101211 0.30787399
0.047653668 -0.07101021 0.30787399
-0.15618487 -0.069320157 0.30787399
0.20524999 -0.058870412 0.30075264
-0.14771473 -0.038933504 0.30787399
0.0091688596 -0.031069271 0.30787399
0.1883713 -0.037246436 0.30787399
-0.17948613 -0.026520371 0.30787399
-0.050609071 -0.021194063 0.30787399
-0.03861431 -0.023967877 0.30787399
-0.0207536 -0.011677742 0.30787399
0.12695655 0.015555363 0.30787399
-0.20524999 0.036896341 0.30267698
0.0060148598 0.037716046 0.30787399
-0.18257806 0.048536286 0.30787399
-0.14385147 0.048143886 0.30787399
-0.15399779 0.078680381 0.30787399
-0.14508206 0.076715462 0.30787396
-0.050029483 0.10187544 0.30787399
-0.012617872 0.10700738 0.30787399
0.087377809 0.10616855 0.30787399
0.16265731 0.10953935 0.30787402
0.10187893 0.12546338 0.30787399
0.14756799 0.12053718 0.30787399
-0.19286859 0.13242498 0.30787399
-0.055191755 0.13453087 0.30787402
-0.040202651 0.14916708 0.30787399
0.071789339 0.14630841 0.30787399
0.12704673 0.14994104 0.30787399
0.1013418 0.16313592 0.30787399
-0.14889513 0.17812696 0.30787399
-0.070211381 0.17743066 0.30787399
0.11368357 0.17312828 0.30787399
0.03495352 0.18566455 0.30787399
0.05115062 0.18753457 0.30787399
0.088095561 0.18316689 0.30787399
-0.099491224 0.19495752 0.30787399
-0.20059377 0.20179644 0.30787399
-0.092011787 0.20338368 0.30787399
-0.026097823 0.20642163 0.30787399
0.20524999 0.20058715 0.3017202
-0.049350306 0.21570213 0.30787399
-0.016728688 0.22707549 0.30787399
-0.027563736 0.23117322 0.30787399
0.090259716 0.23531702 0.30787399
-0.20524999 0.2539812 0.30736664
0.086210489 0.25680289 0.30787399
-0.17040767 0.26489925 0.30787399
-0.066737056 0.26650321 0.30787399
0.19145539 0.26206708 0.30787399
0.011938028 0.27946499 0.30233958
0.098649427 0.27946499 0.30157563
0.20203766 0.27119637 0.30773455
-0.19070315 0.28751034 0.30787399
-0.16176011 0.30342522 0.30787399
