# .PCD v0.7 - Point Cloud Data file format
VERSION 0.7
FIELDS x y z
SIZE 4 4 4
TYPE F F F
COUNT 1 1 1
WIDTH 877
HEIGHT 1
VIEWPOINT 0 0 0 1 0 0 0
POINTS 877
DATA ascii
0.209142 0.0040102219 -0.14586931
0.209142 -0.036879197 -0.13233471
0.209142 0.033250596 -0.13949086
0.209142 -0.056315497 -0.12421285
0.20509166 -0.041316804 -0.12308072
0.20409562 -0.036932189 -0.12220253
0.20210361 0.034540433 -0.12659448
0.209142 -0.073041931 -0.11641596
-0.10911652 -0.0048899595 -0.11059138
-0.075865686 -0.0020250825 -0.11087583
-0.025680864 -0.0046386095 -0.11061633
0.016123515 -0.0037379768 -0.11070576
0.096652448 -0.0031894338 -0.11076021
0.10561693 -0.0038952515 -0.11069014
0.13520706 -0.0053733913 -0.11054337
-0.13515797 0.0070707649 -0.11167936
-0.045626372 0.0019525182 -0.11127077
-0.022910399 0.003373984 -0.11141191
0.0056276843 0.008263086 -0.11189735
0.16723546 0.0068169655 -0.11175377
-0.0023747012 0.014489226 -0.11251555
0.0060540047 0.013252409 -0.11239275
0.066100314 0.010584264 -0.11212783
0.086291797 0.015038027 -0.11013428
0.096867211 0.012749905 -0.11234286
0.13560183 0.014305569 -0.11249731
0.14964117 0.011528732 -0.11222161
0.15629639 0.019212373 -0.11260749
0.17499062 0.011029631 -0.11126006
-0.11320217 0.028247092 -0.11171041
-0.05587405 0.022537315 -0.11227734
-0.04863885 0.02211865 -0.1123189
-0.012005368 0.027429961 -0.11179154
0.096377738 0.028129663 -0.11172207
0.10921317 0.026475329 -0.11188633
0.16340467 0.023192482 -0.11221229
0.18427011 0.024687 -0.11327177
-0.069585815 0.039457042 -0.11059736
-0.033022389 0.036072407 -0.11093342
0.12079595 0.035924859 -0.11094806
0.15870517 0.03692973 -0.1108483
0.16235358 0.037431419 -0.11079848
-0.05229402 0.042366367 -0.1102614
-0.03776316 0.041859448 -0.11035882
0.14430591 0.042032991 -0.11034159
0.19203454 0.053913157 -0.11132021
0.20202421 0.070809595 -0.11756336
0.209142 0.094475202 -0.11919884
0.209142 0.12079272 -0.1173954
0.20892371 -0.074354649 -0.10560873
-0.13476394 -0.031259347 -0.10304105
-0.083933696 -0.034457345 -0.10129705
-0.04925609 -0.036315285 -0.10028384
-0.027597567 -0.03312847 -0.10202174
-0.010451298 -0.032349192 -0.10244671
0.049635809 -0.035282534 -0.10084704
0.099578716 -0.033259772 -0.10195014
0.15402085 -0.031919483 -0.10268105
-0.13748896 -0.02475499 -0.10223626
-0.12712173 -0.026966432 -0.10436033
-0.11064099 -0.02130753 -0.10609709
-0.056219343 -0.023214964 -0.10551169
-0.037720185 -0.023462791 -0.10543562
0.023440307 -0.024098456 -0.10147349
0.038604416 -0.025861537 -0.1008859
0.086291797 -0.022006955 -0.10359354
0.10487521 -0.024741404 -0.1050432
0.15705062 -0.028592562 -0.10386124
0.16600396 -0.025559062 -0.10479226
0.19209948 -0.028383674 -0.10855632
-0.11771615 -0.018497944 -0.10695939
-0.10125294 -0.014770227 -0.10810347
0.0281648 -0.019615751 -0.10551412
0.034820899 -0.014447067 -0.10820265
0.069193199 -0.017277889 -0.10491996
0.094844043 -0.016680699 -0.10751712
0.11513317 -0.015782902 -0.10779266
0.18133301 -0.012765784 -0.10826139
-0.13875182 -0.0026619236 -0.10673402
0.024982493 -0.0040336596 -0.10814524
-0.14242706 0.0074976021 -0.10367262
-0.13873661 0.017921859 -0.10867361
0.0205459 0.011223368 -0.10945766
0.090781257 0.013010388 -0.10872076
-0.13981564 0.021459062 -0.10712767
0.037636638 0.036584921 -0.10723475
0.091885649 0.03520748 -0.10737151
-0.075942285 0.048612401 -0.1083445
-0.064752534 0.048323117 -0.10843327
0.011346813 0.047753554 -0.10860808
0.11226486 0.049589314 -0.10804468
-0.11941064 0.05523273 -0.10631272
-0.087548196 0.054853439 -0.10642912
-0.038411323 0.054664746 -0.10648703
0.0370926 0.059674729 -0.1014396
0.0447108 0.054692529 -0.10540884
0.08183831 0.052547611 -0.10713678
0.15511668 0.057026196 -0.1057623
0.17202528 0.058277436 -0.1053783
-0.1143689 0.06369286 -0.1037163
-0.039975837 0.069527797 -0.10105574
0.023347454 0.060257304 -0.10095701
0.047608301 0.068390936 -0.10167574
0.10421929 0.066160895 -0.10289192
0.15963046 0.065962262 -0.10300025
0.18657412 0.061548874 -0.10662842
0.19212845 0.077679515 -0.10170916
-0.05212139 -0.051269107 -0.092128888
-0.016352322 -0.050447952 -0.092576705
0.066018634 -0.052452557 -0.091483504
0.11308479 -0.053604186 -0.090631872
0.14844872 -0.052763455 -0.091313966
0.1869386 -0.05080549 -0.095029086
0.19435462 -0.053390168 -0.097122058
-0.098139383 -0.041173544 -0.09763442
-0.021380316 -0.044962779 -0.095567994
0.012196158 -0.04109399 -0.097677812
0.038470827 -0.040802762 -0.093648486
0.043200005 -0.042822473 -0.09254694
0.053308196 -0.044156522 -0.09598805
0.16989732 -0.04060467 -0.097944662
0.17616519 -0.041739937 -0.095230848
0.18921676 -0.048099641 -0.097580604
-0.14179794 -0.035183646 -0.092344493
-0.13930576 -0.038595349 -0.093652338
-0.12305999 -0.038442612 -0.099123716
-0.04371389 -0.037279595 -0.099757954
0.033337012 -0.037437331 -0.099671945
0.076884463 -0.039591026 -0.098497443
0.18133301 -0.036892578 -0.099702008
-0.14334901 -0.027773406 -0.090517119
-0.13990538 -0.024355169 -0.094652884
-0.14334863 0.0013644099 -0.09690056
-0.14334814 0.010927401 -0.099172086
0.076811403 0.068911657 -0.099547863
-0.14047636 0.075360484 -0.090998538
-0.11517321 0.072499007 -0.099435359
-0.10022547 0.074293792 -0.098456547
-0.066592969 0.079734668 -0.095489308
-0.021020457 0.079945035 -0.095374577
0.0447108 0.077751346 -0.093959711
0.075910866 0.070380539 -0.09640263
0.085010968 0.074077934 -0.098574266
0.13098209 0.077530235 -0.096691519
0.17636997 0.077954233 -0.094365574
-0.12963107 0.086831391 -0.09161903
-0.098516561 0.088136658 -0.090712503
-0.023962986 0.086131737 -0.092000596
0.0077768201 0.086353496 -0.091879651
0.0205459 0.086176433 -0.091319293
0.03608197 0.088541865 -0.090367876
0.0533082 0.082646593 -0.090001203
0.076811403 0.08312197 -0.093332738
0.13659644 0.082479522 -0.093992367
0.15525755 0.080936641 -0.094833799
0.18553093 0.082056426 -0.096205965
0.209142 0.12152042 -0.098562002
0.24963881 0.30250338 -0.097929269
0.19509327 -0.073196001 -0.081869021
-0.10434818 -0.066023201 -0.080069669
-0.070502758 -0.066066287 -0.080033019
-0.01970032 -0.06015759 -0.085058287
-0.0030242172 -0.064813316 -0.081098661
0.0281648 -0.06443949 -0.0810882
0.10426472 -0.061745565 -0.083707735
0.1240162 -0.061914332 -0.0835642
0.18861783 -0.066025883 -0.08407677
-0.1422378 -0.053494662 -0.080100045
-0.13718653 -0.056960411 -0.084638372
-0.12426671 -0.055023864 -0.089424454
-0.077172384 -0.055473205 -0.089042291
0.0041780686 -0.054418921 -0.089938954
0.010609085 -0.059041522 -0.086007483
0.023326078 -0.05335173 -0.086379126
0.054645143 -0.051634919 -0.08742518
0.093910001 -0.058400545 -0.085893884
0.11869722 -0.05819416 -0.086728171
0.16992654 -0.058278684 -0.086656272
-0.14334762 -0.011040555 -0.086441815
-0.14334881 0.033098087 -0.08350382
0.041985702 0.085846886 -0.087778986
0.12057346 0.089991324 -0.089135088
-0.13038051 0.097255528 -0.082956776
-0.088951141 0.096439071 -0.083651185
-0.076967753 0.096710727 -0.083420135
-0.032219857 0.091722272 -0.087662891
-0.025089985 0.097699217 -0.082579404
0.0065047755 0.094371967 -0.085409284
0.018237649 0.097753391 -0.082533337
0.0205459 0.095204741 -0.083158135
0.0533082 0.092854977 -0.086258747
0.088288695 0.092562795 -0.082067005
0.093371093 0.092950217 -0.081737503
0.1318831 0.10063208 -0.080084965
0.209142 0.15617813 -0.081144266
0.2024747 -0.094440445 -0.073203586
-0.12850954 -0.071353383 -0.075536408
-0.017249782 -0.072183065 -0.07448867
-0.004598544 -0.071923174 -0.074826576
0.02470752 -0.070313632 -0.070747279
0.10114257 -0.072933465 -0.073494196
0.19498384 -0.079856157 -0.074255645
-0.1410923 -0.066832975 -0.070158258
-0.088709168 -0.067785881 -0.078570522
-0.034710936 -0.066586949 -0.079590201
0.093334422 -0.060567796 -0.079827875
0.13866028 -0.066297233 -0.079836592
-0.14241299 -0.0048641651 -0.075570375
-0.14334759 0.085554376 -0.073901623
-0.1429949 0.093606085 -0.073393643
-0.11419501 0.10225251 -0.078706771
-0.078611612 0.10432111 -0.076947398
-0.052372202 0.10653163 -0.074850336
-0.01514213 0.1049255 -0.076002873
-0.0096263252 0.10478401 -0.076553702
0.032386426 0.10277833 -0.07825955
0.094020247 0.10503305 -0.07634189
0.10200463 0.10409634 -0.077138565
0.15613383 0.10605841 -0.075465575
0.18857169 0.1138834 -0.070330195
0.20266291 0.13078646 -0.071686193
0.209142 -0.1266804 -0.064590231
0.1988436 -0.096037224 -0.061864145
-0.13094205 -0.082809098 -0.060672924
-0.072449513 -0.080207884 -0.064054959
-0.03791631 -0.080869086 -0.063195273
0.18630974 -0.085422173 -0.060739145
0.19479695 -0.087624773 -0.063781984
-0.12972759 -0.079193354 -0.065374032
-0.10085732 -0.079711698 -0.064700097
-0.081556432 -0.077059038 -0.068149023
-0.00068497472 -0.07801728 -0.066903144
0.074266337 -0.076181099 -0.066204578
0.086291797 -0.076194093 -0.065904975
0.091715388 -0.075701535 -0.063742176
0.12176193 -0.07859081 -0.066157445
0.16389108 -0.077312499 -0.067819491
-0.138212 0.012992982 -0.065991566
-0.13761598 0.034059279 -0.062516905
-0.13821395 0.051033605 -0.064607359
-0.14334741 0.085129812 -0.069441743
-0.12209196 0.11282402 -0.066669531
-0.11632001 0.11297122 -0.066478163
-0.09917444 0.11653712 -0.061842103
-0.064004466 0.11340624 -0.065912589
-0.026759744 0.11770645 -0.060321841
0.00740234 0.11690024 -0.061370011
0.012936668 0.11194789 -0.067808606
0.045832377 0.11588046 -0.062695846
0.07747411 0.11287974 -0.066597104
0.083345868 0.11209136 -0.067622073
0.16080219 0.11219282 -0.06749016
0.19572246 0.11922257 -0.069749385
0.209142 0.15907784 -0.060482915
0.209142 -0.12395792 -0.050066713
-0.10414891 -0.088420659 -0.05146613
-0.094071299 -0.085444503 -0.057246409
-0.070313863 -0.087337263 -0.053764649
-0.055828091 -0.087630153 -0.05314327
-0.049235106 -0.088031448 -0.05229187
-0.0068798251 -0.088215478 -0.051901419
0.011069721 -0.086897559 -0.054697536
0.037092604 -0.082785957 -0.057839237
0.067184024 -0.083513513 -0.059757043
0.10577262 -0.085835189 -0.056738444
0.14155671 -0.084860764 -0.058005378
-0.14334828 -0.074289545 -0.052408867
-0.13821383 -0.025610119 -0.056467447
-0.12161256 0.0093566049 -0.053984724
-0.138212 0.016180003 -0.050082155
-0.1297368 0.033026479 -0.059044138
-0.14334838 0.0938344 -0.057732426
-0.14334807 0.10630164 -0.058192652
-0.080641471 0.11919586 -0.058385462
0.027157696 0.11577097 -0.056667127
0.0370926 0.11912261 -0.057592399
0.075819999 0.11741856 -0.054491747
0.089080498 0.1166407 -0.055536374
0.15384944 0.11937273 -0.058155511
-0.054088011 0.12153599 -0.054674365
-0.029976204 0.1222062 -0.053252436
0.0023982916 0.12306929 -0.051421322
0.018031221 0.12135954 -0.055048704
0.034483273 0.12293142 -0.051713817
0.05209966 0.12364118 -0.050207973
0.062090266 0.12216074 -0.053348869
0.14046589 0.12095995 -0.055896442
0.19269067 0.12905689 -0.050140966
0.19905332 0.13489719 -0.053582035
0.20494454 0.14664654 -0.054940339
0.209142 0.16402555 -0.059109241
0.209142 -0.12617442 -0.046362851
0.20674185 -0.117553 -0.045523919
-0.13102522 -0.0919175 -0.044047229
-0.1226026 -0.092794679 -0.042186208
-0.074879125 -0.091358483 -0.045233246
-0.054727573 -0.090371303 -0.04732763
0.045782998 -0.091601998 -0.042326715
0.15269148 -0.093714088 -0.040235601
0.19475086 -0.099579714 -0.041285153
-0.14312416 -0.082676314 -0.041842639
0.036183316 -0.087392524 -0.049188219
0.05541233 -0.088593766 -0.044206817
-0.13821201 0.029871466 -0.041093789
-0.12202836 0.028670799 -0.045466296
-0.138212 0.032011315 -0.041468676
-0.12778042 0.030750908 -0.0444366
-0.13239828 0.12561291 -0.046024732
-0.11910345 0.12472473 -0.047909111
-0.092488721 0.12443441 -0.04852505
-0.081796646 0.12382709 -0.04981355
-0.068176806 0.12486626 -0.047608845
-0.0093992436 0.12753554 -0.041945718
0.17905192 0.12418604 -0.044593658
0.209142 0.15971829 -0.048332963
0.25491321 0.26662266 -0.043724284
0.25154918 0.31820646 -0.046021592
-0.084898047 -0.095058389 -0.0373835
-0.050220229 -0.095747657 -0.035921171
0.0609271 -0.095266536 -0.035827
0.088567674 -0.091937155 -0.035086825
0.094591767 -0.094923474 -0.031335551
0.10880145 -0.093969196 -0.039694346
0.19050874 -0.099399075 -0.037402086
-0.14334869 -0.060663149 -0.034762062
-0.13821329 -0.039501235 -0.036562439
-0.12414768 0.0016389285 -0.03045732
-0.13278218 0.031432994 -0.039872073
-0.13821289 0.059587874 -0.033909712
-0.1382139 0.082684517 -0.037966423
-0.00049288373 0.12894806 -0.038948871
0.00031087897 0.12983662 -0.037063744
0.071977422 0.12568861 -0.036946628
-0.12816016 0.13122387 -0.033310696
-0.075368591 0.13048516 -0.035687771
-0.034694307 0.13180873 -0.03071215
0.080303386 0.13077396 -0.035075083
0.18972304 0.13528459 -0.031772949
0.19613728 0.13763604 -0.038331419
0.209142 0.17084596 -0.035861172
0.25485784 0.2671254 -0.038670439
0.25195819 0.31741166 -0.033813879
0.20892547 -0.12471442 -0.024981622
-0.12913059 -0.098514825 -0.024786007
-0.10730952 -0.099228457 -0.021615082
-0.078572087 -0.098053537 -0.026835719
-0.023947496 -0.09744864 -0.029523525
0.028876495 -0.099052213 -0.022398159
0.0447108 -0.095352829 -0.029666942
0.076811403 -0.098598227 -0.023922086
0.1191669 -0.097726032 -0.028290968
0.15182419 -0.099029303 -0.022500001
-0.14334774 -0.085902505 -0.021308584
-0.13821331 -0.049920753 -0.02518991
-0.13821255 -0.019320544 -0.026982643
-0.11758575 -0.00061393739 -0.02057495
-0.13821247 0.05138563 -0.026673883
0.0281648 0.12972791 -0.024483901
0.043272719 0.12874639 -0.026874868
0.07247857 0.12935834 -0.024155332
-0.13648638 0.13034162 -0.029719714
-0.090861566 0.13357091 -0.022882842
-0.068748362 0.13352872 -0.023070194
0.13412102 0.1320058 -0.029836597
0.16924393 0.13375884 -0.022047833
0.209142 0.16539115 -0.02787107
0.25379005 0.29489118 -0.021023503
0.2526179 0.30224341 -0.020606361
0.209142 -0.14323759 -0.015148576
0.20414934 -0.12241332 -0.014770005
0.19709697 -0.11044614 -0.012422275
-0.11753725 -0.10134844 -0.012195039
-0.083355598 -0.10047151 -0.016091626
-0.074855462 -0.101438 -0.011254046
-0.065640181 -0.101438 -0.011115159
0.067582116 -0.10020374 -0.017281448
0.18956691 -0.10451037 -0.014342814
0.0370926 -0.099248141 -0.015139466
0.11434174 -0.099963322 -0.018349718
-0.13487148 -0.04443476 -0.01462687
-0.13543837 -0.023138568 -0.013324048
-0.138212 -0.010014186 -0.013328753
-0.1231655 -0.016436001 -0.01443285
-0.138212 0.019549577 -0.013673559
-0.11718316 0.045791823 -0.012841125
-0.13426921 0.064772353 -0.012216918
-0.138212 0.076731101 -0.011251682
-0.13655762 0.086669929 -0.015200558
-0.11494882 0.13504359 -0.016339757
-0.1078786 0.13512465 -0.015979517
-0.097800329 0.136066 -0.011283727
0.017831191 0.13539962 -0.014757833
0.049444169 0.13585052 -0.012754494
0.059703439 0.13100818 -0.016823364
0.072398722 0.13162909 -0.014063941
0.086291797 0.13391671 -0.014117395
0.13262345 0.13436082 -0.019373227
0.14045224 0.13603491 -0.011935307
0.16419071 0.13545538 -0.013760166
0.209142 0.17434266 -0.019724194
0.20366544 -0.12146377 -0.0033692946
-0.12677501 -0.101438 -0.0047152322
-0.11989981 -0.101438 -0.0036659606
-0.073478945 -0.101438 -0.0027940278
0.0053686192 -0.101438 -0.0050350563
0.015558487 -0.101438 -0.0024667149
0.11648262 -0.101438 -0.00078573427
0.14285859 -0.101438 -0.0015161878
0.15821213 -0.101438 -0.0023600371
0.16089907 -0.101438 -0.0016429592
0.039244279 -0.097597197 -0.00021889317
0.042735532 -0.097597197 -0.0063720169
0.070075348 -0.097597197 -0.0022674948
-0.14334753 -0.085058212 -0.0083144493
-0.13447347 -0.057982504 -0.0088221598
-0.12388835 -0.0502754 -0.0091240378
-0.13821226 -0.047753386 -0.0015374776
-0.12332862 -0.047705725 -0.0026801953
-0.12049676 -0.034708716 -0.0053188386
-0.113369 0.020713856 -0.0042465916
-0.138212 0.072340511 -0.0015188102
-0.14334783 0.12407839 -4.7601061e-05
-0.066097349 0.136066 -0.00045355599
-0.0028676437 0.136066 -0.0076905298
0.053308196 0.13571936 -0.0052453587
0.14903554 0.136066 -0.0059971041
0.17057106 0.13606602 -0.0071546156
0.18726663 0.1386355 -0.009762438
0.25582486 0.32539392 -0.0055139512
0.209142 -0.14188543 0.0077954661
-0.1244614 -0.101438 0.0071550044
-0.1069397 -0.10143799 0.0052950904
-0.091584712 -0.101438 0.0070644356
-0.0071812151 -0.101438 0.0047135241
0.080397435 -0.101438 0.0081311865
0.094894439 -0.101438 0.0054062526
0.13152677 -0.101438 0.0018045469
0.18894151 -0.10473279 0.0060492875
0.19214877 -0.10612165 0.008217291
0.093888551 -0.097597197 0.0065805679
-0.12358956 -0.048903704 0.0050284727
-0.138212 -0.020325042 0.006296902
-0.11590043 -0.013610293 0.002752363
-0.113369 0.018015964 0.0087711131
-0.113369 0.033308696 0.001814347
-0.138212 0.054529335 0.0055326894
-0.1336838 0.136066 0.00049746176
-0.033317778 0.136066 0.0056576678
-0.0093654478 0.136066 0.0029679553
0.0033102767 0.136066 0.0063426639
0.026354948 0.13222501 0.0068699978
0.0447108 0.13512394 0.0031097648
0.10388502 0.136066 0.0052281092
0.14821373 0.136066 0.0044421745
0.15842134 0.136066 0.0018522227
0.16362736 0.136066 0.0048892871
0.18843521 0.13914153 0.0028233435
0.19789161 0.14618163 0.0063186283
-0.11981349 -0.101438 0.011015972
0.10599878 -0.10102859 0.013525259
0.12744814 -0.10133982 0.012218088
0.14199731 -0.101438 0.010434402
-0.13689047 -0.098409601 0.015587035
0.060657125 -0.09617646 0.017714791
0.078718618 -0.099871472 0.018742567
0.088606715 -0.097291365 0.012759628
0.18133301 -0.099297248 0.019003069
-0.14193904 -0.077560455 0.015704054
-0.14016199 -0.060199931 0.014358154
-0.13607882 -0.057982501 0.012329847
-0.12801829 -0.05082456 0.016072743
-0.138212 -0.023531094 0.010816263
-0.138212 -0.019513896 0.010896035
-0.138212 0.037787199 0.018953092
-0.138212 0.049305409 0.019396989
-0.11752509 0.04137709 0.015704531
-0.13584305 0.055443279 0.014588116
-0.12482357 0.055884156 0.013620093
-0.12547354 0.069038503 0.012907404
-0.12462501 0.13561441 0.013788309
-0.11934355 0.13513291 0.015927661
-0.084905319 0.136066 0.010834526
-0.06672854 0.13536495 0.014896635
-0.049214043 0.13483766 0.017239515
0.036605921 0.13436224 0.019351868
0.051018659 0.136066 0.01020512
0.064284943 0.13596708 0.012221328
0.070597984 0.13077448 0.017846663
0.081937402 0.136066 0.010215642
0.18133301 0.13443801 0.012095149
0.19586757 0.14247768 0.016429441
0.20023075 0.14874376 0.016211636
0.26332659 0.31596562 0.015995299
0.25178543 0.32059038 0.017412739
0.20419258 -0.12096106 0.021672795
0.18861724 -0.10143161 0.026139531
-0.085972309 -0.097390346 0.029767266
-0.054885663 -0.098576225 0.024497889
-0.0077160988 -0.098449737 0.025059933
0.04648754 -0.098944388 0.022861967
0.13993871 -0.098069414 0.026749894
0.15400288 -0.099030368 0.022479929
-0.1382125 -0.023109145 0.025065362
-0.13198414 0.00034721586 0.026098091
-0.12245855 0.0011710704 0.028868649
-0.11488505 0.024999758 0.024801701
-0.138212 0.04393521 0.028870234
0.0370926 0.12957178 0.024647428
0.088217057 0.12925574 0.024596021
-0.11381286 0.13242151 0.027974762
-0.054429553 0.13403854 0.020790137
-0.019444756 0.13254894 0.027408563
0.0447108 0.13012618 0.021636007
0.051711164 0.13310331 0.024945492
0.098438956 0.13211426 0.029339913
0.13840261 0.13366887 0.022432603
0.16642734 0.13210376 0.029386621
0.18162587 0.13348009 0.023847464
0.20344332 -0.11667897 0.032642897
-0.10645536 -0.096906185 0.031918563
-0.091285609 -0.096808456 0.032352827
0.0059650103 -0.09382271 0.039989833
0.043431181 -0.091360092 0.036297109
0.081276067 -0.093999915 0.039613876
0.12678188 -0.096891508 0.031983756
0.13510901 -0.094948076 0.037602261
0.16260089 -0.095556252 0.036311951
0.17252722 -0.094095901 0.037180945
-0.13821399 -0.053050496 0.030705202
-0.1382131 -0.026081562 0.038820677
-0.1173791 0.0090736896 0.035614334
-0.138212 0.021277249 0.035679091
-0.138212 0.044271313 0.038714424
-0.13821292 0.056337111 0.035526954
-0.13821316 0.063393541 0.039704785
-0.13821355 0.078523412 0.038301177
-0.11430997 0.12913211 0.038543712
0.013354112 0.1291268 0.038554959
0.0533082 0.12843083 0.037774943
0.064527288 0.12993649 0.036837179
0.17594451 0.12838967 0.034798142
-0.12236887 0.13052103 0.03559706
-0.1178143 0.13149618 0.032086164
-0.0826272 0.13091949 0.034648523
-0.060500011 0.13166521 0.031335104
-0.035649259 0.13078162 0.035044216
-0.0090857996 0.13186315 0.030455649
0.19782573 -0.10229072 0.045303937
-0.026570585 -0.090834551 0.046329506
0.0533082 -0.09094052 0.045609847
0.061927348 -0.091097973 0.045770638
0.14937638 -0.093025066 0.041682128
0.18624081 -0.092123322 0.048530892
-0.13493428 -0.084899262 0.047880173
-0.080081113 -0.089108229 0.04999207
-0.015935358 -0.089488268 0.04918579
0.042359658 -0.087283269 0.044945814
0.11008934 -0.089909092 0.048292968
0.14313781 -0.089753099 0.048623916
0.16363026 -0.089423187 0.049323861
-0.14334747 -0.074921943 0.041096255
-0.14334716 -0.067451283 0.046850652
-0.13821352 -0.037724804 0.040430777
-0.1382134 -0.027428113 0.045513555
-0.138212 0.0099923564 0.042202212
-0.1197143 0.01573869 0.045739911
-0.138212 0.021510569 0.045252681
-0.12246072 0.03100607 0.040422313
-0.12305535 0.12658188 0.043954104
-0.099579625 0.12775116 0.041473448
-0.068050772 0.12715292 0.042742625
0.031058237 0.12616962 0.044828694
0.060070023 0.1233318 0.041931309
0.10192462 0.12686269 0.043358359
0.12671177 0.12608466 0.045008987
0.209142 0.15723856 0.042017911
0.25608519 0.25781307 0.04486211
0.20883963 -0.1136492 0.057308543
-0.1194493 -0.083319463 0.059993893
0.014223627 -0.087502912 0.053397901
0.073336951 -0.081777416 0.055543032
0.11788246 -0.085645236 0.056970101
0.15980464 -0.087600634 0.053190596
0.17900623 -0.086008549 0.052109502
0.18464196 -0.087302022 0.05711899
0.19016162 -0.089651622 0.057718672
-0.14334883 -0.076762319 0.051318496
-0.13821359 -0.02545226 0.05024023
-0.13821216 -0.0030418348 0.052320708
-0.12889485 0.0018060789 0.058341116
-0.138212 0.028490379 0.054121532
-0.138212 0.036442321 0.058543626
-0.13821307 0.046307556 0.056803651
-0.14033806 0.068139374 0.057317842
-0.13821374 0.060830969 0.054000348
-0.14334846 0.099026009 0.054833543
-0.0017632281 0.11795592 0.059982054
0.1606632 0.11826327 0.059582494
0.17848849 0.11566132 0.059879955
-0.10029334 0.12273104 0.052123763
-0.060260393 0.12335399 0.05080216
-0.052453056 0.12073404 0.056360468
-0.021396682 0.12354974 0.050386883
0.0047735944 0.12280633 0.051964033
0.069193199 0.12210929 0.052116066
0.1864011 0.12392053 0.054697014
0.20223442 0.13859871 0.05710084
0.2066005 0.15086797 0.050836779
0.209142 0.16401842 0.050895534
0.25461543 0.26848304 0.051102184
0.209142 -0.12260318 0.069149591
0.19844218 -0.092990912 0.064910173
-0.075690672 -0.08231315 0.061302222
-0.058787372 -0.080079451 0.064206317
-0.011092357 -0.080221839 0.064021185
0.052833371 -0.081906311 0.061831169
0.14690863 -0.081418827 0.062464967
0.18752366 -0.08310093 0.06458652
0.19425204 -0.086255558 0.065532878
-0.038952187 -0.077817544 0.067147084
-0.010903649 -0.077705234 0.067293093
-0.0047008293 -0.079133824 0.065435752
0.0447108 -0.079539709 0.060820449
0.061731949 -0.074105784 0.068887264
0.071076594 -0.07213404 0.068365149
0.093910009 -0.075661637 0.066852257
0.11835784 -0.079184219 0.065370232
0.12610558 -0.07868436 0.066020124
0.14342116 -0.07903263 0.065567315
-0.14334841 -0.066305205 0.062405579
-0.14334826 -0.059645753 0.065045625
-0.14334735 -0.0455846 0.065030575
-0.13821237 -0.0042673917 0.069497623
-0.13539283 0.032296278 0.062487409
-0.14334878 0.064086556 0.066954911
-0.14334786 0.089465648 0.069701098
0.092974506 0.10598393 0.069376126
-0.12296842 0.11033744 0.069886491
-0.087368645 0.11522979 0.063526183
-0.061481874 0.11028349 0.06995663
-0.039154083 0.11300911 0.066413179
-0.012523174 0.11593004 0.062615812
0.054527551 0.11044634 0.063574433
0.11516895 0.11456202 0.06439431
0.18325011 0.11374976 0.066784397
0.19697282 0.12561189 0.064227402
0.209142 -0.12165879 0.077956811
0.209142 -0.10932785 0.075978085
0.2026546 -0.094416909 0.073903218
-0.080918051 -0.075386956 0.070307158
-0.078511491 -0.072317138 0.074298307
0.0024980474 -0.070321269 0.076398164
0.0205459 -0.073647976 0.070019424
0.0370926 -0.070554838 0.075822115
0.085292473 -0.074130706 0.071940437
0.096767843 -0.074313357 0.071702957
0.15713879 -0.070633873 0.076132283
0.18999028 -0.073077537 0.078818768
-0.0027716095 -0.069128461 0.07741268
0.025197901 -0.064939193 0.076210365
0.0447108 -0.067584231 0.076030381
0.051599566 -0.067792684 0.078548804
0.075091861 -0.060706846 0.07969401
-0.14290287 -0.052942265 0.079572938
-0.14334902 -0.019783549 0.0713204
-0.13129723 0.0060337102 0.071115002
-0.1412473 0.02271344 0.075220034
-0.14334705 0.078758299 0.070703521
-0.14315315 0.089110002 0.077888258
-0.089136578 0.10334687 0.077760026
-0.069393113 0.1089104 0.071741745
-0.055169567 0.10262369 0.078375131
0.012806332 0.10224438 0.078697741
0.028479073 0.10401016 0.077195853
0.044778366 0.10396916 0.077230729
0.085387409 0.10544118 0.072730437
0.13025329 0.10705949 0.074147999
0.14653565 0.10361287 0.077533782
0.18303677 0.10597435 0.076462992
0.18294938 0.11047208 0.070836276
0.19298196 0.11291328 0.074644014
0.20228027 0.12891482 0.072648361
0.209142 -0.094929829 0.088060811
0.19885841 -0.072488092 0.089125358
-0.12870985 -0.060857806 0.084447123
-0.027807493 -0.060361199 0.084869504
0.049040347 -0.062612273 0.082954898
0.084179536 -0.065203436 0.080751032
0.12591089 -0.062332507 0.08319284
-0.12442747 -0.059403472 0.085684076
-0.11275598 -0.057316035 0.087459512
-0.097173408 -0.055679254 0.088851638
-0.060794055 -0.057742968 0.087096386
0.042130198 -0.051653124 0.087393738
0.053308204 -0.053893339 0.086768404
0.086291805 -0.050824739 0.088850729
0.1273701 -0.057467993 0.087330259
0.13595223 -0.055907466 0.088657536
0.075455651 -0.049852494 0.088696755
0.088216566 -0.049621418 0.088822767
-0.1433472 0.051312819 0.087739326
0.024159053 0.084800959 0.08852198
-0.11610331 0.09411826 0.085609496
-0.10742439 0.092835993 0.086700127
-0.09966217 0.094714388 0.085102431
-0.053947061 0.09137693 0.08794114
-0.021971682 0.094141841 0.085589424
-0.017466435 0.098148122 0.082181856
-0.0046656393 0.096419714 0.08365196
0.12279731 0.090474375 0.088708818
0.13484761 0.094042771 0.08567369
0.15952 0.094814956 0.085016906
-0.086214222 0.10062218 0.080077529
0.20746429 0.13028514 0.084370427
0.209142 -0.10522527 0.092454918
0.20858011 -0.089256667 0.092410341
-0.092838794 -0.053247098 0.090825357
-0.05232209 -0.053542092 0.090669356
-0.017003525 -0.051624689 0.091914967
0.077738263 -0.052919406 0.091198973
0.13242072 -0.050561912 0.092499189
0.19447792 -0.053910431 0.096885331
-0.13662919 -0.044289179 0.0939347
-0.11962363 -0.047384702 0.094231755
-0.071677409 -0.045716852 0.095141239
-0.065230325 -0.043886963 0.096139096
-0.056428235 -0.04977341 0.09292917
-0.035044529 -0.04762879 0.094098642
0.044731949 -0.043475185 0.096363641
0.086291797 -0.045569163 0.094285771
0.10482356 -0.043305632 0.096456096
0.12091285 -0.047724221 0.094046608
0.1630147 -0.043523628 0.096337229
-0.14334877 -0.032161072 0.09016946
-0.094617151 -0.036859196 0.099971399
-0.087989517 -0.038248755 0.09921366
-0.020036824 -0.036878534 0.099960856
0.174134 -0.0378584 0.097493887
-0.14271449 -0.013411421 0.097628482
-0.14334889 -0.0012418897 0.090647019
-0.1433482 0.01567268 0.099176422
-0.14093891 0.055306911 0.099476159
-0.13825762 0.071092114 0.096131295
-0.12997937 0.074888602 0.098116457
-0.10402501 0.074505344 0.098325461
-0.096149705 0.07713265 0.096892715
-0.056062303 0.079046994 0.095848769
-0.0055706408 0.077810466 0.096523076
0.023675319 0.076681316 0.092949972
0.039591692 0.074784689 0.093984291
0.13918357 0.075313486 0.097884752
-0.13633016 0.084363639 0.09134464
-0.11663275 0.08563076 0.092258446
-0.081922226 0.087510496 0.091229774
0.029441703 0.083877414 0.093214601
0.034509022 0.085581481 0.091953099
0.13683052 0.080253892 0.0951906
0.14330032 0.084498331 0.092875995
0.19560698 0.093647599 0.094820149
0.19892146 0.1009402 0.094489269
0.20263921 -0.066968299 0.10161559
0.19182563 -0.040878337 0.10273657
-0.075304843 -0.034572586 0.10121831
-0.068610892 -0.034381971 0.10132225
-0.045861807 -0.031342514 0.1029797
-0.025682285 -0.030499415 0.10326004
0.061078712 -0.035300668 0.10082128
0.12041418 -0.032181639 0.10252212
0.14352895 -0.031830505 0.10271358
0.16202794 -0.033033766 0.10205744
0.189527 -0.039983366 0.10213895
-0.12636039 -0.024867399 0.10498881
-0.094409026 -0.026568038 0.10446678
-0.032665685 -0.024577156 0.10507789
0.065675892 -0.026674174 0.10443421
0.10890961 -0.020461116 0.10634132
0.14301848 -0.029131085 0.10368004
0.15892303 -0.029503671 0.10356569
0.19084425 -0.022052487 0.10994377
-0.14083408 -0.013927665 0.10166989
-0.038338237 -0.019568313 0.10661537
-0.0092793182 -0.01886915 0.10682999
0.0062019415 -0.017672863 0.10719719
0.026049547 -0.01827522 0.10329311
0.033694316 -0.01695472 0.10741763
0.070646696 -0.017147169 0.10354409
0.086291797 -0.011949547 0.10685792
0.12101145 -0.013247708 0.1085555
0.168166 -0.015125184 0.1079792
0.18030542 -0.012275113 0.1069462
-0.13931409 -0.0058486224 0.10578005
-0.078806393 -0.009099301 0.10982886
-0.066621274 -0.0087001994 0.10995138
0.0281648 -0.0036119411 0.10854617
0.073583633 -0.0031453925 0.10710177
0.076811403 0.0048070811 0.10865721
0.042211432 0.012222472 0.10862753
0.09167961 0.012202758 0.10862558
0.07541912 0.03743029 0.10713583
-0.036815211 0.047272585 0.10874046
0.069193199 0.040371642 0.10832444
0.076811403 0.048050165 0.10772091
0.092513561 0.049255405 0.10431744
0.10651903 0.049611103 0.10802267
0.17910594 0.044923812 0.10755327
-0.073845655 0.058630049 0.10525437
-0.048759475 0.053161114 0.10693303
-0.032736506 0.053713795 0.10676339
0.076811403 0.055036228 0.10429339
0.14531115 0.050848097 0.10764299
0.1612919 0.058105886 0.10541527
-0.10206109 0.066619501 0.10243243
-0.070994169 0.067408651 0.10219549
-0.020532481 0.066351682 0.10277189
-0.01223385 0.063301153 0.10382062
0.008446713 0.069331408 0.10114696
0.01576017 0.069069877 0.10128957
0.13361278 0.062090807 0.10419212
0.16722351 0.06054971 0.10466515
0.19590335 0.068437874 0.10953989
0.20914201 -0.077994868 0.11707766
-0.11646571 -0.0075709848 0.11029799
-0.081986949 -0.0074199289 0.11032517
0.010301947 -0.0082537206 0.11008842
0.0447108 -0.0053485464 0.11051948
0.13190143 -0.0027747722 0.11078621
0.1519289 -0.0069425274 0.11037254
0.1877929 -0.0066233673 0.11306099
-0.073195755 0.0028254353 0.11134203
-0.054832026 0.0017864787 0.11123892
0.0609271 0.0091763018 0.11192794
0.098974936 0.0019025989 0.11125044
0.174134 0.0029659839 0.11116734
-0.11120285 0.017970927 0.11271477
-0.060744785 0.011969144 0.11224955
-0.040538892 0.018295685 0.11268254
0.096255079 0.01748166 0.11276332
0.10748156 0.011776336 0.11223041
0.13145743 0.014521882 0.11250291
-0.096647553 0.023412516 0.11217469
-0.075168431 0.024474755 0.11206925
-0.057011947 0.025535367 0.11196399
-0.032613274 0.028019711 0.11171741
0.0447108 0.024285994 0.11157141
0.068969704 0.024002524 0.11211612
0.11225216 0.02450284 0.11206648
0.12975003 0.025805552 0.11193718
0.15401638 0.028892197 0.11163082
-0.10555261 0.037414562 0.11078497
-0.091871023 0.034140944 0.11110988
-0.060198739 0.030548729 0.11146641
-0.021085562 0.0327795 0.11124501
-0.017500035 0.039444853 0.11058346
0.013057589 0.037012178 0.11082491
0.10645373 0.033951029 0.11112873
-0.064486012 0.042303912 0.11025378
0.209142 0.1122213 0.11420197
0.209142 0.12778655 0.11232062
0.20557885 -0.030964063 0.12591819
0.20269613 -0.025519006 0.12240024
0.20203224 0.018440802 0.12801714
0.20137791 0.028582249 0.12588516
0.20575985 0.068109915 0.12546749
0.20745902 -0.012722841 0.13368465
0.20440771 0.024066925 0.13279907
0.209142 0.055279531 0.13858692
0.209142 -0.017734615 0.14712311
0.209142 0.012267288 0.14531264
0.209142 0.037760757 0.14112401
0.209142 0.050332252 0.1469427
0.209142 0.028325826 0.15123725
0.24690515 0.3135016 0.15891723
0.24599364 0.30998826 0.16870628
0.24658826 0.31162632 0.16303486
0.24441761 0.30991736 0.17939271
0.24202417 0.31583053 0.19055572
0.23864916 0.31919813 0.20088756
