# .PCD v0.7 - Point Cloud Data file format
VERSION 0.7
FIELDS x y z
SIZE 4 4 4
TYPE F F F
COUNT 1 1 1
WIDTH 984
HEIGHT 1
VIEWPOINT 0 0 0 1 0 0 0
POINTS 984
DATA ascii
-0.11605104 -0.24429847 -0.26147401
0.069331981 -0.24305986 -0.26147401
0.2093243 -0.24252734 -0.26147401
-0.024427593 -0.22323093 -0.26147401
-0.012201652 -0.22110668 -0.26147401
0.0029703826 -0.22418833 -0.26147401
0.023920327 -0.22266857 -0.26147401
-0.31657183 -0.21012257 -0.26147401
-0.13933298 -0.21060166 -0.26147401
0.25873089 -0.20531631 -0.26147401
-0.26204234 -0.19080585 -0.26147401
0.055015944 -0.1911933 -0.26147401
0.27116013 -0.19093449 -0.26147401
-0.2552968 -0.18656261 -0.26147401
0.072963178 -0.18101779 -0.26147401
0.11525214 -0.18191774 -0.26147401
-0.30661178 -0.17409652 -0.26147401
0.27597797 -0.17464373 -0.26147401
-0.09515626 -0.16495861 -0.26147401
0.1708439 -0.16193299 -0.26147401
-0.31842032 -0.15845424 -0.26147401
-0.28582066 -0.15363975 -0.26147401
-0.11328074 -0.15654619 -0.26147401
-0.25377795 -0.14265555 -0.26147401
-0.23888387 -0.1453061 -0.26147401
0.017328501 -0.1416931 -0.26147401
0.14115918 -0.14206518 -0.26147401
-0.28971076 -0.13761377 -0.26147401
-0.080719151 -0.13046579 -0.26147401
-0.32591411 -0.12621732 -0.26147401
-0.24639595 -0.11868568 -0.26147401
-0.22700879 -0.10708539 -0.26147401
0.25399199 -0.10130014 -0.26147401
-0.063601814 -0.097101316 -0.26147401
-0.26819175 -0.079203576 -0.26147401
0.18828425 -0.079951853 -0.26147401
-0.063861251 -0.066615239 -0.26147401
0.070894092 -0.066534743 -0.26147401
-0.084805615 -0.051560134 -0.26147401
0.24100167 -0.055682473 -0.26147401
-0.066329911 -0.045445502 -0.26147401
0.066578351 -0.043217719 -0.26147401
-0.30405137 -0.031900506 -0.26147401
-0.23696499 -0.034280367 -0.26147401
0.0091160834 -0.037106883 -0.26147401
0.28369036 -0.039405696 -0.26147401
0.041376926 -0.015974555 -0.26147401
-0.24635512 0.0095406622 -0.26147401
-0.18630332 0.014127724 -0.26147401
-0.14202425 0.015473456 -0.26147401
-0.024726585 0.01466883 -0.26147401
0.19004562 0.017706752 -0.26147401
0.22349527 0.017345034 -0.26147401
0.2333421 0.019650839 -0.26147401
-0.28111503 0.027114242 -0.26147401
0.23735912 0.027147191 -0.26147401
0.28406844 0.024077624 -0.26147401
-0.076031417 0.057525977 -0.26147401
0.12302537 0.053598925 -0.26147401
0.26252624 0.057553608 -0.26147401
0.043804638 0.064146675 -0.26147401
0.17490022 0.062189378 -0.26147401
-0.023608416 0.076259792 -0.26147401
0.039412919 0.07561931 -0.26147401
0.10370424 0.071025558 -0.26147401
-0.075495638 0.080028906 -0.26147401
-0.32547376 0.093146838 -0.26147401
-0.21339391 0.092234746 -0.26147401
-0.053881232 0.093137376 -0.26147401
-0.033696815 0.093486726 -0.26147401
0.1958632 0.094416603 -0.26147401
-0.28540939 0.10892069 -0.26147401
-0.23037171 0.10034678 -0.26147401
0.075904973 0.10763198 -0.26147401
0.17479521 0.10802761 -0.26147401
-0.22373801 0.11407526 -0.26147401
0.037461832 0.11158547 -0.26147401
0.25219139 0.11901736 -0.26147401
-0.13378502 0.1242013 -0.26147401
-0.075492159 0.12050003 -0.26147401
-0.066498719 0.12709956 -0.26147401
0.046971396 0.12516963 -0.26147401
0.06798178 0.12364581 -0.26147401
0.23287922 0.12506934 -0.26147401
-0.28427255 0.13880055 -0.26147401
0.039346807 0.13540986 -0.26147401
0.12795097 0.149275 -0.26147401
0.25666803 0.14440945 -0.26147401
-0.0075391605 0.15351281 -0.26147401
0.25715774 0.15223071 -0.26147401
-0.26758558 0.16972119 -0.26147401
-0.14272293 0.16520813 -0.26147401
-0.13584024 0.203381 -0.26147401
-0.21253546 0.22037044 -0.26147401
-0.18951887 0.24411787 -0.26147401
-0.22648452 0.25750494 -0.26147401
-0.10022274 -0.262169 -0.25223669
-0.33454499 -0.2583265 -0.25880614
-0.33454499 0.064490668 -0.25430572
-0.33454499 0.11804137 -0.25837326
0.288573 0.12871961 -0.2507084
0.14815095 0.158419 -0.25678408
-0.13859673 0.262169 -0.25150338
-0.14875188 -0.262169 -0.24224257
0.0194101 0.158419 -0.24807093
0.067160226 0.158419 -0.24846119
0.16430315 0.158419 -0.24794166
0.2533755 0.158419 -0.24537675
-0.091579117 0.21562138 -0.24738531
-0.24792142 0.262169 -0.24132343
-0.13088422 0.262169 -0.24442847
-0.11571976 0.262169 -0.24313785
-0.30595669 -0.262169 -0.23817328
0.072580218 -0.262169 -0.23843375
0.14752918 -0.262169 -0.23763743
0.1908399 -0.262169 -0.23801699
0.288573 0.029159635 -0.23381235
-0.33454499 0.045925803 -0.23867552
-0.23430043 -0.262169 -0.22489555
-0.15760082 -0.262169 -0.22230643
-0.092371933 -0.262169 -0.22850949
-0.062648214 -0.262169 -0.22980317
0.082114868 -0.262169 -0.22579476
0.288573 -0.21563791 -0.22629051
-0.33454499 0.082037009 -0.22873524
0.288573 0.13128909 -0.22149731
-0.076344751 0.158419 -0.22272688
-0.082036003 0.20701632 -0.22638601
0.288573 -0.11524902 -0.21093452
-0.33454499 -0.10835115 -0.21363281
-0.071226865 0.16616607 -0.215197
-0.33454499 0.21289395 -0.21909142
-0.33454499 0.22500008 -0.21665739
-0.28305155 0.262169 -0.2196866
-0.17707442 -0.262169 -0.20892093
-0.33454499 -0.25277802 -0.20621368
0.288573 -0.085109368 -0.20186952
0.288573 -0.0038983445 -0.2018088
0.288573 0.1175954 -0.2081722
-0.025219707 0.158419 -0.20309687
0.12388115 0.158419 -0.20752527
0.20828694 0.158419 -0.20300342
-0.081638694 0.17188485 -0.20552942
-0.10875 0.23501155 -0.20129818
-0.33060595 0.262169 -0.20325801
-0.32606858 -0.262169 -0.1909337
-0.037345417 -0.262169 -0.19777218
0.22919001 -0.262169 -0.19329476
0.288573 -0.22509617 -0.19455782
0.288573 0.0022165761 -0.1917152
-0.33454499 0.09666995 -0.19656539
-0.2292484 -0.262169 -0.18909578
0.33454499 -0.044506166 -0.1823135
-0.33454499 -0.037899256 -0.18395418
-0.33454499 0.10557376 -0.18711215
0.288573 0.12105928 -0.18512672
-0.29312098 0.262169 -0.18878916
-0.077213719 -0.262169 -0.17081973
-0.053693987 -0.262169 -0.1767813
0.0055844337 -0.262169 -0.17022453
0.288573 -0.21965899 -0.1716224
-0.33454499 -0.20847109 -0.17178813
0.32600531 0.015729001 -0.17601585
-0.33454499 0.14422929 -0.17274392
-0.25221679 -0.262169 -0.16723959
-0.11329042 -0.262169 -0.16250961
0.288573 -0.25976533 -0.16254729
-0.33454496 -0.24847262 -0.16872385
-0.33454499 -0.16504033 -0.16492613
0.31213745 -0.025363654 -0.16466901
0.227639 0.158419 -0.16709456
0.2629928 0.158419 -0.1668054
-0.10875 0.21817246 -0.16958153
-0.32192272 0.262169 -0.16177279
-0.30217457 0.262169 -0.1625392
-0.19321433 -0.262169 -0.15694661
-0.18446437 -0.262169 -0.15995711
0.0080408677 -0.262169 -0.15297803
0.288573 -0.088067204 -0.15169454
-0.23430139 -0.074760109 -0.15178186
-0.0024236217 -0.078921363 -0.15085815
0.27023631 -0.077814385 -0.15110387
-0.25447038 -0.066698611 -0.15342508
-0.21892747 -0.069401495 -0.15297137
-0.16605887 -0.067758814 -0.153336
-0.0022570863 -0.061545625 -0.15320149
0.048646659 -0.067314409 -0.15343466
-0.26162028 -0.05444859 -0.15289354
-0.093100443 -0.050812796 -0.15273577
0.033124804 -0.054099437 -0.1528784
0.11358555 -0.053273194 -0.15284254
-0.050180025 -0.045120385 -0.15248877
0.22721392 -0.04105074 -0.15231219
0.11107606 -0.038163699 -0.15218692
0.288573 -0.038608156 -0.15430181
-0.33182654 -0.02926741 -0.1518009
-0.30127466 -0.027123831 -0.1517079
0.22239098 -0.02676386 -0.15169227
0.30086881 0.0036491202 -0.15687245
0.288573 0.05961787 -0.1598866
-0.33454499 0.076102942 -0.15391167
-0.17184404 0.262169 -0.15647636
0.288573 -0.21996495 -0.14357968
-0.33454499 -0.19895408 -0.14657237
0.26441243 -0.11572622 -0.14059685
-0.24365193 -0.10555854 -0.14494523
-0.090030089 -0.10515442 -0.14503494
-0.013781287 -0.10515714 -0.14503433
-0.33454499 -0.098739073 -0.14911009
-0.31537753 -0.090658784 -0.14825267
-0.060242571 -0.093422979 -0.14763907
0.14204514 -0.083752222 -0.14978579
-0.023284078 -0.01500752 -0.14852279
0.2407988 -0.019299179 -0.14987464
-0.33454496 -0.0073402878 -0.14836279
-0.15653579 -0.00087735546 -0.14407189
0.10482716 0.0024931352 -0.1430102
0.288573 0.013389883 -0.14739314
0.12081531 0.15841901 -0.14199066
-0.33454499 0.16764151 -0.14147606
-0.072973654 0.17146599 -0.14601675
-0.10875 0.22863796 -0.14295019
-0.10875 0.24259681 -0.14934556
-0.33454502 0.25160447 -0.14950193
-0.29522726 0.262169 -0.14597377
-0.25207564 -0.262169 -0.1384289
0.012697432 -0.262169 -0.13331299
0.22940211 -0.262169 -0.13986415
0.25849584 -0.12435889 -0.13609967
-0.33454499 -0.11858148 -0.13004343
-0.33454496 0.0017047599 -0.13735755
-0.029286981 0.013701053 -0.13947979
-0.20882121 0.022842743 -0.13431177
-0.16900088 0.021642238 -0.13507612
0.022359341 0.02505818 -0.13290122
0.288573 0.15504988 -0.13582803
-0.12990679 0.262169 -0.13613582
-0.2517882 -0.262169 -0.12238559
0.10318764 -0.262169 -0.122007
0.1305951 -0.262169 -0.12993748
0.288573 -0.18954369 -0.12797208
-0.33454499 -0.16581285 -0.1200257
0.288573 -0.15124708 -0.12749624
-0.24777026 -0.14452924 -0.1255919
0.10469182 -0.14327282 -0.12624644
0.27820861 -0.14055413 -0.12766273
-0.26042366 -0.13813874 -0.12892105
-0.20992708 -0.13727251 -0.1293723
0.31155899 0.024153924 -0.12786281
-0.30603516 0.034765493 -0.1267207
-0.27114314 0.030973295 -0.12913515
-0.19924702 0.034010194 -0.12720159
-0.11582568 0.031007119 -0.1291136
0.0033523832 0.030087365 -0.12969922
0.070913292 0.030144747 -0.12966268
-0.33454499 0.091451041 -0.12902576
0.22357483 0.15841898 -0.1267456
0.24336922 0.158419 -0.12446539
-0.09073329 0.19273809 -0.12141965
-0.22599952 0.262169 -0.12500097
-0.25992435 -0.262169 -0.11966959
-0.18149094 -0.262169 -0.11941301
-0.1683819 -0.262169 -0.1170657
-0.078681648 -0.262169 -0.1192981
0.25629094 -0.262169 -0.11481649
-0.18165964 -0.16036166 -0.11182307
-0.29656881 -0.15548542 -0.11629379
-0.091326714 -0.15321538 -0.11837505
-0.04245843 -0.15882486 -0.11323207
0.078069888 -0.15398249 -0.11767173
-0.13360834 -0.076915324 -0.11242333
-0.04927212 -0.049773261 -0.11514274
0.14515522 -0.043196723 -0.11427676
-0.019581957 -0.036200438 -0.1133555
0.10010929 -0.03254506 -0.11287418
-0.17858922 -0.028480902 -0.11233902
-0.061604228 -0.029656276 -0.11249378
-0.29831982 0.053489026 -0.11392944
-0.17527848 0.052801989 -0.114333
0.14350262 0.158419 -0.11924444
0.22186951 0.158419 -0.11832259
-0.21481591 -0.262169 -0.10281046
0.288573 -0.18116467 -0.10759108
-0.097529761 -0.17277862 -0.1004387
-0.11225603 -0.1632179 -0.10920434
0.091605119 -0.16585773 -0.10678405
0.14114922 -0.16384593 -0.10862856
0.17206761 -0.16349888 -0.10894674
-0.096665427 -0.11148693 -0.10043922
-0.10162213 -0.10939026 -0.10130765
-0.22857054 -0.099792048 -0.10528313
0.27500612 -0.092358232 -0.10836214
0.10089916 -0.011703381 -0.10754406
-0.23374589 -0.0051264968 -0.10482001
-0.057935864 -0.0066490374 -0.10545063
0.2343508 -0.00055312365 -0.10292578
-0.24299377 0.0039681336 -0.10105313
0.24758063 0.057528481 -0.10952373
-0.25296009 0.064746246 -0.10165125
-0.091621876 0.064092666 -0.10236411
-0.026320785 0.061560988 -0.10512556
0.019148745 0.063768968 -0.10271737
0.15316883 0.06513229 -0.10123043
0.22200826 0.062182564 -0.10444762
0.288573 0.073716022 -0.10238859
-0.094171405 0.19299524 -0.1005822
-0.33454499 0.24937108 -0.10183485
-0.086170688 -0.262169 -0.094663836
0.22880518 -0.262169 -0.090934806
0.25577107 -0.262169 -0.099275045
-0.33454499 -0.19368178 -0.096011907
-0.18173508 -0.17779776 -0.095795922
-0.12473459 -0.17901325 -0.093886845
-0.073139422 -0.17421301 -0.099123597
0.2320306 -0.17379895 -0.099503234
-0.2118251 -0.12038365 -0.094906367
-0.12353767 -0.12026404 -0.094998151
-0.050632544 -0.12350579 -0.092510618
0.060138091 -0.12623499 -0.090416372
0.14610551 -0.11676592 -0.097682402
0.086042173 0.0090736328 -0.09893851
0.049619496 0.018107036 -0.092021108
0.23816691 0.018357471 -0.091828935
0.22672978 0.069965124 -0.095959365
0.30950534 0.068975128 -0.097039133
0.14021948 0.070432551 -0.095449544
0.24268055 0.072517499 -0.093175545
0.18692589 0.158419 -0.093581378
0.25292063 0.158419 -0.095012918
-0.10875 0.2528328 -0.093242362
-0.33454499 -0.26165962 -0.089991011
-0.21989359 -0.262169 -0.084456295
-0.29476786 -0.18358012 -0.086714014
-0.079970948 -0.18525063 -0.084090248
-0.048655175 -0.18602243 -0.082878023
-0.28609073 -0.13193214 -0.086044714
-0.16256283 -0.13582835 -0.08305499
-0.33454502 0.0077115465 -0.083603218
-0.086873166 0.025175512 -0.0865971
-0.28351787 0.032850042 -0.080708027
-0.095252044 0.030531742 -0.082486972
0.19758679 0.031491246 -0.081750698
-0.30377811 0.077240892 -0.088023394
-0.093894511 0.081524976 -0.082325272
0.21705809 0.080102898 -0.084901825
0.12432798 0.158419 -0.083302453
0.2591604 0.158419 -0.081143178
-0.26981464 -0.262169 -0.074840918
-0.095289849 -0.262169 -0.078734919
0.079683647 -0.19046994 -0.07589265
-0.30455989 -0.14591697 -0.072618693
-0.27158028 -0.14443775 -0.074546404
0.17904292 -0.14220445 -0.077456892
0.18035641 -0.14673388 -0.071554065
0.25977522 -0.14428832 -0.074741155
-0.33454502 0.0057306942 -0.078072108
0.047578484 0.041028906 -0.071121655
-0.33454499 0.055423547 -0.078100987
-0.3282474 0.086724184 -0.072344176
-0.25723299 0.085677832 -0.074352808
-0.22513284 0.084656268 -0.076313846
-0.11733872 0.085086241 -0.07548885
-0.077580944 0.084550641 -0.07651709
0.0021395162 0.084307484 -0.076984033
0.24575289 0.083455577 -0.078619868
0.288573 0.12176628 -0.079382777
0.13945627 0.158419 -0.076015428
-0.33279014 -0.19567086 -0.06772393
-0.098846003 -0.19702271 -0.065600649
0.22386789 -0.19852537 -0.063240565
-0.33454499 -0.18642366 -0.060820498
0.31155899 -0.15551403 -0.069129154
0.288573 -0.011400483 -0.060027905
0.20355913 0.048417162 -0.061493356
-0.23217803 0.089002997 -0.067969672
-0.2025423 0.089665972 -0.066696994
-0.079766221 0.089549586 -0.066920429
-0.28509617 0.09225639 -0.06172432
-0.22002554 -0.262169 -0.053255431
-0.12168203 -0.1588659 -0.055743419
0.16992009 -0.15687682 -0.05833561
0.288573 -0.14878125 -0.052523151
0.288573 -0.072670065 -0.05643522
0.288573 -0.049098425 -0.056655303
-0.19267203 0.055982441 -0.05009792
0.21876594 0.094696537 -0.057041109
0.23322326 0.09502665 -0.05640744
-0.33454499 0.13692057 -0.053311683
0.051800802 0.158419 -0.052944697
0.25408876 0.158419 -0.053559698
-0.31773752 -0.262169 -0.040653363
-0.041934356 -0.262169 -0.041234881
-0.33454499 -0.20287009 -0.042395078
0.288573 -0.20801306 -0.046430323
-0.048586175 -0.16338724 -0.046794936
0.2423912 -0.16551332 -0.041662458
0.288573 -0.036031194 -0.044464484
0.288573 -0.026569413 -0.041511763
0.288573 -0.0016184486 -0.044559047
0.288573 0.039529264 -0.048410896
0.25779733 0.059055541 -0.042678863
-0.33454499 0.069681033 -0.048126791
-0.052258439 0.098566458 -0.049611256
0.14866917 0.158419 -0.040793762
0.2842564 0.15841901 -0.044478714
-0.10875 0.21754086 -0.043949511
-0.3272441 0.262169 -0.040408231
-0.14055946 0.262169 -0.04574126
0.27147919 -0.262169 -0.037914298
0.18366197 -0.20804793 -0.036266759
-0.33454499 -0.17141522 -0.033113174
0.288573 -0.12673563 -0.034797989
0.288573 -0.082013421 -0.03794032
0.288573 -0.062427081 -0.036306057
-0.31311539 0.063670926 -0.031536449
0.050810937 0.062535837 -0.034276765
-0.33454499 0.089597061 -0.035412222
-0.1031521 0.10350612 -0.030853111
-0.058837503 0.10273986 -0.034305204
0.27190208 0.10318471 -0.032301057
0.1582195 0.15841898 -0.037389718
0.16507696 0.158419 -0.03906747
-0.10875 0.22043939 -0.038178641
-0.20595905 -0.262169 -0.022997953
-0.33454499 -0.21934125 -0.028536946
0.288573 -0.20687833 -0.028968848
-0.26241702 -0.17080006 -0.028899973
0.20754679 -0.17178127 -0.026531301
-0.33454502 0.028070897 -0.026335277
-0.053131819 0.065150313 -0.02796492
-0.012841288 0.067278348 -0.021456456
-0.1694219 0.10378392 -0.029601628
-0.015863143 0.10581921 -0.02043247
0.13417509 0.10375874 -0.029715035
0.21326838 0.10566753 -0.021115784
0.26178154 0.10568813 -0.021022996
0.288573 0.13990024 -0.02458287
0.064888917 0.158419 -0.021780552
-0.33454499 0.17613089 -0.023349408
-0.33454499 0.19249755 -0.023152132
-0.11613357 0.262169 -0.025624037
-0.28238085 -0.262169 -0.019394808
-0.2628383 -0.262169 -0.017906353
-0.094197981 -0.21322361 -0.01983563
0.14876157 -0.2133138 -0.01954928
0.20748243 -0.21356918 -0.013823515
-0.036452472 -0.17426471 -0.014244195
0.034740817 -0.17415881 -0.015048856
0.06234885 -0.17452388 -0.012275096
0.288573 0.013789339 -0.010835987
0.288573 0.056984231 -0.012788365
-0.2846303 0.068114504 -0.015104629
-0.11141178 0.067905821 -0.016689871
-0.010994799 0.068421572 -0.012772021
0.27581376 0.068450302 -0.012553738
0.1633029 0.10601655 -0.019543432
0.28902251 0.10553409 -0.019873235
0.023272205 0.158419 -0.013500005
0.11752024 0.158419 -0.014092535
0.20394817 0.158419 -0.01346352
0.28857303 -0.22287117 -0.0074299574
-0.041676983 -0.2137783 -0.0090017933
0.042190835 -0.2138938 -0.0063380608
0.22289042 -0.21385592 -0.0072121471
0.28964928 -0.20785987 -0.0097741708
-0.33454499 -0.16653234 -0.0014092624
0.288573 -0.16548961 -0.0020630378
-0.33454499 -0.13376218 -0.0041523091
-0.33454499 -0.047254391 -0.0067799259
-0.33454499 0.033767864 -0.0068815323
-0.21073703 0.069436431 -0.0050626551
-0.075252786 0.06896764 -0.0086238077
-0.036911875 0.069222845 -0.0066851112
0.25785407 0.069454223 -0.0049275174
-0.029222153 0.10895829 -0.0016679275
0.12237138 0.158419 -0.00060346536
0.061643139 -0.262169 0.0067461431
0.15020317 -0.262169 0.0094828755
-0.33454499 -0.21073002 0.0084141893
-0.095854327 -0.1762566 0.00089033786
-0.027157245 -0.17657225 0.0032886514
0.093358494 -0.17616655 0.00020591864
0.288573 -0.058632534 0.0091164149
0.288573 0.0044092843 0.0034348629
0.052493148 0.070851624 0.0056878263
0.11924618 0.071241699 0.0086510014
0.31053814 0.070226043 0.00093560247
-0.32034424 0.10861719 0.0061975839
-0.31049967 0.10886002 0.00059817312
0.016288236 0.10858273 0.0069922144
-0.072452694 0.158419 0.0054905713
-0.063360482 0.158419 0.0076641813
0.14075032 0.158419 0.0073865782
-0.072075456 -0.262169 0.019431472
-0.33454499 -0.17075501 0.019480471
-0.08597254 -0.1759056 0.019169774
-0.018100996 -0.17673609 0.012859745
-0.33454499 -0.10535485 0.014232114
0.288573 -0.083741479 0.019288979
-0.33454499 0.052910417 0.016255539
0.0091519505 0.070156842 0.016983243
0.21741998 0.070259646 0.016202271
0.18659267 0.1081612 0.016712071
0.25332469 0.10834874 0.012387572
0.30516672 0.10683757 0.01019715
0.078040205 0.158419 0.014233504
0.20303707 0.158419 0.012680978
-0.10875 0.16101411 0.011194006
-0.33067125 0.262169 0.01052475
-0.2479206 0.262169 0.014394432
-0.23380557 0.262169 0.014012421
0.288573 -0.25401884 0.029706098
0.288573 -0.24143347 0.028217256
-0.1331481 -0.21370091 0.029514955
-0.06582389 -0.21515918 0.022840399
0.0023719519 -0.21455139 0.025683636
0.015394658 -0.21510528 0.02159743
0.027065139 -0.21511987 0.021933438
0.15080523 -0.21384865 0.028849391
0.11337028 -0.17568865 0.020818153
0.288573 -0.098583281 0.023363244
-0.31835669 0.069552034 0.021577608
-0.077976912 0.069056444 0.025342412
-0.25271323 0.10767657 0.027887456
-0.25969821 -0.262169 0.033916026
-0.17389482 -0.262169 0.030946895
-0.037057683 -0.262169 0.039275616
0.20034453 -0.262169 0.039967522
0.24028233 -0.262169 0.039798275
0.28610376 -0.262169 0.036180221
0.288573 -0.24276346 0.032838207
0.055671133 -0.21229753 0.035836942
0.288573 -0.21072182 0.038348757
0.049265973 -0.17402652 0.033447117
0.26881665 -0.17444271 0.03028499
-0.09779045 0.067468114 0.037408102
-0.052983843 0.067824155 0.034703456
0.18343696 0.067946091 0.033777181
-0.079886578 0.10640603 0.039706968
0.27420807 0.158419 0.036562927
-0.10875 0.21264067 0.036321368
-0.20352507 -0.262169 0.048374839
0.076700829 -0.262169 0.044721849
-0.33454499 -0.21090221 0.04626618
-0.29098743 -0.21024162 0.045098595
0.20357861 -0.21105847 0.041418783
0.042363018 -0.20936322 0.049055655
0.21590532 -0.17018078 0.047788192
0.288573 -0.081835434 0.045205586
-0.33454499 -0.062420353 0.046234079
0.12408461 0.064007461 0.048117176
0.079753213 0.10562707 0.042179886
0.26699546 0.10377497 0.048059694
0.288573 0.12211232 0.04205016
-0.28408712 0.262169 0.042211562
-0.24717692 0.262169 0.048182525
-0.021123692 -0.20785099 0.055868037
0.094945684 -0.20850985 0.05289996
-0.22680831 -0.16635989 0.057012036
-0.17204134 -0.16658226 0.056475177
-0.068631507 -0.16770102 0.053774446
-0.049732268 -0.16875529 0.051229373
0.288573 0.021282744 0.05077133
0.0025835149 0.06248932 0.051782265
-0.33454502 0.10896575 0.056569584
-0.22411743 0.10233884 0.052618954
0.023748601 0.158419 0.056483716
0.056698311 0.158419 0.054672211
-0.33454499 0.19555202 0.050921828
-0.32730827 0.262169 0.05566512
-0.15379323 0.262169 0.053953521
-0.17935836 -0.262169 0.064308986
-0.16065417 -0.262169 0.066536069
-0.15514837 -0.262169 0.061133295
0.288573 -0.24543902 0.067338847
-0.33454499 -0.2225824 0.065820098
-0.25802788 -0.20448875 0.067223907
0.099228114 -0.20651579 0.061882909
-0.20212793 -0.16469052 0.061041929
0.20432831 -0.16299222 0.065141723
0.288573 -0.16208595 0.06350787
-0.30922896 0.056825977 0.065454662
-0.22469386 0.097296365 0.068627164
-0.036689736 0.097793445 0.067049079
0.2020922 0.099425547 0.061867714
0.21831152 0.097304419 0.068601564
0.20075387 0.158419 0.063676618
-0.11976142 -0.20235658 0.071316928
0.288573 -0.19823846 0.077117607
-0.010280341 -0.15905277 0.072893143
0.055179123 -0.15785052 0.074459992
0.28625453 -0.15397328 0.079513021
0.11364459 0.04793372 0.079516843
-0.14587849 0.050050266 0.076758504
-0.034601808 0.054750323 0.070465699
0.18937285 0.052297987 0.073829204
-0.066519201 0.095848329 0.073224202
0.19486669 0.096440017 0.071345791
0.23070715 0.095421053 0.074580655
0.28857297 0.12331344 0.077236921
0.047215469 0.158419 0.078086786
-0.13115659 -0.262169 0.086587496
0.10906848 -0.19607019 0.083384663
0.17694885 -0.1943863 0.086617127
0.22806038 -0.19495684 0.085521877
-0.17091075 -0.14602442 0.089872435
-0.30656588 0.046985183 0.080752999
0.22124207 0.0410273 0.088517494
0.28997409 0.045822226 0.082268603
0.31155899 0.05438114 0.083961979
0.28546184 0.087326512 0.088741466
0.28576323 0.09230762 0.080917746
-0.22146076 0.262169 0.081447631
-0.16168414 0.262169 0.087913163
0.19875944 -0.262169 0.098660275
-0.14839405 -0.1909143 0.093282193
0.12959085 -0.19154048 0.092080161
-0.31351909 -0.18946522 0.096063934
-0.1725942 -0.18907452 0.096813977
-0.057386011 -0.18780719 0.099246785
-0.038216926 -0.18911321 0.096739657
-0.14739294 -0.13951641 0.09761893
-0.11966391 -0.13837934 0.098491445
0.2952922 -0.13751733 0.099152885
-0.094028845 0.034560673 0.096789353
0.016870454 0.033967864 0.097244233
0.22598183 0.031252049 0.09932816
0.29493526 0.034260429 0.097019739
-0.077738628 0.084402986 0.093333371
-0.030796193 0.085955001 0.090895668
0.099151716 0.085054427 0.092310175
-0.33454499 0.15630451 0.091113612
-0.10875 0.25704414 0.099941432
-0.17387018 -0.262169 0.10081054
-0.16185018 -0.262169 0.10639376
-0.33454499 -0.21397607 0.10890302
-0.12901577 -0.18183416 0.10699116
-0.037059419 -0.18675008 0.10127607
0.15426816 -0.18436147 0.10423458
0.16321251 -0.18052155 0.10842285
0.049936324 -0.13472165 0.10129806
0.30590487 -0.13283606 0.10274491
0.288573 -0.071966171 0.10764258
-0.25562739 0.02712726 0.10249323
-0.22686106 0.020978063 0.10721169
-0.022789851 0.029504992 0.10066873
0.11911735 0.026000939 0.10335749
-0.33217975 0.075737551 0.10694396
-0.10738605 0.074086867 0.10953665
0.288573 0.10813949 0.10166598
0.11523829 0.158419 0.10712174
0.17779873 0.158419 0.10156224
-0.29672238 0.262169 0.10036601
-0.25475928 0.262169 0.10755721
-0.11596236 0.262169 0.10432275
-0.093339831 -0.262169 0.11364537
0.17211424 -0.262169 0.11525138
0.20405596 -0.262169 0.11358632
-0.33454499 -0.21301964 0.11747933
0.0047989339 -0.17419925 0.1153187
0.15468633 -0.17068312 0.11915383
0.18032315 -0.17074436 0.11908702
-0.018349603 -0.10775146 0.11937971
0.11367809 0.0028083583 0.11892682
0.30643865 0.0043446599 0.11829053
-0.20046002 0.014772489 0.11197343
0.20915984 0.013273044 0.113124
-0.24210949 0.066104367 0.11841698
-0.1772505 0.073663451 0.11020171
-0.10713564 0.071702681 0.11328144
-0.33454499 0.14862055 0.1171391
0.12459368 0.158419 0.11795056
0.14323387 0.158419 0.11534445
-0.10875 0.18211013 0.11574978
-0.31252283 0.262169 0.11283047
-0.29373097 0.262169 0.11895879
-0.12302733 0.262169 0.11323059
0.288573 -0.20359831 0.12797925
0.28857303 -0.18382877 0.12378516
-0.06652312 -0.16792889 0.12215787
0.18768471 -0.16953848 0.12040228
-0.23034328 -0.10011788 0.12254137
-0.22246206 -0.10451207 0.1207214
-0.10011436 -0.10444747 0.12074816
-0.096621402 -0.10328932 0.12122783
0.12940906 -0.10518298 0.12044352
-0.33353633 -0.085169926 0.12872942
-0.22217268 -0.080412306 0.12935588
0.13283153 -0.083548576 0.12894291
0.21067236 -0.088540263 0.12733655
-0.20473008 -0.076462254 0.129876
-0.13686466 -0.077648282 0.12971984
-0.27105844 -0.03043743 0.12998965
0.23022911 -0.027205195 0.12956403
-0.33454499 -0.0026098306 0.12534304
-0.24715641 -0.0012552536 0.12060986
-0.011202075 -0.0075726532 0.12322635
0.0274342 -0.0040846551 0.12178172
-0.1100065 0.059597678 0.12438263
0.0038822293 0.06287843 0.12137468
0.083043061 0.062588818 0.12164021
0.090802819 0.062033199 0.12214962
0.2383634 0.062178973 0.12201598
-0.0054683909 0.158419 0.12722485
-0.1854445 -0.262169 0.13835672
0.042815514 -0.262169 0.13250853
0.18837538 -0.262169 0.13616897
0.288573 -0.24274556 0.13938893
0.092893273 -0.16052878 0.13022934
-0.23890409 -0.15117048 0.13751318
0.060475968 -0.15910015 0.13178757
0.21492334 -0.15373203 0.13588232
-0.15211356 -0.14998312 0.13826913
0.11949594 -0.14924887 0.13873661
-0.028527439 -0.070539072 0.13065593
0.28783438 -0.07009308 0.13071465
-0.22757852 -0.057308324 0.13239808
-0.077479862 -0.055348508 0.13265614
-0.06464766 -0.055653103 0.13261603
0.29375085 -0.059317376 0.13213353
-0.17951 -0.048400395 0.13235497
-0.10455509 -0.041719437 0.13147524
0.068590477 -0.045154762 0.13192761
-0.33454502 -0.031345498 0.13697772
-0.25591582 -0.034200285 0.13048513
-0.23968992 -0.03760647 0.13093366
-0.015996372 -0.034562878 0.13053288
0.089078419 0.049096182 0.13401093
-0.28658539 0.052376077 0.13100377
0.0035534091 0.050207146 0.13299234
-0.085189529 0.158419 0.13644171
-0.11883263 -0.262169 0.14311132
0.18328546 -0.14625175 0.14064477
0.288573 -0.14304064 0.14634874
-0.33454499 -0.13259381 0.14349432
-0.19890681 -0.13241138 0.14945644
0.016287312 -0.13675037 0.14669394
0.3058978 0.018027207 0.14660218
-0.33454499 0.02766311 0.1409076
-0.3276374 0.032888945 0.14590494
-0.29885021 0.034745857 0.14493762
-0.26844341 0.030135237 0.14733942
0.030953869 0.035921298 0.14432529
0.054296046 0.035497636 0.144546
-0.065188795 0.158419 0.14690538
-0.052816037 0.158419 0.14235154
0.28791603 0.158419 0.14572795
-0.21757248 0.262169 0.14699082
-0.16522025 0.262169 0.14294405
0.20213622 -0.262169 0.15496174
0.288573 -0.2076259 0.15364212
-0.33454499 -0.17740123 0.15180242
0.073996887 -0.12845454 0.15197565
-0.28738838 -0.11593962 0.15806925
-0.091675609 -0.11791475 0.15744711
0.077626616 -0.11152381 0.15946022
0.29651427 -0.10890177 0.15165713
0.31155899 -0.014787883 0.15346274
-0.31157568 0.0096222619 0.15802521
-0.015868697 0.01577789 0.15481856
0.18518949 0.013105785 0.15621054
0.07092046 0.022352144 0.15139386
-0.33454499 0.17699021 0.15001681
-0.32373437 -0.262169 0.16719663
-0.17990756 -0.262169 0.16086549
-0.058377199 -0.262169 0.16111901
0.288573 -0.2228803 0.16027726
0.288573 -0.1670039 0.16991673
-0.23497695 -0.10434991 0.1617199
0.26994401 -0.10702473 0.16087736
-0.27461427 -0.099752277 0.16316813
-0.13580495 -0.098912783 0.16343257
-0.086524233 -0.09988679 0.16312575
0.043348804 -0.091973491 0.16561839
0.05984956 -0.095248044 0.16458693
0.21814609 -0.092495054 0.16545409
0.05446085 -0.08941149 0.16642539
0.083533689 -0.086585209 0.16731565
-0.3332029 -0.071453743 0.16942456
-0.21176384 -0.079725653 0.16906562
-0.074545115 -0.078738913 0.16910845
0.10015018 -0.076137096 0.16922134
0.24793197 -0.077753842 0.16915119
0.28045732 -0.074338436 0.16929936
-0.12926544 -0.068552762 0.16955042
-0.026130687 -0.064201452 0.16973925
-0.0049017593 -0.068301216 0.16956134
-0.33373627 -0.014724558 0.16550069
-0.15528004 -0.011418284 0.16476676
0.0068528503 -0.012860971 0.165087
0.19040611 -0.01036022 0.16453189
-0.06445948 -0.00062341313 0.16237053
0.073966563 -0.0012729701 0.16251472
0.035970196 0.00045407482 0.16213135
0.1046373 0.00035284026 0.16215383
0.25032747 7.9677906e-05 0.16221446
-0.062023513 0.158419 0.16397732
-0.33454499 0.19983648 0.16199273
-0.33454499 0.25173679 0.16682222
-0.27262595 -0.262169 0.17023857
-0.14192951 -0.262169 0.17778173
-0.2398916 -0.054683115 0.17015226
-0.22757287 -0.054841608 0.17014538
-0.10055615 -0.055363052 0.17012276
0.090000391 -0.053193439 0.1702169
0.20726046 -0.053766154 0.17019205
0.19454239 -0.042285416 0.17069021
0.28510243 -0.047661375 0.17045693
0.288573 0.10015146 0.17255145
-0.081457913 0.158419 0.17812382
0.063129336 0.158419 0.17773502
0.11182319 0.158419 0.17978638
0.24660425 0.15841898 0.17581595
-0.10875 0.24375826 0.17532806
-0.14682798 0.262169 0.17693895
0.1218471 -0.262169 0.18361035
0.13696125 -0.262169 0.18007201
0.16996831 -0.262169 0.18934107
-0.33454499 -0.24786252 0.18745887
0.288573 -0.20626211 0.18421726
-0.33454499 -0.065044597 0.18021375
0.060932383 0.158419 0.18735988
0.288573 0.15306407 0.18059124
-0.10875 0.19176354 0.18206447
-0.10875 0.23395088 0.18554379
-0.316387 0.262169 0.18641342
-0.15800405 0.262169 0.18805224
-0.0059177801 -0.262169 0.19330387
0.20788425 -0.262169 0.19642921
0.28857303 -0.22999221 0.19320993
-0.061203387 0.158419 0.19815624
-0.048344567 0.158419 0.19846489
-0.23208445 0.262169 0.19824164
-0.21982057 -0.262169 0.20268279
0.2408268 -0.262169 0.20965019
-0.33454499 -0.18308574 0.2010726
-0.10875 0.210054 0.20349172
-0.10875 0.25855684 0.20450087
-0.14316463 0.262169 0.20834021
-0.32979929 -0.262169 0.21813387
-0.11690938 -0.262169 0.21899857
0.15338452 -0.262169 0.21550454
0.22444633 -0.262169 0.21960707
0.288573 -0.024371997 0.215271
-0.33454499 -0.012027804 0.21140513
0.288573 0.11625327 0.21230796
-0.33454499 0.13494465 0.21796384
-0.10875 0.20005797 0.21159582
-0.10875 0.23354363 0.21510275
-0.2257185 0.262169 0.2117402
-0.14381318 -0.262169 0.22365239
-0.058727391 -0.262169 0.22662395
0.288573 -0.1779853 0.22901489
-0.33454499 0.044565935 0.22409928
-0.33454499 0.15557234 0.22884108
-0.28833398 0.262169 0.22632506
-0.12071112 0.262169 0.22027394
-0.2675387 -0.262169 0.23226705
-0.21591696 -0.262169 0.23398393
-0.16489121 -0.262169 0.23945287
0.288573 -0.2117185 0.23408148
0.288573 0.064780809 0.23093541
0.288573 0.13472354 0.23786388
0.047341388 0.15841898 0.23921701
-0.33454499 0.25759998 0.23298341
-0.14661862 0.262169 0.23528074
-0.22467098 -0.262169 0.2455221
-0.20219681 -0.262169 0.24795337
-0.093694963 -0.262169 0.24760675
-0.01281029 -0.262169 0.2446695
0.0040406333 -0.262169 0.24803586
0.12757336 -0.262169 0.24342352
0.15904701 -0.262169 0.24929133
0.26899707 -0.262169 0.24223149
0.288573 -0.12996644 0.24652568
-0.33454499 -0.11885174 0.2460271
-0.33454499 -0.10352509 0.241349
0.288573 -0.089173585 0.24897721
-0.33454499 -0.036144286 0.24662949
0.28857297 0.07622999 0.24220547
-0.10875 0.19150603 0.24779792
-0.33454496 -0.261886 0.25113341
-0.11735176 -0.262169 0.25763738
-0.0012002736 -0.262169 0.25917307
0.19840799 -0.262169 0.25076255
0.288573 -0.23628201 0.25944561
0.288573 -0.067451268 0.25139529
-0.33454499 0.038561642 0.25674313
0.288573 0.031435046 0.25142241
0.288573 0.13845822 0.25234285
0.288573 0.14208779 0.25510806
-0.066958643 0.158419 0.251917
0.063852265 0.158419 0.25760403
0.11255318 0.15841898 0.25048167
-0.10875 0.25110003 0.25449961
-0.18258931 0.262169 0.25098851
-0.082610704 -0.26019812 0.26333797
-0.068926454 -0.262169 0.26191866
0.23309772 -0.26086831 0.263338
-0.27815762 -0.23702641 0.26333797
0.23863521 -0.2333616 0.263338
-0.00047433376 -0.22707038 0.263338
0.12033877 -0.22418952 0.263338
-0.047224119 -0.21465082 0.263338
-0.25563765 -0.20563236 0.263338
-0.0023687333 -0.20422301 0.263338
0.13872819 -0.20817344 0.263338
0.14269465 -0.20260596 0.263338
0.071612492 -0.19940919 0.263338
-0.29483071 -0.1704763 0.263338
0.013145849 -0.16126776 0.263338
0.26311249 -0.16835421 0.263338
-0.26148111 -0.15133773 0.263338
-0.035579748 -0.15901336 0.263338
0.090791814 -0.15191185 0.263338
0.20386171 -0.14275227 0.263338
0.14217186 -0.13927703 0.263338
0.23409979 -0.13036047 0.263338
-0.17082317 -0.12922284 0.263338
0.159731 -0.12471595 0.263338
-0.33201772 -0.11928299 0.263338
0.026076719 -0.1177417 0.263338
0.20848241 -0.11100195 0.263338
-0.15780033 -0.10817978 0.263338
0.13324836 -0.10379588 0.263338
0.23545204 -0.10080771 0.263338
0.28752244 -0.1007567 0.263338
0.095641457 -0.092279509 0.263338
-0.31860763 -0.08676713 0.263338
-0.2001932 -0.076321244 0.263338
-0.057547245 -0.071771115 0.263338
-0.15516539 -0.067009524 0.263338
-0.028382979 -0.062648028 0.263338
-0.27999502 -0.058257148 0.26333797
-0.12149961 -0.041243754 0.263338
-0.11750372 -0.043549784 0.263338
-0.27152067 -0.030923899 0.263338
-0.16764326 -0.035008404 0.263338
-0.15389708 -0.037342928 0.263338
0.067345463 -0.036649879 0.263338
-0.13415651 -0.029877868 0.263338
0.021483183 -0.0238133 0.263338
-0.29128224 -0.014274076 0.263338
0.067924038 0.0074762031 0.263338
-0.00068797171 0.016396578 0.263338
-0.24983954 0.032272272 0.263338
0.11667588 0.035443235 0.263338
0.18399802 0.037750944 0.263338
-0.32050163 0.044687003 0.263338
-0.17664368 0.04882662 0.263338
-0.11341469 0.045031667 0.263338
-0.18133011 0.059594542 0.263338
-0.33454499 0.062897816 0.26330036
0.18236303 0.060965151 0.263338
0.25825644 0.069736421 0.263338
-0.22314265 0.073575839 0.263338
0.0040997434 0.075288288 0.263338
0.15823238 0.081388436 0.263338
0.21133982 0.086119294 0.263338
-0.25431332 0.099548772 0.263338
0.026340164 0.094525352 0.263338
0.22101805 0.09213946 0.263338
0.28051895 0.097316369 0.263338
-0.32815605 0.10375254 0.263338
-0.031154145 0.10998823 0.263338
0.080580443 0.10435531 0.263338
-0.11238163 0.11126213 0.263338
-0.27294376 0.12463813 0.263338
-0.017324254 0.120148 0.263338
0.13964769 0.13321981 0.263338
0.18986402 0.13010627 0.263338
-0.21184747 0.15752199 0.263338
-0.18547687 0.15614344 0.263338
0.21321248 0.158419 0.26299354
-0.17181203 0.17744093 0.263338
-0.22420965 0.18401383 0.263338
-0.13564955 0.18789524 0.263338
-0.28126243 0.1926938 0.263338
-0.24793918 0.19149452 0.263338
-0.21417058 0.2083354 0.263338
-0.17891052 0.20030737 0.263338
-0.10978252 0.20279689 0.263338
-0.3038305 0.23135659 0.263338
-0.18900654 0.23441273 0.263338
