# .PCD v0.7 - Point Cloud Data file format
VERSION 0.7
FIELDS x y z
SIZE 4 4 4
TYPE F F F
COUNT 1 1 1
WIDTH 984
HEIGHT 1
VIEWPOINT 0 0 0 1 0 0 0
POINTS 984
DATA ascii
0.074748166 -0.341322 -0.24259675
-0.15859689 -0.33010787 -0.247143
0.099475242 -0.33845884 -0.247143
0.2169541 -0.33873618 -0.247143
-0.063781597 -0.32597989 -0.247143
0.18222991 -0.32089379 -0.247143
0.26910898 -0.32843876 -0.24379888
0.091294073 -0.31666601 -0.247143
-0.11023459 -0.30894849 -0.247143
-0.16392459 -0.29038402 -0.247143
-0.11028167 -0.2934925 -0.247143
-0.0079505667 -0.29191574 -0.247143
0.035822712 -0.29545254 -0.247143
0.19060016 -0.29746479 -0.24714302
0.23224513 -0.29406339 -0.247143
-0.083742768 -0.28647292 -0.247143
-0.15449765 -0.27707908 -0.247143
-0.12131897 -0.2701723 -0.247143
0.017205536 -0.27683431 -0.247143
-0.083953284 -0.26601285 -0.247143
0.13694549 -0.26173434 -0.247143
0.23827764 -0.25559738 -0.247143
0.0027453899 -0.24978966 -0.247143
0.10103532 -0.24747026 -0.247143
0.24824032 -0.23487616 -0.24714302
0.17544097 -0.22567005 -0.247143
0.26314259 -0.22734055 -0.247143
0.17805821 -0.21341547 -0.247143
0.042743593 -0.20277932 -0.247143
0.088734001 -0.19923072 -0.247143
0.26910901 -0.19330227 -0.24107757
-0.043155693 -0.1893604 -0.247143
0.17981152 -0.18289462 -0.247143
0.2120138 -0.18543714 -0.24714299
-0.15323968 -0.16639027 -0.247143
0.14839888 -0.16656581 -0.247143
0.25262868 -0.16996388 -0.247143
-0.0074281245 -0.15217495 -0.247143
-0.12430464 -0.14602178 -0.247143
-0.01884222 -0.14914665 -0.247143
0.0061475635 -0.14223301 -0.247143
-0.24737744 -0.13405158 -0.247143
0.032180347 -0.12969849 -0.247143
-0.12912729 -0.11580995 -0.247143
0.21871451 -0.111184 -0.247143
-0.087297007 -0.10707866 -0.247143
-0.015168682 -0.10685094 -0.247143
-0.10110177 -0.097689658 -0.247143
0.23204322 -0.081535719 -0.247143
-0.1245414 -0.071847439 -0.247143
-0.072229117 -0.072927468 -0.247143
0.028529257 -0.079353467 -0.247143
0.1793552 -0.077719338 -0.247143
-0.094886132 -0.060413189 -0.247143
-0.15801087 -0.043119594 -0.247143
-0.14179994 -0.043792207 -0.247143
-0.073898658 -0.048662968 -0.247143
0.054416932 -0.048857406 -0.247143
0.06712833 -0.04740883 -0.247143
0.08111167 -0.042191923 -0.247143
-0.24445876 -0.036825553 -0.247143
-0.21709737 -0.032055791 -0.247143
-0.18589848 -0.021437831 -0.247143
0.020392314 -0.025981113 -0.247143
0.12509224 -0.028534532 -0.247143
0.19589061 -0.021602618 -0.247143
-0.24778673 -0.014299831 -0.247143
0.12382314 -0.014299378 -0.247143
0.034851924 -0.0047087669 -0.247143
-0.09274663 0.0066761151 -0.247143
0.23512864 0.014656069 -0.247143
0.26284254 0.010660082 -0.247143
-0.22955616 0.029468762 -0.247143
-0.14003608 0.025936248 -0.247143
-0.098065071 0.020944793 -0.247143
-0.085081995 0.036165226 -0.247143
-0.07896138 0.039591745 -0.247143
0.12672402 0.032347009 -0.247143
0.25797254 0.037518576 -0.247143
0.044183273 0.045283623 -0.247143
-0.24344891 0.054613799 -0.247143
0.18451577 0.051655829 -0.247143
0.14605257 0.066067778 -0.247143
-0.030097865 0.080772936 -0.247143
0.031693403 0.086702406 -0.247143
-0.23193768 0.094715774 -0.247143
-0.077334873 0.091674529 -0.247143
0.015259132 0.092739969 -0.247143
0.13710602 0.091536939 -0.247143
-0.13929906 0.10231237 -0.247143
-0.12404895 0.10518853 -0.247143
-0.081682153 0.10089917 -0.247143
0.0053822137 0.10835578 -0.247143
-0.24383318 0.11755282 -0.24156514
0.033505261 0.12232374 -0.247143
0.11939942 0.12995695 -0.247143
0.24926925 0.12671071 -0.247143
0.26910901 0.12845591 -0.24526677
0.23246549 0.14968883 -0.247143
0.10900972 0.15881895 -0.247143
0.26910901 0.15099119 -0.24072516
-0.10843268 0.17326824 -0.247143
-0.094271556 0.17790592 -0.247143
0.23107797 0.17887548 -0.247143
-0.11762794 0.18005317 -0.247143
-0.19359492 0.19010082 -0.247143
-0.23204704 0.20221031 -0.247143
-0.1696918 0.20803666 -0.247143
-0.00033630431 0.20235637 -0.247143
0.23141934 0.20487083 -0.247143
-0.077798828 0.21684873 -0.247143
0.12189122 0.2272585 -0.247143
-0.16579081 0.23896454 -0.247143
-0.015928157 0.24369119 -0.247143
0.21807304 0.245876 -0.24485676
0.26334691 0.2456792 -0.247143
-0.21457291 0.2836538 -0.247143
-0.22037345 0.31967068 -0.247143
0.013503373 -0.341322 -0.23296824
0.028980728 -0.341322 -0.23284742
-0.23866852 -0.33201444 -0.23835599
0.20186137 -0.33100092 -0.23835599
-0.17274211 -0.3177619 -0.23835599
0.054196164 -0.31335777 -0.23835599
0.077108428 -0.3187384 -0.23835599
0.19240028 -0.31926274 -0.23835599
-0.25630769 -0.3093015 -0.23835599
-0.015454851 -0.30615699 -0.23835599
0.081559308 -0.29873389 -0.23835599
0.10040278 -0.29937512 -0.23835599
-0.12790154 -0.28699362 -0.23835599
-0.0022294298 -0.2845149 -0.23835599
-0.1186787 -0.27935436 -0.23835599
-0.14203349 -0.26194775 -0.23835599
-0.0089336336 -0.26600814 -0.23835599
-0.024565265 -0.25876397 -0.23835599
0.26016217 -0.25970715 -0.23835599
-0.18834326 -0.24833058 -0.23835599
-0.11572041 -0.24041776 -0.23835599
-0.07673879 -0.24305135 -0.23835599
0.13908824 -0.24516991 -0.23835599
-0.13550639 -0.23168716 -0.23835599
-0.10786638 -0.22393909 -0.23835599
-0.019071952 -0.22395059 -0.23835599
0.18667637 -0.22737131 -0.23835599
-0.21055767 -0.21462426 -0.23835599
-0.19243355 -0.21505712 -0.23835598
0.20913681 -0.21968484 -0.23835599
-0.20360444 -0.20356806 -0.23835599
0.1215218 -0.20309117 -0.23835599
0.21428311 -0.20713727 -0.23835599
-0.12469023 -0.19715336 -0.23835599
-0.011533938 -0.1920974 -0.23835598
-0.21667254 -0.18096569 -0.23835599
-0.19427934 -0.18640205 -0.23835599
-0.14346431 -0.18928078 -0.23835599
-0.085066289 -0.18880367 -0.23835599
0.26910901 -0.18259716 -0.23579882
-0.18195263 -0.17026636 -0.23835599
0.053090274 -0.17292809 -0.23835599
-0.070311897 -0.16333054 -0.23835599
0.057156183 -0.16981573 -0.23835599
0.070246227 -0.16432123 -0.23835599
0.037585616 -0.15494272 -0.23835599
0.082944058 -0.14981934 -0.23835599
0.14276974 -0.14688301 -0.23835599
-0.15790784 -0.13079649 -0.23835599
-0.079999104 -0.13534875 -0.23835598
-0.20779023 -0.12844509 -0.23835599
0.12324949 -0.11364484 -0.23835599
0.19567809 -0.11802766 -0.23835599
-0.17771393 -0.10967167 -0.23835599
-0.07606262 -0.10729449 -0.23835599
-0.22774985 -0.096131891 -0.23835599
-0.18881434 -0.084500983 -0.23835599
0.1225744 -0.08224766 -0.23835599
0.035204016 -0.078821816 -0.23835599
0.14563522 -0.075301282 -0.23835599
-0.051214814 -0.061771095 -0.23835599
0.03042328 -0.033961993 -0.23835599
0.25730675 -0.03469789 -0.23835599
-0.04925698 -0.027549848 -0.23835599
0.21026585 -0.023318842 -0.23835599
-0.24313183 -0.017659664 -0.23835599
-0.1803616 -0.010415167 -0.23835599
0.081723154 -0.018696617 -0.23835599
-0.082741059 -0.0089830309 -0.23835599
-0.18481189 0.0050142854 -0.23835599
0.11070395 0.0091894343 -0.23835599
0.19766282 0.0055174455 -0.23835599
-0.2259863 0.02164387 -0.23835599
-0.0036437884 0.023342803 -0.23835599
0.15330604 0.029339671 -0.23835599
-0.23991764 0.037344731 -0.23835599
-0.21211322 0.03289777 -0.23835599
-0.050632022 0.034186538 -0.23835599
0.26166418 0.03196007 -0.23835599
-0.23821014 0.048124552 -0.23835599
-0.21794172 0.045884706 -0.23835599
0.085684828 0.040823877 -0.23835599
0.23283604 0.057199173 -0.23835599
0.027162682 0.066514462 -0.23835599
0.14811152 0.1034673 -0.23835599
-0.22703871 0.11955714 -0.23835599
0.2352701 0.11405365 -0.23835599
-0.074748106 0.1235846 -0.23835599
0.021262389 0.12034436 -0.23835599
-0.2314806 0.13757515 -0.23835599
-0.074004702 0.14724857 -0.23835599
-0.012118459 0.14558333 -0.23835599
0.089316547 0.14826317 -0.23835599
0.15662628 0.14834903 -0.23835599
0.035047472 0.16560578 -0.23835599
0.061323695 0.16408527 -0.23835599
-0.24025661 0.18094605 -0.23017994
-0.08367867 0.18849008 -0.23835599
-0.22402269 0.1947847 -0.23835599
-0.02459982 0.19111037 -0.23835599
0.099494666 0.19111381 -0.23835599
-0.22330487 0.20037428 -0.23835599
-0.085926481 0.20395613 -0.23835599
-0.041777231 0.20718206 -0.23835599
0.22284605 0.20771152 -0.23835599
-0.18098134 0.21141221 -0.23835599
0.057307228 0.21941489 -0.23835599
-0.18780296 0.22532204 -0.23835599
-0.034467719 0.22511902 -0.23835599
0.03750746 0.22852269 -0.23835599
0.11725168 0.2226122 -0.23835599
-0.017069817 0.23872381 -0.23835599
-0.036843169 0.24531502 -0.23838228
-0.00602258 0.24559548 -0.23592755
0.18220554 0.245315 -0.23834744
-0.20397577 0.2590993 -0.23835599
-0.19903523 0.26744068 -0.23835599
-0.22223304 0.31357348 -0.23835599
-0.22518685 -0.341322 -0.22991034
-0.12955847 -0.341322 -0.22824919
-0.051417332 -0.341322 -0.22991815
-0.26488161 -0.26376966 -0.22519061
0.26910901 -0.2646659 -0.22150359
0.26910901 0.086273059 -0.22613543
0.26910901 0.1429764 -0.22273728
-0.0017716885 0.24587598 -0.22749889
0.086648166 0.245876 -0.22751625
-0.2342817 0.28684822 -0.22706117
-0.26132262 -0.19847909 -0.21701369
0.26910901 0.081164703 -0.210739
0.26910901 0.23117627 -0.21598369
-0.05142536 0.245876 -0.21268865
0.26910901 -0.11890442 -0.20298132
-0.25415695 -0.067023754 -0.20328057
-0.17732885 0.28743508 -0.2042926
-0.23884267 -0.341322 -0.19118954
-0.19796462 -0.341322 -0.19119644
0.26910901 -0.12730174 -0.19434077
-0.25314885 -0.048530519 -0.19581592
-0.2377789 0.22486199 -0.19373299
0.13991752 0.24587601 -0.19729021
-0.220929 0.33714527 -0.19573194
-0.19883169 0.3379932 -0.19860211
0.020731878 -0.341322 -0.18423522
-0.2639879 -0.24737458 -0.18240817
0.26910901 -0.15202148 -0.18157569
-0.2504037 0.001093813 -0.18006736
0.26910901 0.18009342 -0.18502298
-0.15804534 0.24794258 -0.18131247
-0.096166663 0.245876 -0.18091357
0.23579076 0.24587598 -0.18336113
0.25831181 0.245876 -0.18507625
-0.22582664 -0.341322 -0.17469278
0.17895287 -0.341322 -0.17644754
0.26910901 -0.21416546 -0.17379732
-0.25700963 -0.11935668 -0.1797215
-0.24255711 0.14017102 -0.17970607
0.26910901 0.15246738 -0.17025718
0.0003920272 -0.341322 -0.16178668
-0.034977876 -0.3272348 -0.16053307
-0.0095156636 -0.27428475 -0.16467477
-0.26520649 -0.26972973 -0.16847762
0.00060235709 -0.26946318 -0.1637487
0.027908323 -0.24149463 -0.1612494
0.26910901 -0.24573754 -0.16225256
0.26910901 -0.23947415 -0.16191083
0.0030905404 -0.18971133 -0.16352095
-0.2589255 -0.1545039 -0.16500136
0.027069636 -0.15883979 -0.16132617
-0.034412671 -0.14915055 -0.16063038
0.028515341 -0.098498814 -0.16119385
-0.017097328 -0.083594725 -0.16361195
0.030810127 -0.084626146 -0.1609838
-0.022247745 -0.011688352 -0.16272508
0.00081460923 -0.016848918 -0.16372925
0.01394014 -0.015814006 -0.16252789
0.022412125 -0.014792547 -0.16175246
0.26910901 -0.014824942 -0.16559835
0.010185034 0.019198392 -0.16287158
0.26910901 0.041433074 -0.16603757
-0.023977447 0.058222748 -0.16242725
-0.01046039 0.082132883 -0.16475476
-0.021368586 0.11729626 -0.16287646
0.030644299 0.1427149 -0.16099897
0.0026452146 0.17934036 -0.1635617
0.024005137 0.18909784 -0.16160667
-0.23591907 0.25782669 -0.16374423
0.21386576 -0.341322 -0.15238896
-0.062438414 -0.32705045 -0.15286608
-0.060649641 -0.1766353 -0.15369147
-0.25553638 -0.092329651 -0.15033224
-0.061707381 -0.056351975 -0.1532034
0.26910901 -0.039438412 -0.15281875
-0.066332608 -0.028268486 -0.15106919
0.052906137 -0.013624611 -0.15312716
-0.24835709 0.037369013 -0.15765086
0.054933075 0.030387357 -0.15238011
0.26910901 0.044633247 -0.15885518
-0.053519402 0.059259471 -0.15698156
-0.051075205 0.07471326 -0.15776125
0.052858382 0.10849404 -0.15314475
-0.064908966 0.13959536 -0.15172608
0.26910901 0.14411137 -0.15835384
0.040907405 0.17768981 -0.15754934
0.057996068 0.18650638 -0.15125124
0.049060792 0.20776805 -0.15454437
0.040773887 0.22713676 -0.15759856
0.14883474 -0.341322 -0.14933541
0.16380271 -0.341322 -0.14890935
0.18518089 -0.341322 -0.14718574
-0.013588289 -0.333334 -0.14096044
0.075916931 -0.33194619 -0.14321765
-0.072917163 -0.29841769 -0.14803089
-0.084034525 -0.15739655 -0.14290103
-0.076137401 -0.11788159 -0.14654498
0.070936054 -0.0057058036 -0.14648214
0.26910901 0.0026147515 -0.14904316
-0.080684036 0.066997811 -0.14444703
-0.071517169 0.097984031 -0.14867689
-0.087889291 0.10969189 -0.14112233
0.26910901 0.14772177 -0.14060618
-0.23829916 0.21564119 -0.14894572
-0.033682346 0.228065 -0.14968979
0.26910901 0.22893505 -0.14381233
-0.15476917 0.24930121 -0.14981255
-0.12986024 0.245876 -0.1422109
0.048276823 0.24587601 -0.14041583
0.10997777 0.24587601 -0.14897472
-0.2354518 0.26610881 -0.14664847
-0.20943409 -0.341322 -0.13319148
0.013283208 -0.341322 -0.13120604
0.23938358 -0.341322 -0.13334796
-0.007722158 -0.333334 -0.1335915
-0.10207839 -0.29004344 -0.13040383
0.094499126 -0.23583822 -0.13009503
0.093899958 -0.22818209 -0.13051815
-0.26026922 -0.17915447 -0.13185419
0.0859778 -0.12884364 -0.13611273
0.089684673 -0.10257986 -0.13349497
-0.25160125 -0.020139126 -0.13623813
0.093184747 0.015026659 -0.13102323
0.085880175 0.049703829 -0.13618167
0.091278665 0.04432033 -0.13236929
0.089844175 0.13105504 -0.13338232
0.093551859 0.19801998 -0.13076398
-0.05263751 0.228065 -0.13722166
0.26910901 0.23089387 -0.13321909
0.068102628 0.245876 -0.13796993
0.19785249 0.24587598 -0.13229626
-0.23581834 0.2596122 -0.13847752
0.10516708 -0.31580088 -0.12256138
0.26910901 -0.19286565 -0.12772547
0.099828601 -0.13840821 -0.12633139
-0.10455024 -0.065977626 -0.12834655
0.10496926 -0.059228338 -0.12270108
0.26910901 0.039109305 -0.12946212
0.26910901 0.069205321 -0.12125645
-0.11315285 0.22122815 -0.12118669
0.018350575 0.228065 -0.12795144
0.090307318 0.228065 -0.12730756
0.077866726 0.24587601 -0.12846735
-0.16214025 0.25487351 -0.12994252
-0.21789736 0.3373996 -0.12029883
-0.17182237 -0.341322 -0.11116169
0.010373745 -0.341322 -0.11900803
-0.1185312 -0.33093706 -0.11671035
-0.023858769 -0.333334 -0.11072908
-0.12136202 -0.31570876 -0.11066138
0.11006166 -0.31545416 -0.11727484
0.26910901 -0.24558347 -0.11849183
0.11377704 -0.2163879 -0.11281079
0.11601811 -0.19869068 -0.11011814
0.1115711 -0.15419884 -0.11546125
-0.12086956 -0.13778347 -0.11020647
-0.1228188 -0.094183639 -0.11200707
0.11559651 0.077480629 -0.11062469
0.26910901 0.15178263 -0.11867614
0.1150977 0.18912387 -0.11122402
-0.15980652 0.24987075 -0.11722363
-0.20232584 0.33870587 -0.11404345
-0.21661571 -0.341322 -0.10538984
0.061565548 -0.333334 -0.10322318
-0.26712894 -0.30499753 -0.10984933
-0.12778614 -0.30449706 -0.1064852
-0.11646052 -0.21417393 -0.10613363
0.26910901 -0.19702491 -0.10806584
-0.12660931 -0.17232156 -0.10815161
-0.25971988 -0.16907692 -0.10968503
0.11963929 -0.075662345 -0.10576726
-0.11649808 -0.028487504 -0.10616833
-0.11686043 0.10044455 -0.10650304
-0.12652412 0.18300682 -0.10827226
0.12311014 0.19500214 -0.10159702
-0.1124662 0.228065 -0.10252877
-0.094803043 0.228065 -0.10304746
-0.072235882 0.228065 -0.10995837
0.18835698 0.24587601 -0.10338948
0.26910901 -0.33628607 -0.094603285
-0.26501256 -0.26617193 -0.099479474
0.26910901 -0.21011925 -0.092037901
-0.26059774 -0.18518166 -0.090523012
-0.10517602 -0.14257431 -0.0957096
-0.10327768 -0.13738519 -0.093956009
0.26910901 -0.11175954 -0.091527104
-0.25589937 -0.098989137 -0.092503309
-0.1365976 -0.0251444 -0.094008058
-0.24997072 0.0087681357 -0.096903801
-0.10417005 0.0040675253 -0.094780341
-0.10168688 0.10597469 -0.092486523
-0.24087605 0.16996637 -0.097484015
-0.23940025 0.19612426 -0.096192844
-0.10106419 0.22341919 -0.091911316
-0.17047535 0.27274159 -0.097286031
-0.18812917 -0.341322 -0.08668682
0.20660117 -0.341322 -0.080558643
0.13695009 -0.30497429 -0.081663586
-0.26066494 -0.18641451 -0.087385684
-0.14574659 -0.17826375 -0.081052989
0.13649611 -0.13390052 -0.082647443
-0.093660086 -0.12901707 -0.085071787
-0.25061703 -0.002687668 -0.084403463
0.13602613 0.0064127892 -0.083665997
0.13440335 0.10735228 -0.087182835
0.13749595 0.19209048 -0.080480613
-0.091348663 0.22006023 -0.082936622
-0.087733299 -0.341322 -0.076337822
-0.11853652 -0.333334 -0.070339449
-0.079692736 -0.32360065 -0.07216949
0.26910901 -0.28128558 -0.078069463
0.14107943 -0.21026748 -0.072714537
0.14059508 -0.20697191 -0.073764235
-0.15001413 -0.18320784 -0.07234101
-0.084512033 -0.15991214 -0.076621301
0.26910901 -0.060498029 -0.072771549
-0.15030792 -0.059528612 -0.071543783
0.14060156 -0.0074409922 -0.073750123
0.13896853 0.030114248 -0.077289239
0.13992169 0.11490069 -0.075223573
-0.080560945 0.15356757 -0.0729715
0.26910901 0.15729767 -0.072730057
-0.23695907 0.23939331 -0.077170916
-0.23686188 0.24111579 -0.074435748
-0.092232496 0.24587601 -0.078261979
0.016991701 0.24587601 -0.075621575
-0.12184108 -0.341322 -0.066408947
-0.095612586 -0.341322 -0.067950428
-0.067742661 -0.341322 -0.062590428
-0.14833879 -0.333334 -0.065496415
-0.26519471 -0.26951343 -0.06017565
-0.26221308 -0.21481498 -0.067356527
-0.076810226 -0.19410577 -0.069506779
0.26910901 -0.18425283 -0.065829702
0.1452243 -0.035026304 -0.063731797
-0.15181269 -0.0091241449 -0.067460634
-0.24274713 0.13680267 -0.069626004
0.14493279 0.17991054 -0.064363576
-0.10303892 0.22769198 -0.06595102
-0.047951043 0.22806501 -0.068181813
0.10859052 0.22806498 -0.069529295
-0.25185916 -0.341322 -0.051549532
-0.21389282 -0.341322 -0.052275158
0.16877034 -0.341322 -0.056140471
0.26910901 -0.31484529 -0.054445162
-0.26674214 -0.29790142 -0.059709799
0.1478394 -0.28711841 -0.058064412
0.26910901 -0.23685928 -0.05219629
0.26910901 -0.19607678 -0.056165427
-0.25570238 -0.095375307 -0.051837865
0.26910901 -0.043878481 -0.057911262
-0.24543901 0.089090675 -0.057807475
-0.056042545 0.12283802 -0.050322697
-0.2420963 0.14833796 -0.059873547
-0.05890277 0.16050708 -0.052964829
-0.039083347 0.22806498 -0.05529771
-0.23667318 0.24446064 -0.058539137
-0.11971709 0.24587601 -0.055200323
-0.17331687 0.27883291 -0.05712989
0.26910901 -0.30855259 -0.049138412
-0.049467765 -0.18866998 -0.044249263
-0.16075173 -0.1381126 -0.04320468
-0.055311348 -0.11616427 -0.04964726
-0.15995 -0.059102632 -0.045380175
-0.25052732 -0.0010974156 -0.048347078
0.26910901 0.037252456 -0.045136176
-0.15960628 0.12310898 -0.046312828
-0.055284463 0.15159686 -0.04962242
-0.15838462 0.22470991 -0.044641826
0.10681213 0.22806498 -0.042318076
-0.1160569 0.24587601 -0.047240749
-0.23291481 0.31107596 -0.043621346
-0.22862187 0.33649993 -0.044058166
-0.035187818 -0.341322 -0.033531412
-0.15224068 -0.333334 -0.036515459
0.1044341 -0.333334 -0.030809134
0.15424114 -0.30316532 -0.033543468
-0.040207081 -0.28985536 -0.035694733
-0.26281285 -0.22581777 -0.034535654
0.26910901 -0.21358889 -0.036454804
-0.16274852 -0.15109986 -0.036887214
0.26910901 -0.093397208 -0.032441664
-0.16287088 -0.089435823 -0.035550281
-0.041493587 -0.08075612 -0.036883142
0.26910901 -0.035347514 -0.03179618
-0.2520006 -0.027465655 -0.039702877
0.15477042 0.076843612 -0.030469313
-0.16308464 0.18272769 -0.03321477
-0.023191674 0.22806498 -0.039930746
0.11093046 0.22806498 -0.03756192
0.13314342 0.24587598 -0.035546646
0.21568315 0.245876 -0.036415853
-0.18936685 0.31323919 -0.031959079
-0.14247482 -0.341322 -0.02079431
-0.12327985 -0.333334 -0.029766416
-0.2677854 -0.31704003 -0.027287692
-0.2622261 -0.21505384 -0.020115092
-0.16412374 -0.19310033 -0.021861665
0.26910901 0.096455954 -0.027941272
-0.16357395 0.11823224 -0.02786855
0.26910901 0.11748306 -0.027048238
0.15529926 0.12379265 -0.027397567
0.26910901 0.21311036 -0.022040293
0.26705548 0.23789015 -0.02945812
0.037477605 0.245876 -0.02873411
-0.19935364 -0.341322 -0.011546031
-0.17421395 -0.341322 -0.013413437
-0.062626123 -0.341322 -0.012679398
0.15714903 -0.30994189 -0.01665362
0.26910901 -0.30066228 -0.013613157
0.26910901 -0.19751871 -0.016614061
-0.256533 -0.11061279 -0.014826562
-0.021451499 -0.065490492 -0.01836931
0.26910901 0.15065181 -0.01208188
-0.022927422 0.21255934 -0.019732695
0.26910901 0.21968243 -0.011163694
-0.020042188 0.22546878 -0.017067466
-0.080898494 0.24587598 -0.014377274
0.0052426718 0.245876 -0.019168232
0.14620674 0.245876 -0.010671448
0.25054938 0.245315 -0.018091176
-0.18436393 0.30251452 -0.019448843
-0.26432151 -0.341322 -0.0061919689
-0.25987533 -0.341322 -0.0090347826
0.11665416 -0.341322 -0.0070680045
0.15788075 -0.341322 -0.0096791312
-0.16574408 -0.28487724 -0.0041584182
-0.25667471 -0.11321297 -0.001043668
0.15808377 -0.071240589 -0.0039078072
-0.24610706 0.077249788 -0.0049581863
-0.0093878284 0.093448959 -0.0072255395
0.26910901 0.15790601 -0.005650185
-0.16541022 0.1880146 -0.0078063169
-0.23491174 0.27568099 -0.0061650276
0.16751018 -0.341322 0.0019302592
-0.057012524 -0.333334 0.0080550425
0.11637122 -0.333334 0.00088684447
0.0052606016 -0.28636789 0.0063059106
0.0045829192 -0.26877269 0.0056799054
0.0069010817 -0.2175613 0.0078212991
-0.16602404 -0.15618888 0.0070155002
0.0044286447 -0.0086231641 0.0055373921
-0.057173774 0.22769201 0.0054680333
0.12226928 0.22806501 0.00081666163
0.22470668 0.251858 0.0099001909
-0.16890591 0.2653099 0.00036858566
-0.036430359 -0.333334 0.012763757
0.014913414 -0.27952188 0.015222665
0.020063749 -0.14744887 0.019980274
0.26910901 -0.09867008 0.015373893
0.15606791 -0.043033153 0.018116364
0.26910901 0.0038772821 0.019698732
0.15678841 0.044912703 0.010244672
0.26910901 0.12905692 0.018029846
0.0096895657 0.16030349 0.010397155
-0.1654624 0.21631958 0.010277546
0.013692349 0.21230155 0.014094714
0.1295628 0.228065 0.017319703
0.10504244 0.24587598 0.015224319
-0.21798557 0.33739221 0.01876872
-0.11188711 -0.341322 0.023017906
0.25170624 -0.341322 0.022953384
-0.048879474 -0.333334 0.026102833
-0.036599994 -0.333334 0.029211305
0.030504696 -0.27505386 0.029625069
0.020677034 -0.2302261 0.02054679
0.15519905 -0.17309523 0.027609028
0.15578178 -0.14199321 0.02124257
0.025874931 0.071128912 0.025348332
0.02486095 0.087969281 0.024411675
-0.23534033 0.26808494 0.023795694
-0.11512614 -0.341322 0.039215587
-0.15352309 -0.333334 0.03930803
0.070743933 -0.33333397 0.032091342
0.15466295 -0.28272432 0.033466142
-0.1606304 -0.25762534 0.038342264
0.03488249 -0.23010729 0.033669047
0.26910901 -0.099771082 0.039579712
-0.25106332 -0.010597881 0.034664087
0.26910901 0.04922998 0.031577881
0.26910901 0.062904924 0.031154133
-0.24208567 0.14852679 0.036921225
-0.079725057 0.22769198 0.038221184
-0.15971492 0.24967439 0.036357295
0.26910901 -0.27017033 0.044608712
-0.26333952 -0.23547916 0.045203105
0.043238971 -0.2255356 0.041388318
0.050797958 -0.19553138 0.048370913
0.04972925 -0.18372859 0.047383696
-0.25924534 -0.16037135 0.040503666
0.050702415 -0.10188693 0.048282661
0.26910901 -0.075833343 0.042163681
0.043943722 0.083050169 0.04203932
-0.24040228 0.17836393 0.04343231
0.048705205 0.19862676 0.04643774
0.11173316 0.228065 0.045868367
-0.065590523 0.24587598 0.04181467
-0.22620398 -0.341322 0.059349991
0.055034719 -0.341322 0.058997631
0.23976925 -0.341322 0.057965606
0.074773021 -0.333334 0.059994757
-0.25307578 -0.047189526 0.051701263
0.057126485 -0.020693336 0.054216869
0.26910901 0.016790748 0.054136202
0.060738921 0.033474773 0.05755385
-0.24400884 0.11443974 0.053128522
0.14768112 0.14297874 0.052509572
0.14678168 0.16084759 0.054950185
0.26910901 0.19053015 0.051302552
-0.11004977 0.24587601 0.055006452
-0.23365039 0.29803804 0.059338354
0.17959185 -0.341322 0.066842623
-0.26893464 -0.33812341 0.065079138
-0.26819927 -0.32463247 0.066205904
0.072204039 -0.21671492 0.068144709
0.070419431 -0.13412684 0.066496201
-0.15218848 -0.051727384 0.061463468
-0.15193419 -0.040589236 0.062014554
-0.15250681 -0.039830275 0.060773578
-0.14870156 -0.028132122 0.069020398
0.068937644 -0.020956434 0.065127403
-0.25158632 -0.019867878 0.066751383
-0.24948677 0.017345553 0.066950023
0.26910901 0.13368331 0.060207773
0.26910901 0.14502016 0.0620532
0.26910901 0.18790802 0.06178581
-0.23757209 0.22852775 0.067499094
0.26910901 0.22163461 0.06359145
-0.080600835 0.245876 0.06367109
0.24651067 0.245876 0.062685542
-0.21564031 0.33758891 0.067682855
0.23756185 -0.341322 0.079707615
0.25058004 -0.341322 0.070332512
-0.099213764 -0.333334 0.071632326
-0.26589769 -0.28241053 0.076766744
0.082523867 -0.23852994 0.07767763
-0.14762464 -0.21983728 0.071354367
0.26910901 -0.13082948 0.076273449
-0.14587903 -0.11402107 0.075137511
0.083591111 -0.068188429 0.078663498
-0.14417046 0.002015464 0.078840367
0.26910901 0.018754292 0.078976542
0.13829148 0.16913991 0.075811759
0.13722293 0.18464418 0.07732486
-0.060907699 0.22769199 0.075896412
-0.15392765 0.24969378 0.070255607
-0.23305668 0.30856118 0.075143181
0.15504046 -0.341322 0.084978379
0.10610735 -0.333334 0.082030043
-0.14257942 -0.29471835 0.082288519
-0.26520571 -0.26971546 0.081442311
0.26910901 -0.24952511 0.085279554
0.26910901 -0.20008771 0.088635251
0.091550067 -0.19155495 0.08601556
0.13222718 -0.032592848 0.084399045
-0.1409477 -0.014652297 0.085276008
-0.14312236 0.0578641 0.081111833
-0.24398303 0.11489708 0.08571586
0.087861255 0.12439954 0.082608037
0.091079548 0.15344051 0.08558093
0.26910901 0.20000884 0.080711693
-0.1372648 0.22387803 0.089700997
-0.026497554 0.22769199 0.081211001
-0.12712528 0.24587598 0.084483258
-0.010525532 0.24587598 0.084274232
0.1651717 0.245876 0.083143838
-0.19573595 0.34104323 0.085342906
-0.027831994 -0.341322 0.091402873
0.032744959 -0.341322 0.09682551
0.14636622 -0.341322 0.095062256
0.12207986 -0.23262569 0.09876807
0.10368674 -0.22654796 0.097226769
-0.26189467 -0.20897366 0.093548864
-0.13622774 -0.18267681 0.090947017
0.10641012 -0.18837753 0.099742502
-0.25798041 -0.1371659 0.096945867
-0.24923813 0.021752751 0.098089471
0.104987 0.033222299 0.098427877
-0.12896018 0.1023443 0.099678956
0.10462443 0.10070281 0.098092966
0.1013307 0.16736268 0.09505038
0.26910901 0.17381969 0.091920801
-0.2397324 0.19023749 0.094023988
0.12193102 0.21557839 0.098978847
-0.11520571 0.22769199 0.095153227
-0.10047131 0.24587601 0.090741374
0.072319701 0.245876 0.098441996
-0.1263568 -0.30220124 0.10280691
0.11079715 -0.27559739 0.103795
0.11499889 -0.26068568 0.10767635
0.10975152 -0.25215369 0.10282909
-0.26041138 -0.18176234 0.10475172
0.11410984 -0.14388907 0.10925586
0.11358075 -0.072435834 0.10636634
0.1069774 -0.061982729 0.10026652
-0.25080675 -0.0060503823 0.10337211
-0.12147526 -0.0036746599 0.10867205
-0.24806795 0.042493939 0.10794281
-0.24515617 0.094103716 0.10957142
0.26910901 0.10730217 0.10033993
0.080638036 -0.333334 0.11291885
0.26910901 -0.11564394 0.11621028
-0.11090793 -0.082879715 0.11966141
0.10342691 -0.072205469 0.11814694
0.10502587 -0.063926071 0.11681618
0.10505218 -0.038450763 0.11679427
0.10676971 -0.026281398 0.11536483
-0.11448228 -0.00081408024 0.11707407
-0.073433153 0.24587598 0.11437413
-0.23193227 0.32849085 0.11666322
0.23902181 -0.34132197 0.12560961
-0.26445377 -0.25592056 0.12103102
-0.26317823 -0.23252106 0.12222785
-0.10266264 -0.080590844 0.12548441
0.26910901 -0.087500796 0.12721454
0.091402568 -0.019310869 0.12815446
-0.10222497 0.0034163296 0.1257935
-0.24985965 0.010736626 0.12236975
0.095430046 0.016436705 0.1248025
-0.10256319 0.14246368 0.12555464
0.090026438 0.14693606 0.12929976
0.098967455 0.18087363 0.12185842
0.043997698 0.22769199 0.12947305
0.21146938 0.24587601 0.12035181
-0.17538896 -0.341322 0.13836092
-0.11180399 -0.341322 0.13958067
-0.10300312 -0.341322 0.13344941
-0.038442742 -0.333334 0.13913801
0.26910901 -0.29192501 0.13616069
-0.094483271 -0.2801871 0.13126087
0.08472795 -0.21848005 0.13370955
-0.090919718 -0.14998418 0.13377753
0.26910901 -0.1471539 0.13857628
-0.25296271 -0.045115087 0.13785924
0.08407858 -0.029742368 0.13425002
-0.08920978 0.063653558 0.13498512
0.075348295 0.13125078 0.13873689
0.02357585 0.24587601 0.13480437
0.057463296 0.24587598 0.13553667
0.11871441 -0.341322 0.14825261
0.21455772 -0.341322 0.14567009
-0.019535996 -0.333334 0.14616057
-0.26770723 -0.31560645 0.14197969
0.055003863 -0.29373491 0.14812438
-0.078327157 -0.23465714 0.14221609
0.26910901 -0.22544444 0.14770126
0.26910901 -0.14766514 0.14777297
-0.065162897 -0.12286893 0.14706752
0.26910901 -0.11857568 0.14277205
0.26910901 -0.028966516 0.14093791
-0.063194014 0.047902714 0.1477931
-0.078916967 0.071003705 0.14199874
0.26910901 0.079646364 0.14243236
-0.059728086 0.15246814 0.14907041
0.053161107 0.17664199 0.14897467
-0.076256678 0.20730309 0.14297912
-0.00099075958 0.22769199 0.1408419
-0.12347119 0.245876 0.14639975
-0.17826863 0.28944772 0.14593013
-0.19194897 -0.341322 0.15396279
-0.009070117 -0.27407351 0.15921782
0.0068358025 -0.23914768 0.15951641
0.022431865 -0.212556 0.15683128
-0.2619141 -0.2093299 0.15859756
-0.052653655 -0.20094442 0.15167755
-0.022983678 -0.20933209 0.15794432
-0.25762284 -0.13060617 0.15490608
-0.027910931 -0.12811297 0.15749332
-0.045237593 -0.024089828 0.15441059
-0.010671079 -0.0038492605 0.1590713
-0.01058621 0.071277082 0.15907907
-0.031786684 0.12128183 0.15713857
0.033330303 0.13962665 0.15495493
-0.048909571 0.16527638 0.15305735
0.02647578 0.16513434 0.15613505
0.029161928 0.1901875 0.15567258
0.024961602 0.21348648 0.15639573
-0.048399843 0.24587598 0.15708835
0.063873962 0.245876 0.15823875
0.06897372 -0.341322 0.16136764
0.15296684 -0.341322 0.16248089
0.00077468914 -0.11310844 0.16011894
0.26910901 -0.031318594 0.16509709
0.26910901 -0.0061079562 0.16711375
0.26910901 0.071739152 0.16594079
0.0013277852 0.14165232 0.16016954
0.26910901 0.20519672 0.16035222
0.26910901 0.22466022 0.16680764
-0.23405513 0.29086417 0.16727516
-0.17036833 -0.341322 0.1786859
-0.094676346 -0.341322 0.17826247
0.20995392 -0.341322 0.1754168
0.26910901 0.23207368 0.17281081
-0.079786137 0.245876 0.17195241
-0.009793207 -0.341322 0.18406187
0.16264878 -0.341322 0.18467093
0.20876481 -0.341322 0.18783998
0.2597197 -0.341322 0.18369028
-0.26780051 -0.31731722 0.1864461
0.26910901 -0.1526258 0.18192649
0.26910901 -0.12592816 0.18740791
0.26910901 0.058724821 0.18775074
-0.23980239 0.18899651 0.1886702
-0.23904961 0.20233959 0.18311329
-0.10866822 0.245876 0.18043816
-0.043551974 0.24587598 0.18147902
-0.020336539 0.24587601 0.18973714
0.080012634 -0.341322 0.19355446
-0.2658751 -0.28199548 0.19504055
0.26910901 -0.28346062 0.19511294
0.26910901 -0.27918994 0.19041407
-0.2555556 -0.092682809 0.19367856
0.26910901 -0.020049542 0.19914159
0.26910901 0.17166811 0.19140835
-0.1676043 0.27410403 0.19923835
-0.2081646 0.33821607 0.19208008
0.26910901 -0.07199695 0.20791791
-0.24370423 0.11983863 0.20452479
0.26910901 0.19472736 0.20657565
-0.19803277 0.34031117 0.20112091
0.081300221 -0.341322 0.21991745
0.24521704 -0.341322 0.21392417
-0.262178 -0.21417138 0.21259114
0.26910901 -0.10204598 0.21804556
-0.25141689 -0.016864618 0.21840751
0.26910901 -0.0099773109 0.2191824
-0.062628105 -0.341322 0.22816449
0.1412566 -0.341322 0.22787279
0.17870513 -0.341322 0.22526671
0.26910901 -0.34053394 0.22007215
0.26910901 -0.23275329 0.22239593
-0.25601625 -0.10113322 0.22399841
0.26910901 0.030634508 0.22044493
-0.24275079 0.13673788 0.22240978
0.26910901 0.17140642 0.22806914
0.20391488 0.245876 0.22716466
-0.23455861 0.2819401 0.22426356
-0.23299009 -0.341322 0.23731264
-0.060853407 -0.341322 0.23575893
0.20847586 -0.341322 0.23861462
0.21601674 -0.341322 0.23425665
0.26910901 -0.24956225 0.23046429
0.26910901 -0.16379333 0.23002669
0.26910901 0.086707875 0.23587832
0.13141696 0.24531502 0.23853147
0.16622435 0.245315 0.23780692
-0.17309165 0.27835017 0.23764916
-0.21717484 0.33746022 0.23225382
-0.084248431 -0.341322 0.24634659
-0.21510969 -0.33980241 0.24714302
-0.15424557 -0.32031339 0.247143
0.072740622 -0.32994598 0.247143
0.13573077 -0.32051468 0.247143
0.15068009 -0.32520393 0.247143
0.20538309 -0.3074995 0.247143
0.173807 -0.29687926 0.24714302
-0.25852847 -0.27355614 0.247143
0.0029520318 -0.27526569 0.247143
0.037588395 -0.27108657 0.247143
0.052740961 -0.27332765 0.247143
0.068406031 -0.27026749 0.247143
0.26624936 -0.26490596 0.247143
-0.19352984 -0.25869408 0.247143
-0.039392784 -0.2587797 0.247143
0.038036868 -0.25422299 0.247143
-0.0071277544 -0.24734485 0.247143
0.041198395 -0.24117723 0.247143
0.2243547 -0.24701281 0.247143
0.25746918 -0.245837 0.247143
-0.15936475 -0.23135953 0.247143
0.13714109 -0.23224519 0.247143
0.21199538 -0.23304375 0.247143
-0.037179545 -0.22687531 0.247143
0.00061912835 -0.22319284 0.247143
0.039146513 -0.22808814 0.247143
0.031075127 -0.20423397 0.247143
0.17324023 -0.19859663 0.247143
0.2651889 -0.19615279 0.247143
-0.11086527 -0.18311368 0.247143
0.066398323 -0.18215375 0.247143
0.19988543 -0.18601117 0.24714302
-0.25676662 -0.15462154 0.247143
-0.15164222 -0.14373443 0.247143
-0.12617472 -0.14453082 0.247143
-0.09539561 -0.13784122 0.247143
-0.22548619 -0.12047438 0.247143
0.18435901 -0.12671857 0.247143
0.22934492 -0.11857376 0.247143
-0.17189816 -0.10509995 0.24714299
-0.1358092 -0.10516372 0.247143
0.01916036 -0.094245821 0.247143
-0.25509202 -0.084770814 0.24644698
-0.23357654 -0.089287594 0.247143
-0.018424973 -0.083891183 0.247143
0.14548379 -0.084688403 0.247143
0.10085118 -0.078459747 0.247143
0.16419432 -0.074520424 0.247143
-0.093216263 -0.063378647 0.247143
0.14765525 -0.064789228 0.247143
0.16683279 -0.066985503 0.247143
-0.032523401 -0.056288198 0.247143
-0.098823473 -0.037853763 0.247143
-0.23751214 -0.029699892 0.247143
-0.11194727 -0.028879501 0.247143
-0.021253549 -0.025284603 0.247143
0.046855379 -0.018035531 0.247143
0.035330087 -0.0073545277 0.247143
0.081680909 -0.0098699331 0.247143
0.040963411 0.0028616488 0.247143
0.25594285 0.0073449337 0.247143
-0.15109378 0.011863403 0.247143
0.062647134 0.019383937 0.247143
-0.23113279 0.023673218 0.247143
-0.21471462 0.029187679 0.247143
0.26910901 0.04989437 0.24214748
0.0092568472 0.052988231 0.247143
-0.09351252 0.066601217 0.247143
0.13373958 0.078072309 0.247143
0.17306522 0.075474694 0.247143
-0.13447732 0.085116684 0.247143
0.22952421 0.089501567 0.247143
-0.17278199 0.098658174 0.247143
-0.055960298 0.10771021 0.247143
-0.026854564 0.10667902 0.247143
-0.1971841 0.11445995 0.247143
-0.23642996 0.12965403 0.247143
-0.16344653 0.12872168 0.247143
-0.18870914 0.14424616 0.247143
-0.23804222 0.1645492 0.247143
-0.13302407 0.16329086 0.247143
0.14937571 0.16734299 0.247143
-0.22119945 0.17357677 0.247143
-0.20454326 0.18089485 0.247143
0.15170701 0.18636835 0.247143
-0.23926309 0.19855542 0.24637307
0.0041364655 0.19650063 0.247143
0.010988735 0.19538228 0.247143
0.14724581 0.19187923 0.247143
-0.17909117 0.2053335 0.247143
0.00056552887 0.20306817 0.247143
-0.040722813 0.21507953 0.247143
-0.18718079 0.22918299 0.247143
-0.043758772 0.23182793 0.247143
-0.039267063 0.23292951 0.247143
0.12649842 0.23893583 0.247143
0.19982126 0.23549829 0.247143
-0.22161898 0.24044392 0.247143
-0.21343714 0.25903326 0.247143
