# .PCD v0.7 - Point Cloud Data file format
VERSION 0.7
FIELDS x y z
SIZE 4 4 4
TYPE F F F
COUNT 1 1 1
WIDTH 981
HEIGHT 1
VIEWPOINT 0 0 0 1 0 0 0
POINTS 981
DATA ascii
-0.26926064 -0.29666165 -0.251533
0.20810768 -0.29898089 -0.251533
-0.05516132 -0.28050408 -0.251533
0.12259293 -0.27335805 -0.251533
0.02796492 -0.26211151 -0.251533
-0.089530855 -0.25077909 -0.251533
0.098112166 -0.25822315 -0.251533
0.13853374 -0.25113311 -0.251533
0.14880081 -0.25806308 -0.251533
-0.10902128 -0.2470229 -0.251533
0.070956156 -0.24498206 -0.251533
0.051339097 -0.2395221 -0.251533
0.11754458 -0.23361538 -0.251533
-0.11227202 -0.22408676 -0.251533
0.048916545 -0.2135883 -0.251533
-0.23990396 -0.19317572 -0.251533
0.11253145 -0.17970186 -0.251533
0.18224545 -0.17971085 -0.251533
0.052161083 -0.16154486 -0.251533
0.18808171 -0.1684829 -0.251533
-0.16526884 -0.15561694 -0.251533
-0.049601685 -0.15884048 -0.251533
-0.2615256 -0.14313239 -0.251533
-0.097186983 -0.14487532 -0.251533
-0.20287883 -0.13204049 -0.251533
-0.16225988 -0.13804895 -0.251533
-0.12203312 -0.13826431 -0.251533
-0.25955638 -0.1255613 -0.251533
0.13376585 -0.12368063 -0.251533
0.1480259 -0.12430631 -0.251533
-0.27249399 -0.10153841 -0.2509954
0.083936438 -0.10721777 -0.251533
-0.20429081 -0.09241318 -0.251533
-0.082251444 -0.097196773 -0.251533
0.076370321 -0.090229824 -0.251533
0.16634098 -0.091977611 -0.251533
-0.22144091 -0.084922194 -0.251533
-0.22979525 -0.076082245 -0.251533
0.0068573281 -0.072198264 -0.251533
-0.18569744 -0.054093964 -0.251533
-0.06585402 -0.051236067 -0.251533
-0.06395594 -0.047224894 -0.251533
-0.04083313 -0.039382726 -0.251533
-0.26271713 -0.023937926 -0.251533
-0.072181672 -0.027336136 -0.251533
0.02628753 -0.02172422 -0.251533
0.053103209 -0.016039204 -0.251533
0.21162364 -0.015896484 -0.251533
0.083618566 -0.0026736259 -0.251533
-0.1812944 0.0075726211 -0.251533
0.08664605 0.013694093 -0.251533
-0.22797507 0.029345453 -0.251533
0.2000764 0.020171732 -0.251533
-0.18724382 0.036473915 -0.25153303
-0.056249246 0.045136943 -0.251533
-0.072401285 0.062164269 -0.251533
0.19145671 0.061557718 -0.251533
-0.24289966 0.076995417 -0.251533
-0.22797826 0.074441545 -0.251533
0.16802095 0.073043227 -0.251533
-0.27219015 0.08728455 -0.251533
-0.15871148 0.090260766 -0.251533
-0.007315971 0.098239258 -0.251533
-0.2255418 0.10973331 -0.251533
-0.1051167 0.10506018 -0.251533
0.09611094 0.10028365 -0.251533
0.15592349 0.10414355 -0.251533
0.020127241 0.1154176 -0.251533
0.14282624 0.12566145 -0.25153303
-0.25218233 0.13991062 -0.251533
-0.23729591 0.13453302 -0.251533
0.14417364 0.13458909 -0.251533
-0.12865649 0.14895797 -0.251533
0.032162458 0.1462079 -0.251533
-0.012191013 0.15047398 -0.251533
0.067244992 0.15862243 -0.251533
0.12866794 0.15595463 -0.251533
-0.18826576 0.16734511 -0.251533
0.016391486 0.16861707 -0.251533
0.2224426 0.17446195 -0.251533
0.00650879 0.19676873 -0.251533
-0.095747858 0.2066204 -0.251533
-0.19810626 0.21330285 -0.251533
-6.5789558e-05 0.22464584 -0.251533
-0.010247013 0.23477475 -0.251533
-0.24339131 0.24570671 -0.251533
0.22731943 0.243148 -0.25070119
-0.061283477 0.25340304 -0.251533
0.14529896 0.25197953 -0.251533
0.1854361 0.25055796 -0.251533
0.19815987 0.26723295 -0.251533
-0.21582089 0.27464029 -0.251533
0.0083863176 0.27997622 -0.251533
-0.1431447 0.28233424 -0.251533
-0.096462131 0.28226846 -0.251533
0.085478313 0.28204441 -0.251533
-0.245299 0.3044627 -0.251533
0.034830146 0.30513293 -0.251533
-0.10262074 0.31707305 -0.251533
-0.030918799 0.32162824 -0.251533
0.15815902 0.32443747 -0.251533
-0.042575881 -0.310224 -0.24038434
-0.023076393 -0.310224 -0.24013767
0.13142647 -0.310224 -0.24486732
-0.27249399 -0.019368812 -0.24170847
-0.27249399 0.086110674 -0.24208286
0.23057202 0.13906305 -0.24988341
-0.27249399 0.14541221 -0.24398078
-0.27249399 0.16725567 -0.24641465
-0.27249399 0.29721525 -0.2475796
0.088501595 0.293455 -0.24006823
0.0027386397 0.32699299 -0.24100718
0.025673062 0.32699299 -0.24917561
0.065480083 0.32699299 -0.24540654
-0.25774613 0.33231956 -0.2462064
0.1323072 0.33270311 -0.24582289
-0.26195705 -0.310224 -0.23359637
0.13839373 -0.310224 -0.23508221
0.23057202 -0.11903907 -0.23015255
-0.27249399 0.2529431 -0.23983999
-0.27249399 0.26665717 -0.23893903
-0.13532801 0.293455 -0.23411268
0.15430346 0.293455 -0.23212032
-0.1171592 -0.33537701 -0.22576225
0.027725592 -0.310224 -0.22443473
-0.27249399 -0.022018872 -0.227469
-0.27249399 0.073879056 -0.22734389
0.16587269 0.32699299 -0.2214599
-0.016603433 -0.310224 -0.21861148
0.031620927 -0.310224 -0.21186814
0.085599542 -0.310224 -0.21240249
0.1524045 -0.310224 -0.21848057
0.23057202 -0.26680794 -0.21803886
-0.27249399 -0.25030208 -0.21898459
0.23057202 -0.05628534 -0.21769238
0.230572 -0.0053351521 -0.21410827
0.23057202 0.036794789 -0.2122322
-0.27249399 0.090189919 -0.21488564
-0.14329651 0.33537704 -0.21041289
0.021151222 -0.33537698 -0.20604938
0.1146266 -0.310224 -0.20106913
0.20993949 -0.310224 -0.20069925
-0.27249399 -0.27799156 -0.20023948
-0.27249399 -0.2609598 -0.20491698
0.23057202 -0.11695392 -0.20955355
-0.27249396 -0.099572875 -0.2074472
-0.2076844 0.293455 -0.20359093
-0.18399584 0.293455 -0.2015435
0.23057199 0.30906519 -0.20313412
-0.27249399 0.32688928 -0.20618203
-0.16563848 0.32699299 -0.20610568
-0.13344416 0.32699299 -0.20613097
0.015749946 0.32699299 -0.20387675
0.18622562 -0.33537701 -0.19526589
0.23057202 -0.090899587 -0.19717173
-0.27249399 0.10387977 -0.19248135
0.23057202 0.20745771 -0.1994357
0.23057199 0.2102734 -0.19487515
-0.27249399 0.23226888 -0.19669656
-0.24295868 0.293455 -0.19743635
0.038998008 0.293455 -0.19073683
0.11753006 0.293455 -0.19480833
0.18481041 0.293455 -0.19976118
-0.27249399 0.31099686 -0.1904707
0.19167452 0.32699299 -0.1951286
0.017882735 -0.33537701 -0.18734141
0.13339913 -0.33537701 -0.18441434
-0.26188245 -0.310224 -0.18433365
0.11497219 -0.310224 -0.18222076
0.17380051 -0.310224 -0.18996914
0.230572 -0.11884776 -0.18352336
0.230572 0.096534967 -0.18334818
-0.27249399 0.16551283 -0.1877753
0.094165802 0.293455 -0.1847204
0.16277808 0.293455 -0.18639004
-0.094891869 0.33537701 -0.18063875
-0.044635735 0.33537701 -0.18498234
-0.074908167 -0.33537701 -0.17281887
-0.024126582 -0.310224 -0.17151895
0.066034809 -0.310224 -0.17993021
0.22431356 -0.310224 -0.17930596
-0.27249399 -0.30696881 -0.17643262
0.23057199 -0.19911677 -0.17059997
-0.082737416 0.293455 -0.17192051
0.15130976 0.293455 -0.17588046
-0.26907405 0.32699299 -0.17279385
-0.14519939 0.32699299 -0.17646587
-0.26362842 0.33537701 -0.17471927
-0.25425237 0.33537701 -0.17250007
-0.092810906 -0.33537701 -0.16772883
-0.11388606 -0.310224 -0.16147068
-0.27249399 -0.19081549 -0.16777274
-0.27249399 -0.17675409 -0.1601325
-0.27249399 -0.15332548 -0.16243191
0.23057202 -0.12967703 -0.16160089
-0.27249399 -0.023140274 -0.16686442
-0.27249399 0.098340951 -0.16352338
0.23057202 0.11991332 -0.16705661
0.23057199 0.15315518 -0.16649102
0.21087962 0.293455 -0.16652319
0.056846246 0.33537701 -0.16927302
0.062870413 0.33537701 -0.16651437
0.10435829 0.33537701 -0.16504523
0.13331342 0.33537701 -0.16407149
-0.26454481 -0.33537701 -0.15595284
0.2266039 -0.310224 -0.15765768
-0.27249399 -0.20178446 -0.15368304
0.230572 -0.065828666 -0.15063758
0.230572 -0.011050699 -0.15320139
-0.27249399 0.10217264 -0.1585602
-0.2445907 0.293455 -0.15576024
0.057908118 0.293455 -0.15039787
0.15604027 0.293455 -0.15577911
-0.23534843 0.32699299 -0.15358585
-0.26826924 0.33121774 -0.15234505
-0.026405916 0.33537701 -0.15408367
-0.11862763 -0.310224 -0.14331669
-0.084096543 -0.310224 -0.14754014
0.13523939 -0.310224 -0.14051433
0.16032721 -0.310224 -0.14453985
-0.27249399 -0.28797123 -0.14222066
-0.27249399 -0.17995596 -0.14564101
0.230572 -0.11221235 -0.14781588
-0.27249399 -0.085747153 -0.14843349
-0.075656451 -0.067058027 -0.14054732
-0.036286794 -0.06792412 -0.14020625
0.10255452 -0.065308884 -0.14123611
0.1577661 -0.067691535 -0.14029785
0.15688241 -0.05939408 -0.14356533
-0.1053645 -0.043900624 -0.14600497
0.20019525 -0.041045167 -0.14633021
0.04594595 -0.034540784 -0.14707102
0.0080088452 -0.018396692 -0.14890978
0.12807696 -0.0047759577 -0.14688505
0.21039864 -0.0085588284 -0.14745073
-0.14635482 0.0024972456 -0.14579743
-0.009985121 0.00044382678 -0.1461045
0.064652219 0.0054191318 -0.1453605
0.20823085 0.0085522011 -0.14489199
0.087362155 0.016654577 -0.14368039
-0.039832894 0.026514601 -0.14037588
0.056634434 0.024600372 -0.14120835
0.10568216 0.02373391 -0.14158517
-0.27249399 0.1930503 -0.14751694
0.032601722 0.293455 -0.14530811
0.21302757 0.293455 -0.14696193
-0.24342513 0.32699299 -0.1485447
-0.22210763 0.33537701 -0.14703047
-0.14847206 0.33537701 -0.148368
-0.057184938 0.33537701 -0.14937246
0.082544677 0.33537701 -0.14061122
0.18215489 0.33537701 -0.14808182
0.21239093 0.33537701 -0.14269926
0.11350502 -0.310224 -0.1313649
0.20596567 -0.310224 -0.1310547
-0.27249399 -0.22925064 -0.13034391
0.08469303 -0.090345688 -0.13137679
-0.16927446 -0.086929768 -0.13272196
-0.10341612 -0.08603406 -0.13307469
0.050028797 -0.079896577 -0.13549158
-0.27249399 -0.0065802969 -0.13544671
-0.041375522 0.033261254 -0.13744181
0.14148451 0.044111796 -0.132723
0.23057199 0.083617352 -0.13167484
-0.27249399 0.1141622 -0.13455661
0.230572 0.24937902 -0.1353765
-0.014928732 0.293455 -0.13982196
0.20671687 0.32699299 -0.13036741
-0.020485632 0.33537701 -0.13046958
0.19102596 0.33537701 -0.1346772
-0.015221521 -0.310224 -0.1208771
0.06208276 -0.310224 -0.12126184
0.16736493 -0.310224 -0.12312572
0.14236376 -0.10193141 -0.12377807
0.25632399 -0.041207481 -0.12310077
-0.188649 -0.025337614 -0.12889242
0.230572 -0.025367927 -0.12749404
0.27249399 0.0087444214 -0.1214624
0.230572 0.093346678 -0.12224612
-0.27249399 0.12196328 -0.12603466
-0.27249399 0.25491875 -0.1210777
0.14611495 0.293455 -0.12433325
0.15026338 0.293455 -0.12440123
0.22638001 0.29014054 -0.12739314
-0.089468181 0.32699299 -0.12814836
-0.17856544 0.33537701 -0.12494856
0.099516228 0.33537701 -0.12292465
0.21701825 0.33537701 -0.12659501
0.08580482 -0.33537701 -0.11904111
0.13700305 -0.33537701 -0.11285506
0.16426764 -0.33537701 -0.11208871
0.16488962 -0.310224 -0.11303875
0.17465025 -0.11904863 -0.11111289
0.19622508 -0.11087611 -0.1171598
-0.27249399 0.0097234026 -0.11502735
-0.11616597 0.069784008 -0.11649892
-0.13681181 0.077861011 -0.11007318
-0.24978933 0.293455 -0.11456529
0.230572 0.31181052 -0.11042541
-0.19690874 0.32699299 -0.11965425
0.1851933 0.32699299 -0.11591022
-0.082154192 0.33537701 -0.11133111
0.078016624 0.33537701 -0.11212608
0.18967012 0.33537701 -0.11364485
-0.0039190017 -0.33537701 -0.1024948
0.052411906 -0.33537701 -0.10036565
-0.16775934 -0.310224 -0.10709926
-0.1287834 -0.310224 -0.10106408
0.16143796 -0.310224 -0.10249477
0.2251164 -0.045351747 -0.10564186
0.230572 -0.024859849 -0.10882384
-0.188649 -0.0059206737 -0.10263836
0.25411516 -0.006022485 -0.10688587
0.26051393 0.048303865 -0.10402
-0.05731269 0.078150131 -0.10984316
0.2298934 0.086190149 -0.10344253
-0.27249399 0.15265103 -0.1091639
0.22638001 0.24380064 -0.10385878
-0.27249402 0.25807092 -0.10913584
-0.13991991 0.293455 -0.10186461
-0.27249399 0.32224339 -0.10794406
-0.053718895 0.33537701 -0.10096028
-0.045325562 0.33537701 -0.10362853
-0.21196666 -0.33537701 -0.090501502
0.11876011 -0.310224 -0.094168067
-0.188649 -0.089180872 -0.095942244
-0.188649 -0.077443682 -0.094489627
-0.27249399 0.006514281 -0.093624502
0.22342235 0.022766052 -0.098701477
0.15497018 0.089610964 -0.098819152
0.097576737 0.091598347 -0.096133113
0.14323519 0.092451125 -0.094980553
-0.23216361 0.293455 -0.096598163
0.23057202 0.31108308 -0.090834185
-0.23090725 -0.33537701 -0.080333151
-0.076573201 -0.33537704 -0.08612445
0.14948705 -0.33537701 -0.089848377
0.20541801 -0.33235466 -0.089470841
-0.014977798 -0.310224 -0.088949189
0.19285588 -0.310224 -0.081386432
0.24865095 -0.088256285 -0.084395029
-0.27249399 -0.071528047 -0.080075718
0.18865 -0.014207756 -0.086097315
-0.27249399 0.030182049 -0.080112882
0.233531 0.041321922 -0.08824116
0.23057202 0.065831214 -0.089615479
0.086004421 -0.14626056 -0.079682812
-0.27249399 -0.0079447925 -0.073947415
0.14331481 0.293455 -0.072906077
-0.17072272 0.32699299 -0.078783266
0.15540029 -0.33537701 -0.061325148
0.20533051 -0.33537701 -0.061143201
-0.23242749 -0.310224 -0.06864471
0.230572 -0.18500526 -0.069727026
-0.14939643 -0.15168105 -0.06967847
0.23057202 -0.14084309 -0.061656665
0.15456414 0.11095701 -0.068010181
0.230572 0.11017787 -0.062920138
0.2493244 0.26575753 -0.065095276
-0.19671361 0.293455 -0.06315545
-0.18685113 0.293455 -0.061277241
0.050249621 0.32699299 -0.062356047
0.12416223 0.33537701 -0.068364583
0.22744165 0.33012334 -0.066448621
0.02023761 -0.33537701 -0.051070966
-0.25041649 -0.310224 -0.051988721
-0.093486927 -0.310224 -0.051522173
-0.073682457 -0.310224 -0.051937357
0.019032642 -0.310224 -0.057523903
0.16206837 -0.310224 -0.052682132
-0.27249399 -0.13103299 -0.058928378
0.18865 -0.064993061 -0.051609609
0.18864998 -0.033348747 -0.058741551
-0.27249399 0.01648391 -0.057304069
-0.27249399 0.054925874 -0.055391103
-0.0920358 0.11477914 -0.058304071
0.230572 0.22774607 -0.055311792
0.23057199 0.23420082 -0.057662889
-0.27249396 0.24533165 -0.058399022
-0.085160367 0.293455 -0.055097822
-0.0074671805 0.293455 -0.052213848
0.23057202 0.30001697 -0.053125858
-0.22123298 0.32699299 -0.050280377
-0.032609645 0.32699299 -0.059282631
0.0034665409 0.33537701 -0.058676258
-0.17772001 -0.310224 -0.041885495
-0.049033515 -0.310224 -0.047686845
-0.1457736 -0.16210969 -0.045698617
0.18865 -0.0024130922 -0.048645809
0.230572 0.13834524 -0.047814265
0.24705358 0.28374046 -0.046619665
0.15581261 0.293455 -0.043996885
-0.24630433 0.32699299 -0.048327908
-0.21843645 0.32699299 -0.043089449
-0.00065959245 0.32699299 -0.047335349
0.109717 0.32699299 -0.043780051
0.16116612 0.32699299 -0.045933392
-0.17411643 -0.33537698 -0.039668735
-0.060642175 -0.33537701 -0.039783314
0.15679078 -0.33537701 -0.033819251
-0.04050909 -0.310224 -0.030514613
-0.029330865 -0.310224 -0.03494741
0.12579234 -0.16441777 -0.039111003
-0.27249399 -0.13776803 -0.033674993
0.27249399 -0.13527471 -0.031417154
-0.27249399 -0.068022728 -0.034098767
-0.27249399 0.015271393 -0.036380738
-0.27249399 0.19571407 -0.038464442
0.043932293 0.32699299 -0.032792713
-0.20075545 -0.33537701 -0.021903984
-0.045449484 -0.310224 -0.024379067
0.017233334 -0.16674361 -0.023557449
0.16046724 -0.16699179 -0.021897737
-0.188649 -0.0042697471 -0.025509428
-0.11417764 0.12481997 -0.02490586
0.17144038 0.12520206 -0.02155124
-0.27249399 0.23483017 -0.02786392
0.230572 0.28052843 -0.024883432
-0.23759447 0.293455 -0.028855331
-0.175327 0.293455 -0.028572615
-0.22249335 0.32699299 -0.026953332
-0.16566041 0.32699299 -0.024900917
-0.087843761 0.32699299 -0.026554998
-0.01963722 0.32699299 -0.029240191
0.085014112 0.32699299 -0.02479168
0.19428276 0.32699299 -0.020174153
-0.091550589 0.33537701 -0.022192737
0.023811899 0.33537701 -0.024586186
-0.043934226 -0.33537701 -0.010118564
-0.036148775 -0.33537701 -0.010369612
0.23057202 -0.29641691 -0.01270695
-0.27249399 -0.28260356 -0.012931354
0.017842233 -0.16845635 -0.012103771
0.072851889 -0.16782245 -0.016342826
0.22757135 -0.12736535 -0.018599721
-0.27249399 -0.11116724 -0.012633629
0.021554193 0.12556332 -0.018379362
-0.27249399 0.16374511 -0.017079458
-0.27249399 0.18858217 -0.017041214
0.230572 0.23975909 -0.014611281
-0.094527408 0.293455 -0.018350109
-0.16009605 0.32699299 -0.01897864
0.0038563195 0.32699299 -0.018210785
0.068000287 0.32699299 -0.012716059
0.20545004 0.32699299 -0.015297711
-0.095350005 0.33537701 -0.015952561
-0.26668793 -0.33537701 -0.0084400699
-0.10085816 -0.33537701 -0.0051754713
-0.214843 -0.310224 -0.0077343574
0.081140921 -0.310224 -0.0087265633
0.23057202 -0.28084746 -0.00048102438
0.18865 0.063207224 -0.0088107856
0.25153399 0.27236378 -0.007199659
-0.14991058 -0.33537701 0.0099571496
0.10164869 -0.33537701 0.0045416243
-0.2247763 -0.310224 0.0044408366
-0.27249399 -0.2171095 0.0042543076
0.070022136 -0.16882204 0.0066457139
0.20130238 -0.12906784 0.0056680921
-0.27249399 -0.078620344 0.0014873669
-0.1267955 0.12777716 0.0037926298
-0.047209419 0.12793764 0.0024663154
0.14274195 0.12757574 0.0051397178
0.230572 0.22822407 0.0012587979
-0.27249399 0.28808522 0.0065257102
-0.25474814 0.293455 0.0082152113
0.085000418 0.293455 0.00062090904
0.230572 0.30938256 0.0018050969
-0.1899038 -0.33537701 0.017674945
0.031239532 -0.33537701 0.018578827
-0.093964607 -0.310224 0.018256217
-0.022848479 -0.310224 0.01445155
0.230572 -0.24546486 0.01659666
0.19696254 -0.1675868 0.017493432
-0.27249399 -0.1313211 0.0156256
0.21767293 -0.12785169 0.014905719
0.26958609 -0.12729722 0.019117404
0.18865 0.084086671 0.010874849
0.24987999 0.086330712 0.011854801
0.030615821 0.12670453 0.010965937
-0.27249399 0.21521562 0.015011176
-0.20592117 0.293455 0.013779782
-0.13698551 0.32699299 0.010375701
0.021169655 0.32699299 0.01810243
0.017748892 0.33537701 0.01155816
-0.27249402 -0.2916545 0.029898547
0.12153342 -0.16663221 0.025876636
0.18865 -0.098933712 0.029069621
-0.27249399 -0.034561522 0.023955699
0.066678464 0.12512331 0.021540359
-0.27249399 0.15141886 0.027082011
0.230572 0.22520238 0.02372355
-0.15227887 0.293455 0.027983138
-0.061847128 0.293455 0.022431798
0.070201397 0.293455 0.028808542
-0.25343522 0.32699299 0.020694368
0.043441549 0.32699299 0.023065947
0.072143324 0.33537701 0.025455147
-0.27187371 -0.33537701 0.03625438
-0.24942575 -0.33537701 0.038621251
-0.22272868 -0.33537701 0.031631276
0.20541802 -0.33389634 0.03746289
0.23477902 -0.14245309 0.032466669
0.20916289 -0.12402152 0.033203583
0.24912052 -0.12193418 0.038243104
0.18865 -0.042359903 0.035312928
0.18865 -0.0099857822 0.039620813
0.18865 0.038002994 0.0395943
0.16364701 0.12265106 0.038073324
0.230572 0.13646232 0.039542861
-0.27249399 0.21111213 0.03071849
-0.27249399 0.32074058 0.03664767
-0.18296742 0.32699299 0.030048199
-0.21915817 0.33537698 0.031348661
0.048926808 0.33537701 0.036715519
-0.27249399 -0.098327912 0.042221263
-0.188649 -0.048005231 0.04890072
0.27249399 0.096270837 0.041399468
0.18604609 0.12148626 0.042713486
-0.23814508 0.293455 0.045937933
0.21468765 0.293455 0.04040812
-0.075833671 0.33537701 0.045605436
0.11272997 0.33537701 0.049956411
0.21155719 0.33537701 0.049778551
-0.01065252 -0.33537701 0.056594804
0.019200921 -0.33537698 0.058248751
0.055914968 -0.33537701 0.051272206
-0.14433299 -0.310224 0.056283448
-0.087584443 -0.310224 0.050172377
-0.0079946816 -0.15730986 0.056759629
-0.27249399 0.017132219 0.058650218
0.265284 0.091602072 0.054081377
-0.12649679 0.11474939 0.05820436
-0.012058135 0.11470345 0.058310021
0.078365669 0.1148361 0.058005009
0.10695158 0.11713994 0.052707475
0.21794397 0.11404837 0.059816312
-0.27249399 0.23608947 0.05784595
-0.24733728 0.32699299 0.050427392
-0.1425553 0.33537701 0.056577638
-0.078765482 0.33537701 0.056518659
0.090423495 -0.33537698 0.068468839
-0.19399931 -0.310224 0.069191828
0.23057199 -0.25977561 0.067445017
-0.10908536 -0.15315619 0.067306727
0.029782593 -0.15494549 0.062763266
0.13365215 -0.15289149 0.067978851
-0.27249399 -0.092690267 0.060510788
-0.188649 -0.086013004 0.067640573
-0.188649 0.012277078 0.065804124
-0.27249402 0.030237848 0.064057201
-0.188649 0.039851267 0.064802632
-0.092601173 0.1097789 0.069633611
-0.090068072 0.11286674 0.062533386
-0.27249399 0.13354489 0.060217619
0.230572 0.17042294 0.060958263
0.23057202 0.20177595 0.069451593
0.230572 0.22213888 0.06894993
0.15462205 0.32699299 0.067346238
-0.047872245 0.33537701 0.068623856
-0.13500337 -0.33537701 0.072341241
-0.054742031 -0.33537701 0.079404071
-0.27249399 -0.29601866 0.078910314
0.23057202 -0.1566885 0.076546915
0.020422775 -0.14719316 0.077653833
0.032769047 -0.14672679 0.078284159
0.23703372 -0.12257335 0.072402984
-0.27249399 -0.044478793 0.070368454
0.26811576 0.059199583 0.07281363
-0.27249399 0.07545495 0.07432282
0.24754348 0.075071141 0.079675138
-0.27249399 0.098857 0.077265911
-0.027231477 0.10672215 0.076662362
0.051784694 0.10710084 0.075791605
0.088003717 0.1079401 0.073861778
0.17241785 0.10571454 0.077954046
0.23057199 0.15673485 0.077245802
-0.27249399 0.19931909 0.07527601
-0.077666655 0.293455 0.077154107
-0.0057083368 0.33537701 0.076593168
-0.074284784 -0.33537701 0.088745356
0.16690885 -0.33537701 0.088762335
-0.0020010136 -0.310224 0.08776091
0.23057202 -0.25211161 0.083014503
-0.057037823 -0.14446488 0.081341319
0.08551766 -0.14066011 0.086483769
0.14441498 -0.14420015 0.081699118
0.17630777 -0.13948621 0.088070378
-0.188649 -0.044295538 0.084153794
0.18865 -0.026760083 0.082893863
0.23175818 0.048686858 0.082589783
-0.27249399 0.090019383 0.086170524
0.034853563 0.099368826 0.085930251
-0.27249399 0.21380509 0.089316085
0.230572 0.28379008 0.088129371
-0.10641562 0.33537701 0.084221147
0.04410588 -0.33537701 0.099275894
0.16748926 -0.310224 0.099864557
-0.13755849 -0.13635699 0.092299759
-0.093266346 -0.13710016 0.091295317
0.072574839 -0.13460708 0.094664916
0.18696851 -0.13619307 0.09252134
-0.27249399 -0.034095973 0.09581089
0.1948683 0.022342306 0.098876998
-0.15900975 0.092458561 0.094616085
-0.10867172 0.09584327 0.090361692
0.23057202 0.19640188 0.095961779
-0.27249399 0.20262595 0.092011295
0.230572 0.27103758 0.094843775
0.10366574 0.293455 0.094146445
0.15601534 0.32699299 0.092515871
-0.17838027 0.33537701 0.090747535
-0.09264005 0.33537701 0.094421014
-0.27181673 -0.33537704 0.10334601
-0.0059067234 -0.310224 0.10129548
-0.27249399 -0.24618456 0.10597128
0.058328748 -0.13030374 0.10048122
0.23057202 -0.097080335 0.10053312
0.23057199 -0.066619776 0.10398598
0.22044402 -0.0050910334 0.10676371
-0.188649 0.046178963 0.10546029
-0.014202535 0.078665882 0.10997458
-0.27249399 0.1018545 0.1038255
0.23057202 0.10116462 0.10805245
-0.27249399 0.23149277 0.10604248
0.23057202 0.32514071 0.1079326
-0.17691596 -0.33537701 0.11652645
-0.075894423 -0.310224 0.11572964
0.1565754 -0.310224 0.11848445
-0.27249399 -0.29245937 0.11180916
0.23057199 -0.1730506 0.11429121
-0.17535734 -0.11810164 0.11141133
-0.020043328 -0.11747694 0.11190833
0.16021451 -0.11446967 0.11430082
0.06333755 -0.10758659 0.11977676
0.26105687 -0.068106003 0.11543607
0.230572 -0.051048171 0.11086222
-0.188649 -0.046930805 0.11284884
0.27249399 -0.042696718 0.11129377
-0.188649 -0.030278549 0.11416637
-0.27249399 -0.028305408 0.1107335
0.23627457 0.016681956 0.1193718
0.27249399 0.013700241 0.11884663
-0.038529553 0.069013789 0.11711602
0.11251152 0.068211831 0.11770938
-0.1742316 0.075150281 0.11257572
0.10863496 0.072182447 0.11477157
0.23057199 0.077405795 0.11590469
0.23057202 0.10198941 0.11235388
-0.19670676 0.293455 0.11692907
-0.005127579 0.293455 0.11163338
-0.12897824 0.32699299 0.11896753
0.016915485 0.33537701 0.11544055
0.16081318 0.33537704 0.11452569
-0.21564527 -0.33537704 0.12693365
-0.27249399 -0.1084369 0.12864496
-0.0011752769 -0.098130211 0.12729993
0.18357879 -0.093221426 0.12959751
-0.27249399 -0.0086732879 0.12955943
0.25200868 -0.0060209618 0.12379927
-0.27249399 0.003991425 0.12623906
-0.27249399 0.035546225 0.12294409
-0.077984579 0.051918335 0.12976468
-0.028067023 0.053642295 0.12848914
-0.09319979 0.061834648 0.12242775
0.230572 0.13720076 0.12471243
0.230572 0.27525207 0.12187047
0.0054744743 0.293455 0.12183423
0.037187681 0.293455 0.12624514
-0.01886645 0.32699299 0.12399166
0.0081500262 0.33537701 0.12961721
-0.033688441 -0.33537701 0.13233048
-0.022902399 -0.33537701 0.13046575
0.10512836 -0.310224 0.13638696
0.20541801 -0.31121761 0.13604736
0.23057202 -0.2524538 0.13800985
-0.27249399 -0.22362456 0.13122451
0.23057199 -0.2068035 0.13431364
0.23057202 -0.17781624 0.13409883
-0.056386109 -0.089828439 0.13107309
-0.049217422 -0.088571541 0.13161972
0.080442637 -0.087937132 0.13189562
0.16475713 -0.080400318 0.13517332
-0.036450036 -0.074430183 0.1377697
-0.188649 -0.0075870119 0.13292918
-0.188649 0.010144284 0.13118839
-0.0084383115 0.031559259 0.13801825
0.20959491 0.033514023 0.13724843
0.092546985 0.041077271 0.13426992
-0.27249399 0.22652209 0.1383463
-0.27141953 0.293455 0.13558544
-0.13691452 0.293455 0.13766316
0.10757573 0.293455 0.13115871
0.2260602 0.293455 0.13865812
-0.0063986331 0.32699299 0.13084485
-0.16851969 -0.33537698 0.14656109
0.020251952 -0.33537701 0.14614226
0.099057049 -0.33537704 0.14688005
0.12853429 -0.33537701 0.14440563
0.098176003 -0.310224 0.14233658
0.23057199 -0.24964955 0.14859039
-0.27249399 -0.22067216 0.14924023
-0.27249399 -0.18842234 0.14159633
-0.27249399 -0.069373921 0.14609526
-0.010095928 -0.052631058 0.14456958
0.0037382245 -0.053502657 0.14443925
0.12109722 -0.043843523 0.1458836
0.19950183 -0.046917547 0.14542393
-0.028062815 -0.032904074 0.14751941
0.018155169 -0.030036703 0.14794818
0.074020192 -0.030544156 0.1478723
-0.188649 -0.02743732 0.14543448
0.13126352 -0.025047798 0.14869419
0.011901528 -0.012494611 0.14765368
0.041874155 -0.012242094 0.14762492
0.059798919 -0.013461092 0.14776374
0.063009799 -0.019974256 0.14850542
-0.14704214 -0.0099330712 0.14736199
0.023205087 0.001486741 0.1460616
0.1228974 0.0096478146 0.14513227
-0.13175984 0.017833374 0.14342369
0.08081241 0.010627335 0.14502074
-0.2383984 0.293455 0.14310378
0.19762214 0.33537698 0.14959921
-0.0067625642 -0.33537701 0.1519991
0.14972134 -0.33537698 0.15430011
0.22347656 -0.310224 0.15528813
-0.27249399 -0.27795038 0.15179062
-0.27249399 -0.21084118 0.15416715
0.23057202 -0.17233194 0.15004122
-0.27249399 -0.14984426 0.15836808
-0.27249399 0.17200531 0.1549387
0.230572 0.240826 0.15375885
0.11400289 0.293455 0.1530026
0.1687226 0.293455 0.15891176
0.17885029 0.293455 0.15751158
-0.19764882 0.32699299 0.15572634
-0.1641233 0.33537701 0.15208168
0.10377298 0.33537701 0.15281518
0.12765951 0.33537704 0.15955365
-0.22448851 -0.33537701 0.1630646
0.19633839 -0.310224 0.16653115
-0.27249396 -0.27564275 0.16013758
-0.27249399 -0.24696133 0.16000775
0.230572 -0.22792758 0.16101864
0.230572 0.13286015 0.16576087
0.230572 0.21472082 0.16802648
0.017493285 0.293455 0.16793227
-0.24663621 0.32699299 0.16277659
-0.026692614 0.33537701 0.16532022
-0.010216318 0.33537701 0.16200964
0.062720865 0.33537701 0.1652813
0.09388952 -0.33537701 0.17467916
-0.2240025 -0.310224 0.17642547
0.230572 -0.18074468 0.17481369
-0.27249399 0.011697739 0.17895523
-0.27249399 0.045302674 0.17740953
-0.27249399 0.27308506 0.17188454
-0.1613653 0.293455 0.17147028
0.18571523 0.293455 0.1706398
-0.17110541 0.32699299 0.17262949
0.14522763 0.32699299 0.17902322
-0.072109245 0.33537704 0.17485772
-0.055931352 0.33537704 0.1747902
0.16019481 0.33537701 0.17501265
-0.22154675 -0.310224 0.18616185
-0.20026425 -0.310224 0.18775284
-0.17132382 -0.310224 0.18861607
0.067060709 -0.310224 0.18093649
0.17409156 -0.310224 0.18199608
0.23057202 -0.19574142 0.18828164
0.230572 -0.16789179 0.18603402
0.230572 -0.15413746 0.18189618
-0.27249399 0.01649756 0.18071315
-0.22722562 0.293455 0.18830952
-0.15553018 0.293455 0.1849525
-0.12666465 0.293455 0.18564828
0.084685795 0.293455 0.18030293
0.15169469 0.293455 0.1832993
-0.16959114 0.32699299 0.18869886
-0.012490936 0.32699299 0.18222371
0.15077804 0.32699299 0.18694881
0.19646998 0.32699299 0.18174942
-0.26693559 0.33255142 0.18949667
-0.017795712 0.33537701 0.18844333
0.041381866 0.33537701 0.184304
-0.085965149 -0.33537701 0.19044946
0.096149892 -0.33537704 0.19796996
-0.039956577 -0.310224 0.19016357
0.064154223 -0.310224 0.19961429
0.074265569 -0.310224 0.19543359
0.22096929 -0.310224 0.19002989
-0.27249399 -0.22216648 0.19542149
-0.27249399 0.25950748 0.19600016
0.0082968548 0.293455 0.19110644
0.18198982 0.293455 0.19929421
-0.27249399 0.30846995 0.19043238
0.019202799 0.32699299 0.19469643
-0.15221073 0.33537698 0.19889879
-0.20594046 -0.33537701 0.20371108
-0.070050664 -0.33537701 0.20405862
0.01167956 -0.33537701 0.201924
0.033874243 -0.33537701 0.20401739
-0.15840106 -0.310224 0.20081905
-0.27249399 -0.26068839 0.20445894
-0.27249399 -0.24617901 0.20669238
-0.27249399 -0.13755895 0.20494509
-0.27249399 0.00053305179 0.20031977
-0.27249399 0.1492814 0.20310256
0.230572 0.25442025 0.20730364
0.233087 0.26214328 0.20375688
0.15328382 0.293455 0.20689143
-0.10815229 0.32699299 0.20376217
-0.059005797 0.33537698 0.20564963
0.13641451 0.33537701 0.20634298
0.043268912 -0.33537701 0.21710813
-0.18371032 -0.310224 0.21752509
0.230572 -0.20110545 0.21259177
0.23057202 -0.15677513 0.21794635
0.230572 -0.068080664 0.21893039
0.230572 0.23828396 0.2149076
-0.24187428 0.293455 0.21982022
0.230572 0.31395856 0.2199344
-0.21969159 0.32699299 0.21707642
0.21765605 0.32699299 0.21298572
-0.1595456 0.33537701 0.2192193
0.16486451 0.33537701 0.2151383
-0.25567073 -0.33261245 0.22637901
0.048714295 -0.33537701 0.22180319
-0.24119873 -0.32891303 0.22637901
-0.095848374 -0.32039756 0.22637901
-0.10808452 -0.310224 0.22968239
0.0054370575 -0.31813917 0.22637901
0.052405126 -0.310224 0.22411844
0.15695192 -0.310224 0.22433741
0.20085318 -0.31318265 0.22637899
-0.27249399 -0.2326474 0.22373281
-0.27249399 -0.20337753 0.22911248
0.230572 -0.06493666 0.22507231
-0.27249399 -0.058671787 0.22205529
-0.27249399 0.091260724 0.22864598
0.230572 0.17030673 0.22329232
-0.27249399 0.18144435 0.22338046
-0.1521138 0.293455 0.22919068
-0.10723946 0.293455 0.22547051
-0.050766937 0.293455 0.2208685
-0.090533659 0.32699299 0.22505081
0.10183316 0.33537698 0.22591706
0.11530502 0.33537701 0.22980055
0.13266712 -0.310224 0.23843244
0.230572 0.029047891 0.23380056
0.23057199 0.10924014 0.23265168
-0.27249399 0.130225 0.23917574
-0.27249399 0.27236333 0.23667859
-0.0462979 0.293455 0.23773254
0.23057202 0.31699309 0.23309843
-0.26345345 -0.310224 0.24101722
0.23057199 -0.12002331 0.24604109
0.23057199 0.011892028 0.24294238
0.230572 0.076136321 0.2408729
-0.27249399 0.086396396 0.24467835
0.012426056 0.293455 0.24953949
0.18341002 0.293455 0.24770163
-0.26280919 0.33221999 0.24630599
-0.065106057 0.33467734 0.24384865
-0.032216348 0.33364436 0.24488163
0.15074313 0.33537701 0.24107271
0.013280004 -0.30421203 0.251533
0.10453139 -0.30866554 0.251533
0.10822745 -0.28431278 0.251533
0.018100716 -0.27154186 0.251533
-0.16159287 -0.25036851 0.251533
-0.13965514 -0.25177199 0.251533
-0.17502332 -0.24227151 0.251533
0.23050982 -0.2440732 0.251533
-0.23138136 -0.22327264 0.251533
0.013899259 -0.21109401 0.251533
0.1595152 -0.21732265 0.25153297
-0.17787224 -0.20486934 0.251533
0.17980775 -0.20103906 0.251533
-0.25472245 -0.19306526 0.251533
0.064063326 -0.19109374 0.251533
0.17253011 -0.19248965 0.251533
0.020515773 -0.18791384 0.251533
0.016429305 -0.17037673 0.251533
-0.017148167 -0.16903682 0.251533
-0.12132956 -0.15906492 0.251533
0.10969514 -0.15081154 0.251533
-0.090522893 -0.14207259 0.25153297
0.20294592 -0.1428102 0.251533
-0.066748112 -0.13288756 0.251533
0.016429603 -0.1382695 0.251533
-0.12342088 -0.12638111 0.251533
0.16640466 -0.12867403 0.251533
-0.24063809 -0.1126496 0.251533
-0.011488758 -0.1194813 0.251533
-0.063525178 -0.10765802 0.251533
0.046293557 -0.10780276 0.251533
0.20992674 -0.10639656 0.251533
-0.1718825 -0.093561053 0.251533
-0.25104451 -0.086989582 0.251533
-0.20325667 -0.085185081 0.251533
-0.16122165 -0.084671125 0.251533
-0.14347085 -0.086129315 0.251533
0.09042345 -0.0841446 0.251533
0.027380742 -0.064055547 0.251533
0.15188426 -0.061877199 0.251533
-0.17593899 -0.051569648 0.251533
-0.051485613 -0.050283916 0.25153297
0.22183818 -0.053315751 0.251533
-0.19084758 -0.031142645 0.251533
-0.072285309 -0.031620346 0.251533
-0.25445759 -0.0293632 0.251533
-0.013639219 -0.014497638 0.251533
0.031255268 -0.011018388 0.251533
-0.12046474 -0.0061952099 0.251533
0.042919241 -0.0029883981 0.251533
0.0096626654 0.0093516409 0.251533
0.18594533 0.0051259845 0.251533
0.21110979 0.012719691 0.251533
-0.14888158 0.02920527 0.251533
-0.21639289 0.034547031 0.251533
-0.13340715 0.030143857 0.251533
0.15646626 0.033309396 0.251533
-0.13902998 0.052391462 0.251533
0.030393533 0.053497367 0.251533
0.057078563 0.067842662 0.251533
-0.25914711 0.077959485 0.251533
-0.19489861 0.073815376 0.251533
-0.15196872 0.077364899 0.251533
0.024962999 0.075879931 0.251533
0.037189312 0.071402997 0.251533
0.19203526 0.077833079 0.251533
-0.066603512 0.085394152 0.251533
0.0056460649 0.080424234 0.251533
0.14485483 0.089442521 0.251533
0.0076221004 0.096626088 0.251533
0.22375253 0.099302441 0.251533
-0.22919598 0.10232399 0.251533
0.013518646 0.10783389 0.251533
-0.054857008 0.11087999 0.251533
-0.23556387 0.12698904 0.251533
-0.16624008 0.12603563 0.251533
-0.09346009 0.12948915 0.251533
-0.000384368 0.15314431 0.251533
0.084645741 0.15784828 0.251533
0.011999518 0.16830447 0.251533
0.069377281 0.16387588 0.251533
-0.1079454 0.18247131 0.251533
-0.21573669 0.19881475 0.251533
-0.10531094 0.19819589 0.251533
-0.08688961 0.19007112 0.251533
0.17390727 0.19808035 0.251533
-0.11743383 0.2096252 0.251533
0.15466115 0.20469473 0.251533
-0.23786673 0.21991816 0.251533
-0.044594325 0.21241224 0.251533
-0.01806426 0.21280423 0.251533
-0.24288481 0.22045545 0.251533
-0.19088307 0.22900632 0.251533
-0.063813239 0.22485916 0.251533
0.081914976 0.22092456 0.251533
-0.096832417 0.23446286 0.251533
0.030551635 0.23901705 0.251533
0.15053566 0.2336403 0.251533
-0.14486711 0.24190116 0.251533
-0.057722192 0.24713174 0.251533
0.20535459 0.24302568 0.251533
0.20051295 0.25536662 0.251533
-0.19598602 0.26975837 0.251533
0.012992272 0.26190573 0.251533
-0.037116837 0.27288559 0.251533
-0.13550748 0.28721327 0.251533
-0.10067812 0.28864327 0.251533
-0.16078588 0.29212117 0.251533
-0.11687444 0.29907292 0.251533
0.016375601 0.29453945 0.251533
0.15182804 0.29747131 0.251533
-0.25517517 0.31615072 0.251533
0.011928635 0.3269105 0.251533
0.14964089 0.32465544 0.251533
