# .PCD v0.7 - Point Cloud Data file format
VERSION 0.7
FIELDS x y z
SIZE 4 4 4
TYPE F F F
COUNT 1 1 1
WIDTH 971
HEIGHT 1
VIEWPOINT 0 0 0 1 0 0 0
POINTS 971
DATA ascii
-0.24925099 -0.35468155 -0.24699032
-0.19200492 -0.35431257 -0.24715599
-0.027759872 -0.35607299 -0.24066442
0.048481096 -0.35607299 -0.24262476
0.11478527 -0.35489547 -0.24715601
0.15355948 -0.35607299 -0.24379556
-0.12035716 -0.34810215 -0.24715599
0.031032696 -0.34833604 -0.24715601
-0.020643651 -0.33804104 -0.24715599
0.017192356 -0.3303259 -0.24715598
0.08080335 -0.33592269 -0.24715599
0.19674231 -0.33019206 -0.24715599
0.20369528 -0.33383185 -0.24715599
0.22821045 -0.32449296 -0.24715599
-0.045282021 -0.31340536 -0.24715599
0.031098492 -0.31178093 -0.24715601
0.071672507 -0.31796026 -0.24715599
0.2319323 -0.31962189 -0.24715599
-0.088036224 -0.30335504 -0.24715599
-0.048256598 -0.30846614 -0.24715599
0.08954151 -0.30580735 -0.24715599
0.10336747 -0.30813345 -0.24715599
-0.14129087 -0.29127195 -0.24715599
-0.10043572 -0.29217106 -0.24715599
-0.21190466 -0.28538454 -0.24715599
-0.12144797 -0.2808499 -0.24715599
-0.090171628 -0.27684489 -0.24715599
0.020178787 -0.27666458 -0.24715599
0.18232493 -0.27406931 -0.24715599
0.047946785 -0.26058656 -0.24715599
0.056666806 -0.26453155 -0.24715599
0.20498525 -0.25920111 -0.24715599
0.21041737 -0.2526131 -0.24715599
-0.095541827 -0.24384747 -0.24715599
-0.089729726 -0.2478873 -0.24715599
0.097037494 -0.24428606 -0.24715599
-0.19120862 -0.23645461 -0.24715599
-0.025727853 -0.2330139 -0.24715599
-0.0072204173 -0.23239762 -0.24715599
0.12872718 -0.23365405 -0.24715599
0.17071825 -0.2365163 -0.24715599
0.2040748 -0.23081614 -0.24715599
-0.0094082579 -0.22564368 -0.24715599
0.0072837099 -0.22268566 -0.24715599
-0.2157456 -0.21520954 -0.24715599
-0.0096464679 -0.21962449 -0.24715599
0.17940423 -0.21531482 -0.24715599
0.18991333 -0.2155606 -0.24715599
-0.22836852 -0.20239884 -0.24715599
-0.11452349 -0.20591429 -0.24715599
-0.027530994 -0.20439483 -0.24715599
0.075840101 -0.20276178 -0.24715599
-0.015120134 -0.19106264 -0.24715599
0.032946408 -0.19866946 -0.24715599
-0.15609007 -0.18690443 -0.24715599
-0.098275833 -0.18802248 -0.24715599
-0.044361889 -0.18402512 -0.24715599
-0.14553519 -0.17142598 -0.24715599
-0.21787782 -0.16642413 -0.24715599
-0.10759435 -0.16154324 -0.24715599
0.12219243 -0.16178584 -0.24715599
-0.016419787 -0.15729751 -0.24715599
0.0088453591 -0.151756 -0.24715599
0.016943231 -0.14784858 -0.24715599
0.2100302 -0.14062469 -0.24715599
-0.24925099 -0.12256573 -0.2421602
-0.055178445 -0.12785503 -0.24715599
0.091841497 -0.12981825 -0.24715599
0.16937213 -0.12298916 -0.24715599
0.17352585 -0.12243255 -0.24715599
-0.24925101 -0.11315472 -0.2453168
-0.11137573 -0.10757282 -0.24715599
-0.051964074 -0.10531492 -0.24715599
0.10740229 -0.10302639 -0.24715599
0.13147551 -0.10880569 -0.24715599
-0.15620615 -0.091262922 -0.24715599
0.054678179 -0.095572874 -0.24715599
0.19747622 -0.096672818 -0.24715599
-0.24889289 -0.089634053 -0.24715599
0.097643778 -0.088916309 -0.24715599
0.19229631 -0.082922682 -0.24715599
0.21963957 -0.085829541 -0.24715599
-0.067602493 -0.066785663 -0.24715599
0.1692785 -0.063356683 -0.24715599
-0.24809696 -0.046558954 -0.24715599
-0.2058816 -0.045907706 -0.24715599
-0.18588834 -0.043326668 -0.24715599
-0.028093349 -0.049484819 -0.24715599
-0.057858281 -0.036004577 -0.24715599
0.034158722 -0.039273687 -0.24715599
0.15628996 -0.036470324 -0.24715599
0.23668399 -0.011061877 -0.2411885
-0.0012633894 -0.0083644232 -0.24715599
0.096977502 -0.0047156885 -0.24715599
0.19535899 -0.0080809146 -0.24715599
-0.066001438 0.012957945 -0.24715599
-0.016345002 0.017867073 -0.24715599
0.22060041 0.016837552 -0.24715599
-0.086431801 0.02336131 -0.24715599
-0.13822898 0.036826048 -0.24715599
-0.1044883 0.03727711 -0.24715599
-0.082766153 0.032499548 -0.24715599
0.17673677 0.030908778 -0.24715599
-0.091026217 0.044831146 -0.24715599
0.087482505 0.051941015 -0.24715599
0.21110433 0.059530005 -0.24715599
0.23668399 0.054433741 -0.24025986
-0.24925099 0.081867158 -0.24638602
0.008906126 0.085926846 -0.24715599
0.041108109 0.082767233 -0.24715599
0.10265234 0.082853608 -0.24715599
0.23668399 0.080506742 -0.24327369
0.23077683 0.10712999 -0.24715599
-0.24523182 0.11608476 -0.24715599
0.058024138 0.11147375 -0.24715599
0.18634552 0.11408029 -0.24715599
-0.23040186 0.12651028 -0.24715599
0.0024886057 0.1252715 -0.24715599
0.067784883 0.12333541 -0.24715599
0.10165826 0.12715901 -0.24715599
-0.032789513 0.13628912 -0.24715599
0.1372162 0.13289279 -0.24715599
-0.019297749 0.147934 -0.24715599
0.093949929 0.14193976 -0.24715599
-0.14283228 0.15493487 -0.24715599
0.097798675 0.1571786 -0.24715599
0.18674628 0.15387475 -0.24715599
-0.19003674 0.16771406 -0.24715599
-0.073700525 0.16303582 -0.24715599
0.080831848 0.16420002 -0.24715599
0.21965227 0.17095515 -0.24715599
-0.16671786 0.18297754 -0.24715599
-0.14478996 0.18851629 -0.24715599
-0.04274774 0.18981442 -0.24715599
0.1015746 0.18001369 -0.24715599
-0.10243465 0.20890072 -0.24715599
-0.13768381 0.21727353 -0.24715599
-0.049610265 0.21874446 -0.24715599
0.034885749 0.21673642 -0.24715601
-0.13500451 0.22378606 -0.24715599
-0.1050601 0.22164199 -0.24715599
-0.048840545 0.22330937 -0.24715599
0.084412418 0.22475451 -0.24715599
0.1234611 0.22271191 -0.24715599
-0.11011615 0.23051208 -0.24715599
-0.16753741 0.24892406 -0.24715599
-0.0091316625 0.24209873 -0.24715599
0.1062462 0.24169603 -0.24715599
0.13418207 0.24027003 -0.24715599
-0.24878636 0.25586295 -0.24715599
-0.050463419 0.25044048 -0.24715599
0.0190778 0.25596678 -0.24715599
0.22759455 0.25836465 -0.24715599
-0.086428657 0.26377583 -0.24715599
-0.07480973 0.26989901 -0.24715599
-0.24556388 0.27622828 -0.24715599
-0.1931078 0.2771138 -0.24715599
-0.037502803 0.27089238 -0.24715599
-0.022519566 0.27361035 -0.24715599
-0.017715372 0.27596074 -0.24715599
0.0073154643 0.27336544 -0.24715599
0.0042723715 0.299303 -0.24715599
-0.16649698 0.30217344 -0.24715599
0.17911115 0.30828205 -0.24715599
0.23768267 0.30621713 -0.24715599
-0.22252364 0.31602591 -0.24715599
-0.19394544 0.31505346 -0.24715599
-0.095259018 0.31725195 -0.24715599
0.086000666 0.31674162 -0.24715599
-0.16575481 0.33059403 -0.24715599
-0.14613058 0.3365252 -0.24715599
-0.13313298 0.33083814 -0.24715599
-0.097573705 0.33155629 -0.24715599
-0.078154191 0.34227628 -0.24715598
-0.024712339 0.34973836 -0.24715599
0.23668399 -0.1760058 -0.23419704
0.23668399 0.13775368 -0.2320236
-0.24925099 0.14451595 -0.2314835
-0.039436296 0.35607299 -0.23982376
-0.002478756 0.35607299 -0.23226604
0.096075855 0.35607299 -0.23637557
-0.16499516 -0.35607299 -0.22174817
-0.15830241 -0.35607299 -0.22655928
-0.087991521 -0.35607299 -0.22644773
-0.058342882 -0.35607299 -0.22243705
-0.030117519 -0.35607299 -0.22842889
0.034933731 -0.35607296 -0.22100727
0.088768207 -0.35607299 -0.22311383
0.23668399 -0.22591007 -0.2226885
-0.24925101 -0.067379564 -0.22045651
-0.24925101 -0.0072012395 -0.22242147
0.23668399 0.19673155 -0.22392257
-0.24925099 0.20898974 -0.22336915
-0.24925098 0.2142185 -0.22207165
-0.24925099 0.25690031 -0.22240762
-0.24925099 0.2804352 -0.22427537
0.10878505 0.35607299 -0.22817311
-0.24925099 -0.35488987 -0.21599504
0.13293269 -0.35607299 -0.21462491
-0.24925098 -0.30853721 -0.21841899
0.23668399 -0.23972303 -0.21410853
0.23668399 -0.22835328 -0.21594772
-0.24925099 -0.16002373 -0.21463723
0.23668399 -0.11513772 -0.21822444
0.23668399 -0.077846043 -0.21627423
-0.24925099 -0.023520947 -0.21052054
-0.24925099 0.32747406 -0.21318731
-0.056067117 0.35607302 -0.21220776
0.16865799 -0.35607296 -0.20778453
0.22682913 -0.35607299 -0.20412284
0.23479716 -0.29440525 -0.20004818
0.23668399 -0.19840696 -0.20511246
0.23668399 -0.13435753 -0.20893189
-0.24925098 0.077372879 -0.20623219
0.23668399 0.18111223 -0.20742711
0.23668399 0.19103296 -0.20433182
0.24506199 0.24418557 -0.2021552
0.24506199 0.29386231 -0.20915188
-0.080750883 0.35607299 -0.20716944
-0.071493804 0.35607299 -0.20091408
-0.061720639 0.35607299 -0.20113149
0.056664817 0.35607296 -0.20871782
0.015114106 -0.35607299 -0.19802544
0.03384516 -0.35607299 -0.19541307
0.2365199 -0.27803889 -0.19628507
0.23668399 -0.24897704 -0.19943772
-0.24925101 -0.18721327 -0.19174536
0.23668399 -0.13279942 -0.19943075
-0.24925099 0.17533955 -0.19809651
-0.085153937 0.35607302 -0.19574223
0.04166279 0.35607299 -0.19411418
0.21871383 0.35607299 -0.19755012
0.14044449 -0.35607302 -0.18045017
-0.24925099 -0.33119401 -0.1850327
0.23561588 -0.28662738 -0.18314658
-0.24925098 -0.14452243 -0.18993777
-0.24925098 -0.088323712 -0.18312292
-0.24925098 -0.061646506 -0.18868011
0.23668399 -0.039401446 -0.18286404
0.23668399 -0.0060812347 -0.18446045
-0.24925099 0.24936354 -0.18603371
0.24506199 0.31543991 -0.18875171
-0.054015987 0.35607302 -0.18665031
0.052504644 0.35607299 -0.18691412
0.144117 0.35607302 -0.1841585
0.10311444 -0.35607299 -0.17288601
0.16067509 -0.35607299 -0.17606941
-0.24925099 -0.34348705 -0.17406271
-0.24925099 -0.12206382 -0.17387009
0.23668399 -0.12771547 -0.17945123
0.23668399 -0.015700748 -0.17607625
0.23668399 0.11754753 -0.17620108
-0.23018922 0.35607299 -0.17858526
-0.0056326762 0.35607299 -0.17387107
0.18126252 0.35607299 -0.17256263
-0.24925099 -0.19758245 -0.16036063
-0.24925098 -0.039898604 -0.16594952
0.24506199 0.066644311 -0.16189145
-0.24925099 0.20113887 -0.16001239
-0.020513369 0.35607299 -0.16308773
-0.038997028 -0.35607296 -0.1591873
-0.24925099 -0.337455 -0.15836215
0.23550272 -0.28770235 -0.15306833
-0.24925099 -0.080153435 -0.15955515
0.0087311957 0.35607299 -0.15269971
0.044720132 0.35607299 -0.15751761
0.084935829 0.35607299 -0.1593453
0.0017597452 -0.35607299 -0.14524102
0.013165765 -0.35607299 -0.14218147
0.064315893 -0.35607299 -0.14715567
0.18518215 -0.35607296 -0.14215991
0.23516671 -0.29089445 -0.14440459
-0.24925099 -0.25125104 -0.1406136
-0.24925099 -0.21116503 -0.14381987
-0.24925099 -0.14880812 -0.14957362
0.23668399 -0.13593808 -0.14133471
-0.24925101 -0.015848309 -0.14243986
-0.24925099 -0.0063474178 -0.14314787
0.24506199 0.13051425 -0.14098464
-0.15386102 0.35607296 -0.14980379
-0.14610511 0.35607302 -0.14078802
0.077300541 0.35607299 -0.14556651
0.2032143 0.35607299 -0.14975518
0.0075437948 -0.35607299 -0.13671392
0.2326315 -0.31497964 -0.13738889
-0.24925099 -0.30027378 -0.13786647
-0.24925099 -0.28268042 -0.13010278
-0.24925099 -0.19347018 -0.13322608
0.23668399 -0.16706938 -0.13651779
-0.24925098 0.036633633 -0.13138942
0.24506199 0.10233226 -0.13787919
-0.24925098 0.13834989 -0.1397415
-0.24925099 0.27136159 -0.13858357
0.24506199 0.29478577 -0.13028297
-0.23311549 0.35607299 -0.13104931
-0.17008841 0.35607299 -0.13831013
-0.15602933 0.35607299 -0.13390405
-0.10658585 0.35607296 -0.13333543
0.037426822 0.35607299 -0.13468838
0.071903504 0.35607302 -0.1383186
0.16917925 0.35607296 -0.13526335
0.1570453 -0.35607299 -0.12207648
-0.24925099 -0.28390291 -0.12861508
-0.24925098 -0.24149409 -0.12216967
0.23668399 -0.22105226 -0.12225474
0.23668399 -0.1817725 -0.12325941
0.23668399 -0.17764318 -0.12523963
0.24506199 0.047024082 -0.12937245
-0.24925098 0.18112481 -0.12511235
-0.24925101 0.21365032 -0.12722121
-0.24925101 0.25396499 -0.1287232
-0.24925101 0.27877253 -0.126302
-0.24925099 0.29475406 -0.12237619
0.020096999 0.35607296 -0.12640873
-0.2096229 -0.35607296 -0.11840639
-0.020322084 -0.35607299 -0.11400552
0.012118559 -0.35607299 -0.11526847
-0.24925101 -0.27076244 -0.1186824
0.23668401 -0.25982878 -0.1170997
0.23668399 -0.16927865 -0.11622791
-0.24925099 -0.014667146 -0.1131613
0.24422425 0.0075126011 -0.11483462
-0.24925099 0.016168319 -0.11734691
0.17201175 0.015550675 -0.11734334
0.20934813 0.012688593 -0.11696662
0.22230029 0.067466624 -0.11799531
0.23621511 0.071315803 -0.11487865
0.19843668 0.089274071 -0.11118285
-0.24925099 0.17073664 -0.11824381
-0.084571734 0.35607299 -0.11241329
-0.20109397 -0.35607299 -0.1016603
0.23196501 -0.32131147 -0.10009202
-0.24925099 -0.12117795 -0.10337755
-0.24925099 -0.030707031 -0.10794848
-0.24925099 0.11255733 -0.10816979
-0.24925101 0.12807563 -0.10957719
0.23668399 0.21640648 -0.10804254
0.24506199 0.24254146 -0.10809204
-0.03806629 0.35607299 -0.10219231
-0.17065948 -0.35607299 -0.093655311
-0.24925099 -0.064127609 -0.094028935
0.16128001 -0.029868765 -0.092569567
-0.24925099 0.060717583 -0.096890368
0.24506199 0.1444962 -0.092140451
0.24506199 0.16792473 -0.092212513
-0.24925099 0.27272919 -0.09809462
0.24235789 0.34190494 -0.092294678
-0.19855392 0.35607299 -0.092562787
-0.18523949 0.35607299 -0.092409104
-0.11199439 0.35607299 -0.091970578
-0.10596827 0.35607299 -0.098276608
0.04940901 0.35607299 -0.097650014
-0.18198852 -0.35607299 -0.083105288
-0.16317612 -0.35607296 -0.088009566
-0.15896578 -0.35607299 -0.084569551
-0.03544917 -0.35607299 -0.085890353
-0.019925371 -0.35607299 -0.088854976
0.23668399 -0.26724923 -0.085783109
0.23668399 -0.2320236 -0.08184389
0.23668399 -0.19684446 -0.08701326
0.23668399 -0.17279375 -0.082353532
0.23668399 -0.1484023 -0.083237097
0.16128001 -0.025022274 -0.088641495
-0.24925099 0.14607446 -0.085720368
0.23668399 0.21252923 -0.085473955
0.079728328 0.35607299 -0.084310204
-0.24895272 -0.35607302 -0.078336924
-0.1760886 -0.35607299 -0.070111915
-0.24925101 -0.19771639 -0.072733879
0.23668399 -0.180163 -0.077646859
-0.24925101 -0.048964556 -0.078294359
0.18805301 -0.049284011 -0.0756533
0.16128001 0.025795242 -0.076762594
0.16128001 0.06815929 -0.077730253
0.16479081 0.13870597 -0.073761791
-0.24925099 0.15407555 -0.076241769
-0.24925098 0.16618639 -0.070618354
0.23668399 0.21078485 -0.077747054
0.24506199 0.2398072 -0.07669533
0.24506199 0.2863521 -0.07140547
-0.15604159 0.35607299 -0.079766445
-0.078914687 0.35607296 -0.075160131
0.13237619 0.35607299 -0.076935351
0.22655509 0.35511738 -0.074520543
-0.10543649 -0.35607299 -0.062131248
-0.026972972 -0.35607302 -0.064636029
0.014735971 -0.35607299 -0.065718926
0.11117784 -0.35607299 -0.067315072
0.23668399 -0.17354432 -0.065865152
0.24437559 -0.10700789 -0.069588266
-0.24925098 -0.034102082 -0.061789066
-0.24925099 0.011116095 -0.06200745
0.16128001 0.098969713 -0.062625252
0.22436306 0.14435834 -0.06639564
0.23103677 0.14232011 -0.069051862
-0.24925099 0.2815406 -0.066953547
-0.24925099 0.35594258 -0.066754892
-0.070227176 0.35607299 -0.068852611
-0.026313622 0.35607296 -0.067686409
0.077360064 0.35607296 -0.06684614
0.12530531 0.35607296 -0.061437648
0.19975528 0.35607299 -0.062593266
-0.16755272 -0.35607299 -0.052293509
-0.24925099 -0.29567716 -0.051703997
0.2330758 -0.062960923 -0.05551488
-0.24925099 0.084849216 -0.056781899
-0.24925099 0.18860999 -0.050504386
0.24506199 0.20029286 -0.050861936
0.23668399 0.21341246 -0.054659199
0.2418237 0.22830498 -0.051457983
0.24506199 0.26902109 -0.057037126
-0.085316323 0.35607299 -0.057597049
-0.018275734 0.35607299 -0.0539058
0.11527903 0.35607299 -0.053278007
-0.067709036 -0.35607299 -0.044504516
0.18845323 -0.35607299 -0.044161379
-0.24925101 -0.11406358 -0.045138545
-0.24925099 -0.040388465 -0.043434605
-0.24925099 0.12040009 -0.04579398
0.16128001 0.12906 -0.044191591
-0.24925099 0.32169858 -0.042165898
-0.20464095 0.35607299 -0.044060484
-0.16555862 -0.35607302 -0.036731526
-0.14440471 -0.35607296 -0.038880561
-0.06925609 -0.35607299 -0.038539596
0.17057694 -0.071208216 -0.035603613
-0.24925098 -0.031278342 -0.034665905
0.16128001 0.017041104 -0.035446264
-0.24925099 0.28276467 -0.035728768
-0.24925101 0.3541218 -0.037895903
-0.23314956 0.35607299 -0.031617641
-0.081242017 0.35607299 -0.03399758
-0.042623311 0.35607299 -0.039997749
-0.0070230095 0.35607299 -0.038934123
0.023784816 0.35607299 -0.03115504
-0.24925099 -0.3324545 -0.022041455
-0.24925098 -0.21369879 -0.027049661
-0.24925101 -0.20874351 -0.027942743
0.23668399 -0.14336303 -0.027513966
0.20495218 -0.074265219 -0.021535447
0.24506199 0.30553436 -0.020101698
-0.24925098 0.3178615 -0.022127241
0.24506199 0.32651451 -0.025420528
-0.1705091 0.35607299 -0.02563215
-0.039924771 -0.35607299 -0.01232024
0.045804087 -0.35607299 -0.011445938
0.17435142 -0.35607296 -0.016382657
0.23668399 -0.12292234 -0.013387785
-0.24925099 -0.11859033 -0.012082513
-0.24925098 -0.031541064 -0.011164285
0.16128001 0.14962398 -0.01428208
-0.24925099 0.17340907 -0.010871004
0.24506199 0.20423344 -0.019059435
-0.12673026 0.35607296 -0.013445321
0.014237352 0.35607299 -0.014948964
0.14314152 0.35607299 -0.011893429
0.053458814 -0.35607296 -0.008453995
0.23780158 -0.12335949 -0.0016592994
0.16128001 0.050872222 -0.0098382514
-0.24925098 0.086597688 -0.0038752127
-0.24925099 0.11497512 -0.0033090003
0.18063205 0.16506515 -4.402643e-05
0.24506199 0.18890929 -0.0065233186
0.24506199 0.29132789 -0.0078013996
-0.17559305 0.35607299 -0.0076086596
-0.16734798 0.35607299 -0.0006352216
-0.03499306 0.35607299 -0.0006988598
0.031636555 0.35607299 -0.0024946462
0.017285004 -0.35607299 0.0013007522
-0.24925099 -0.15425268 0.00061011314
-0.24925099 -0.14450701 0.0014773384
0.16128001 0.070553891 0.0054968037
-0.24925099 0.12022953 0.00079128146
-0.24925099 0.2014443 0.0049584433
-0.24925098 0.25402427 0.0026454553
0.084769398 0.35607299 0.0017453507
0.12554123 0.35607299 0.0014739633
-0.24120176 -0.35607299 0.017515697
0.22932291 -0.34641194 0.011391148
-0.24925099 -0.25507563 0.019699775
0.23668399 -0.25232121 0.014186017
-0.24925098 -0.22807188 0.018030792
-0.24925101 -0.15514147 0.014827337
0.16128001 0.028908422 0.015423423
-0.24925101 0.2195819 0.010682791
-0.15788609 0.35607296 0.01392252
0.022510856 0.35607299 0.019490905
0.076948136 0.35607299 0.014346007
-0.021823324 -0.35607299 0.025382362
0.2183139 -0.35607299 0.023287222
0.23668399 -0.23441237 0.024885386
-0.24925101 -0.22927877 0.020363063
0.23668399 -0.17710505 0.02635321
0.16128001 0.14895765 0.027081609
0.24506199 0.17026906 0.022964433
-0.24925098 0.18707418 0.020308316
-0.24925101 0.27697676 0.02121748
-0.20191666 0.35607299 0.020852469
-0.23241286 -0.35607299 0.034190945
-0.16404051 -0.35607299 0.037428401
0.18306626 -0.35607296 0.03607212
-0.24925098 -0.33938208 0.039704967
0.23279032 -0.31347084 0.038942084
-0.24925101 -0.18163896 0.031579543
-0.24925101 -0.16526711 0.031155773
0.23668401 -0.12293074 0.037015229
-0.24925099 -0.0062691271 0.03815487
-0.24925099 0.010387763 0.033315249
-0.23706195 0.35607299 0.036344245
-0.046916455 0.35607299 0.035007484
0.139911 0.35607302 0.038605072
0.16716626 0.35607299 0.039786115
0.018249713 -0.35607302 0.045387469
0.22606814 -0.35607299 0.045822561
-0.24925098 -0.29619119 0.046426341
0.23668399 -0.18347225 0.046938896
0.23668399 -0.12459327 0.046640337
-0.24925098 0.15046218 0.042062674
0.24506199 0.17963766 0.046269882
-0.24925098 0.20947866 0.043309513
0.24506199 0.28039768 0.04008678
-0.24925098 0.30388287 0.049966462
-0.24925099 0.31841421 0.048349619
0.074135587 0.35607299 0.043597721
0.10251568 0.35607299 0.043046795
0.13588017 0.35607299 0.044145647
0.033313736 -0.35607299 0.059000738
-0.24925101 -0.30441302 0.051305257
-0.24925101 -0.18916404 0.052989818
0.16128001 -0.029088704 0.051682994
0.16128001 0.0032286895 0.059162848
-0.24925101 0.023090169 0.052063547
0.24506199 0.18796016 0.057668515
0.23668399 0.20024849 0.059668586
0.23844559 0.228305 0.05925088
-0.24925099 0.24669531 0.057316609
0.24506199 0.2469496 0.050425969
-0.24925099 0.30126116 0.057810519
-0.24395646 0.35607299 0.056357443
-0.033754855 0.35607299 0.052949339
0.18713117 0.35607299 0.051592082
-0.23421383 -0.35607299 0.067394905
-0.22080961 -0.35607299 0.064456612
-0.1822941 -0.35607299 0.068805419
0.030160354 -0.35607299 0.064448625
0.18520616 -0.35607299 0.065913841
0.23668399 -0.12247585 0.066634312
0.24506199 -0.099675298 0.063021831
-0.24925101 -0.078336537 0.062803432
-0.24925101 -0.035511009 0.060210936
0.16128001 -0.035609663 0.060916048
-0.24925098 -0.018773422 0.062056463
-0.24925098 0.075753793 0.067360066
0.16128001 0.11390284 0.064755596
0.16128001 0.12309851 0.069678992
0.23668399 0.21517396 0.066723898
-0.068280824 0.35607299 0.060301043
-0.047442935 0.35607299 0.069504768
-0.24925098 -0.34085217 0.076277465
0.22929731 -0.052594863 0.071338415
0.23340559 0.14091036 0.070888989
-0.24925099 0.18404877 0.072662152
0.23668399 0.21452692 0.070255272
0.24506199 0.24400383 0.070009626
0.24506199 0.30132693 0.075036526
-0.21166757 0.35607299 0.079050839
-0.14242722 0.35607299 0.07954406
0.1450392 0.35607299 0.076379001
0.20737557 0.35607296 0.071803324
0.22249019 -0.35607299 0.084936887
-0.24925101 -0.33735391 0.088856049
0.24506201 -0.083761767 0.08687371
-0.24925101 0.01282296 0.087390274
0.16128001 0.056282323 0.085882396
-0.24925099 0.076397166 0.080715932
-0.24925101 0.15608421 0.084407896
0.23668399 0.21526575 0.08772406
0.23925734 0.228305 0.083139293
0.24506199 0.26978028 0.08483322
-0.24925098 0.30111998 0.082749382
0.2365939 0.34955975 0.085721806
-0.090027072 0.35607302 0.089630738
0.10657687 0.35607299 0.080166414
0.059313811 -0.35607299 0.095980763
-0.24925099 -0.18089756 0.092508167
0.23668399 -0.12064156 0.096140176
0.23668399 -0.10534219 0.09757527
0.18723482 -0.030125679 0.094452761
0.23891945 -0.030947857 0.093821883
-0.24925101 -0.027656913 0.097112909
-0.24925098 0.010091174 0.09052778
-0.24925101 0.06002352 0.091925621
0.16128001 0.080574073 0.09359397
0.23668399 0.1823319 0.094424181
-0.24925099 0.21647525 0.099895842
-0.24925099 0.29868969 0.096908897
-0.071321703 0.35607299 0.090903744
-0.041656032 0.35607299 0.095686063
-0.21277054 -0.35607302 0.10268458
-0.20111758 -0.35607296 0.10298973
-0.18090792 -0.35607296 0.10125354
-0.14103121 -0.35607299 0.10617348
-0.11502004 -0.35607299 0.10220382
-0.027387377 -0.35607299 0.10450226
0.16699669 -0.35607299 0.10529023
-0.24925101 -0.34037167 0.10532442
-0.24925098 -0.31872344 0.10307208
-0.24925099 -0.22694239 0.10281078
-0.24925099 -0.025594354 0.1096908
-0.24925101 -0.010451995 0.10034521
0.16431789 -0.011908331 0.10678983
0.19247389 0.09653803 0.108174
0.24361344 0.17221805 0.10578167
-0.023704562 -0.35607296 0.11861423
0.23417583 -0.30030817 0.11971416
-0.24925098 -0.2644546 0.11621639
0.23668399 -0.25120565 0.11559679
0.23668399 -0.1335163 0.1169633
0.23668399 -0.11897953 0.11555269
0.1791039 0.067894809 0.11793894
0.21572018 0.065215535 0.1182916
0.21045007 0.076766901 0.11636353
0.2325099 0.089024417 0.11128627
0.19727655 0.090595625 0.11063545
0.22180504 0.091339633 0.11032726
-0.24925099 0.14192703 0.1103397
0.24506199 0.15305446 0.11040445
0.24087299 0.27467784 0.11842786
0.028245546 0.35607296 0.11758602
0.10022181 0.35607299 0.11580437
-0.11219648 -0.35607299 0.12137715
-0.052981988 -0.35607299 0.12557393
0.055087648 -0.35607299 0.12707683
0.23230588 -0.31807321 0.12887637
0.23350674 -0.30666471 0.12404831
-0.24925099 -0.29568085 0.12341341
0.23668399 -0.12047456 0.12132168
0.24506199 0.11856689 0.12780909
-0.24925099 0.17947172 0.12593374
-0.24925101 0.27292854 0.12019469
-0.11517363 0.35607299 0.12604377
-0.24925098 -0.35561648 0.1362453
-0.11596773 -0.35607299 0.13086283
0.085779533 -0.35607299 0.13276666
0.15956487 -0.35607296 0.13833782
-0.24925101 -0.14248633 0.1323912
0.24506199 -0.030177748 0.13852839
-0.24925099 -0.027293712 0.13197117
-0.24925099 -0.0032641217 0.13186112
0.24506199 0.051336281 0.13360292
0.24506199 0.091448128 0.13411821
0.23668399 0.17317992 0.13151021
0.23668399 0.22009796 0.13678148
-0.10908797 0.35607299 0.13157147
-0.071780562 0.35607299 0.13671088
-0.0010253564 0.35607302 0.13772938
0.06264399 0.35607299 0.13702157
0.22385845 0.3555558 0.1372253
-0.24925099 -0.35544062 0.14770904
-0.24925101 -0.2587463 0.14778075
-0.24925098 -0.22982638 0.14277954
-0.24925099 -0.21911165 0.14342152
-0.24925099 -0.12118686 0.14094532
0.24506199 0.02084933 0.14131331
0.24506199 0.29284009 0.14637171
0.19795904 0.35607299 0.145412
0.21860665 0.35607299 0.14273408
-0.22302318 -0.35607296 0.15324901
-0.20349118 -0.35607296 0.15360644
-0.1664836 -0.35607299 0.1525929
0.23571569 -0.28567895 0.1561465
-0.24925098 -0.25149849 0.1534107
-0.24925098 -0.1956539 0.15034014
0.23668399 -0.13751824 0.15621446
0.24355501 -0.01372947 0.15591195
-0.24925099 0.24150708 0.15765916
-0.035984565 0.35607302 0.15473366
0.058205917 0.35607299 0.15654725
0.17047207 0.35607302 0.15590882
0.22888991 -0.3505255 0.16763319
0.23668399 -0.25215593 0.16774085
0.23668399 -0.23169133 0.16375151
0.23668399 -0.16073474 0.16179122
-0.24925099 -0.09340632 0.16128269
-0.24925098 -0.056486275 0.16606629
-0.24925098 -0.027506121 0.16892886
0.23668399 0.18272038 0.16538343
-0.24925099 0.19743606 0.16848648
-0.24925099 0.23105407 0.1668164
-0.21277171 0.35607299 0.16824338
-0.1160146 0.35607299 0.16393271
-0.1015937 0.35607299 0.16928138
-0.047631297 0.35607299 0.16816986
0.065174006 0.35607302 0.16986603
-0.24925099 -0.3560043 0.17281991
-0.094441324 -0.35607299 0.17576008
-0.049497876 -0.35607302 0.17594606
-0.24925098 -0.13576637 0.17973097
0.23668399 -0.091866337 0.17938182
0.23668399 0.067279123 0.17703694
0.23668399 0.1059202 0.17266746
-0.24925099 0.34422782 0.17026614
-0.23482192 0.35607299 0.17422327
0.048457004 0.35607296 0.17096433
-0.15421128 -0.35607302 0.18264309
0.1336603 -0.35607299 0.18442637
0.19975781 -0.35607299 0.18358253
0.23056975 -0.33456695 0.18796034
0.23297478 -0.3117184 0.18778095
0.23582855 -0.28460693 0.18173406
-0.24925099 -0.21569981 0.18193606
-0.24925099 -0.17464769 0.18741775
-0.24925099 -0.1611062 0.18404266
-0.24925101 -0.014024138 0.1872609
0.23668399 0.03830624 0.18120152
-0.24925098 0.055159442 0.18776062
-0.24925098 0.14790061 0.18241775
-0.24925099 0.30147305 0.18007682
0.24158409 0.34364951 0.18287887
-0.07133837 0.35607299 0.18037295
-0.2410661 -0.35607299 0.19232328
0.087923199 -0.35607299 0.19373378
-0.24925099 -0.29270574 0.19582622
-0.24925098 -0.28098905 0.19141842
-0.24925098 -0.026255846 0.19915207
0.23668399 0.10725842 0.19939262
0.24506199 0.29598829 0.19846958
0.24506199 0.32445356 0.19898951
0.0055938438 0.35607299 0.19961368
-0.16444363 -0.35607299 0.20051785
-0.14225283 -0.35607299 0.2077971
-0.12087362 -0.35607296 0.20166674
-0.069254346 -0.35607299 0.20231876
0.088825025 -0.35607296 0.20792571
0.23668399 -0.26375669 0.20778464
-0.24925099 -0.25172767 0.20329125
-0.24925101 -0.14617641 0.20018324
0.23668399 0.021442261 0.20875242
-0.24925099 0.25117767 0.20658651
-0.18180113 0.35607302 0.20974724
-0.040563129 0.35607299 0.20980906
-0.019357041 0.35607299 0.2021253
0.12010641 0.35607299 0.20760417
-0.24166919 -0.35607299 0.21611667
-0.2115206 -0.35607299 0.2144535
0.1386164 -0.35607299 0.21696895
0.17393535 -0.35607299 0.21475454
0.23668399 -0.23918672 0.21914504
0.23668399 -0.14362483 0.21815166
-0.24925101 -0.100848 0.21805701
-0.24925098 0.015126377 0.21919394
-0.24925101 0.039556116 0.2170251
0.23668399 0.082418993 0.21609035
-0.24925101 0.12821177 0.21560128
0.23668399 0.2111516 0.21145636
-0.1133851 0.35607299 0.21702996
0.16231418 0.35607299 0.21023545
-0.19768393 -0.35607299 0.22975545
-0.034149185 -0.35607299 0.22689623
-0.24925101 -0.21398978 0.22762991
-0.24925099 0.18422945 0.22520246
0.23668399 0.19744484 0.22512171
0.048181504 0.35607299 0.22148663
-0.22842373 -0.35607299 0.23587836
-0.024653785 -0.35607299 0.23489815
0.15790951 -0.35607299 0.23776481
0.16707246 -0.35607299 0.23862717
0.23311514 -0.31038505 0.23359568
-0.24925099 -0.26615015 0.23047641
0.23668399 -0.26295263 0.23193456
-0.24925099 -0.17752919 0.23189673
0.23668399 0.052693047 0.23507792
-0.24925098 0.13560721 0.23003879
0.24506199 0.23789883 0.23324835
-0.23871033 -0.35125491 0.24715598
0.069711171 -0.35251734 0.24715599
0.13510604 -0.3533698 0.24715601
0.17234755 -0.35286176 0.24715598
-0.16208969 -0.34214661 0.24715599
0.093065731 -0.34733421 0.24715599
0.15354367 -0.34682643 0.24715599
0.22909144 -0.34861115 0.24339129
-0.11938748 -0.3397288 0.24715599
0.10059341 -0.32580623 0.24715599
0.14698625 -0.3209103 0.24715599
0.2181851 -0.32605907 0.24715599
-0.13724293 -0.31586957 0.24715599
0.13287337 -0.31913283 0.24715599
0.096413918 -0.30362365 0.24715599
0.11560716 -0.30160844 0.24715601
-0.19923472 -0.29281518 0.24715599
-0.14992954 -0.29667541 0.24715599
-0.064645484 -0.29358202 0.24715599
-0.02096279 -0.29910952 0.24715599
-0.13253804 -0.28795812 0.24715599
0.10887016 -0.28766137 0.24715599
0.18078895 -0.28116783 0.24715599
-0.2019027 -0.27629226 0.24715599
-0.074146554 -0.2799978 0.24715599
0.2048848 -0.27170658 0.24715599
-0.17863084 -0.26771507 0.24715599
-0.11884399 -0.26752502 0.24715599
-0.094371468 -0.26160645 0.24715599
0.05852282 -0.26254952 0.24715599
-0.14521563 -0.25039971 0.24715599
-0.13404052 -0.25723624 0.24715599
0.20019132 -0.25640747 0.24715599
0.12291439 -0.24961498 0.24715598
0.20659441 -0.24780467 0.24715599
0.21995577 -0.2484106 0.24715599
-0.17104688 -0.23376648 0.24715599
-0.16592237 -0.23327416 0.24715599
0.017878301 -0.23858696 0.24715599
0.063906804 -0.23921978 0.24715599
-0.17965135 -0.22887172 0.24715599
-0.002259627 -0.2201747 0.24715599
0.11464566 -0.22388211 0.24715599
0.032146901 -0.21473496 0.24715599
0.12147097 -0.21452391 0.24715599
0.18683864 -0.21032575 0.24715599
-0.12778884 -0.18402135 0.24715599
0.06200555 -0.18652345 0.24715599
0.19560066 -0.18310615 0.24715599
-0.23544434 -0.17470106 0.24715599
-0.17092085 -0.17071792 0.24715599
-0.17661151 -0.16735792 0.24715599
-0.13217948 -0.16572836 0.24715599
0.04261665 -0.16248578 0.24715599
0.1171072 -0.16845712 0.24715599
-0.030144013 -0.1556966 0.24715599
0.012464859 -0.15932831 0.24715599
0.14252487 -0.15374635 0.24715599
-0.14190516 -0.13260427 0.24715599
-0.11560402 -0.1318683 0.24715599
0.071016192 -0.13630033 0.24715599
0.12361407 -0.12647699 0.24715599
-0.20013112 -0.11247912 0.24715599
-0.17219065 -0.10883227 0.24715599
-0.019489927 -0.1048461 0.24715599
0.19340858 -0.10443292 0.24715599
-0.24925099 -0.091290057 0.24503329
-0.15975252 -0.093266152 0.24715599
-0.1207421 -0.094844609 0.24715599
0.083110556 -0.091646679 0.24715599
-0.20305043 -0.083436072 0.24715599
-0.080183901 -0.080920726 0.24715599
0.060886838 -0.081773371 0.24715599
-0.22501436 -0.074619368 0.24715599
-0.16378297 -0.075202174 0.24715599
0.057171464 -0.076300964 0.24715599
0.20136967 -0.076526679 0.24715599
-0.21972108 -0.064892687 0.24715599
0.074141555 -0.068548858 0.24715599
0.12178528 -0.065881975 0.24715599
0.20998913 -0.060193866 0.24715599
0.21937072 -0.069507957 0.24715599
-0.14474392 -0.052522503 0.24715599
0.098079219 -0.052211978 0.24715599
0.21778253 -0.051460583 0.24715599
0.2204296 -0.055779666 0.24715599
-0.046406973 -0.046740562 0.24715599
0.0010874048 -0.045810565 0.24715599
0.02123668 -0.046707541 0.24715599
0.088906392 -0.043794587 0.24715599
-0.20570303 -0.038886547 0.24715599
-0.02493193 -0.033454746 0.24715599
0.083418608 -0.037998773 0.24715599
0.16173221 -0.032917611 0.24715599
-0.13159581 -0.023936816 0.24715599
-0.073983923 -0.028715305 0.24715599
-0.21598455 -0.019613268 0.24715599
-0.16060215 -0.012414895 0.24715599
0.00087476522 -0.013443932 0.24715599
0.17379986 -0.012839735 0.24715599
-0.19661416 0.0089260973 0.24715599
0.057319015 0.00058893487 0.24715599
0.17308226 0.0069850236 0.24715599
-0.18869279 0.015404765 0.24715599
0.011267625 0.017964214 0.24715599
0.11591428 0.012852386 0.24715599
-0.050721057 0.022150055 0.24715599
0.01097092 0.025461048 0.24715599
0.21544649 0.022730932 0.24715599
-0.012791418 0.032221351 0.24715599
-0.029904462 0.040582046 0.24715598
0.095087804 0.045394734 0.24715599
-0.24643949 0.057080954 0.24715599
0.16726124 0.057583712 0.24715599
0.1829704 0.058179803 0.24715599
-0.19103701 0.064270318 0.24715599
0.074359603 0.062162962 0.24715599
0.10307984 0.072588876 0.24715599
0.11487708 0.07891646 0.24715599
-0.073514968 0.081039578 0.24715599
0.015424713 0.083788045 0.24715599
0.094108924 0.088528603 0.24715599
0.1541246 0.09112148 0.24715599
-0.20991662 0.10797168 0.24715599
0.10652536 0.1005009 0.24715599
-0.17414577 0.12286711 0.24715599
-0.13369766 0.12770185 0.24715599
-0.10320526 0.12597969 0.24715599
-0.084780052 0.12318753 0.24715599
0.094716899 0.13197489 0.24715599
0.1599448 0.13803969 0.24715599
0.16692814 0.13472356 0.24715599
0.22970322 0.13142683 0.24715599
0.22480042 0.14313392 0.24715599
0.026183449 0.1575256 0.24715599
0.22633959 0.15323502 0.24715599
-0.088325158 0.16200799 0.24715598
0.043033607 0.16555223 0.24715599
-0.064972706 0.1718916 0.24715599
0.11229649 0.17796868 0.24715599
0.18986295 0.17388475 0.24715599
0.017569553 0.18912145 0.24715599
0.058418542 0.18203188 0.24715599
-0.20883596 0.19617446 0.24715599
-0.023824681 0.19629471 0.24715599
-0.079601035 0.20072819 0.24715599
0.035194442 0.20970219 0.24715599
0.046983115 0.20209908 0.24715599
-0.040657595 0.2182401 0.24715599
0.031532768 0.21400896 0.24715599
0.23668399 0.2167092 0.24447615
-0.18029602 0.22515823 0.24715599
-0.15995356 0.22099981 0.24715599
-0.1454808 0.23663725 0.24715599
-0.092888571 0.23597698 0.24715599
0.17623465 0.23957288 0.24715599
0.20460457 0.23056287 0.24715599
-0.12857319 0.24753098 0.24715599
-0.026666641 0.24053474 0.24715598
0.052777193 0.24820751 0.24715599
0.20750721 0.24685735 0.24715599
0.093160972 0.25574753 0.24715599
0.17670016 0.26134634 0.24715599
-0.19841655 0.27434039 0.24715599
-0.18958162 0.27230561 0.24715599
0.15082192 0.27505159 0.24715599
0.1720655 0.27870929 0.24715599
0.23489834 0.27996826 0.24715599
-0.23883338 0.28993958 0.24715599
-0.20191067 0.28111035 0.24715599
-0.11342193 0.28459615 0.24715599
-0.033455253 0.28461206 0.24715599
0.058367625 0.28973445 0.24715599
0.093413159 0.28973922 0.24715599
0.12323382 0.28610861 0.24715599
0.151838 0.28934553 0.24715599
-0.13831402 0.29531765 0.24715599
0.074774489 0.29426479 0.24715599
-0.12339088 0.30745435 0.24715599
0.16548905 0.30664235 0.24715599
-0.24860623 0.31707051 0.24715599
-0.18589796 0.31834823 0.24715599
-0.11056857 0.31397459 0.24715599
-0.093199603 0.31059849 0.24715598
-0.085388973 0.31104299 0.24715599
0.080749258 0.3119739 0.24715599
0.16551337 0.3138057 0.24715599
0.2113889 0.31270653 0.24715599
-0.1441922 0.33719113 0.24715599
-0.09303005 0.33679441 0.24715599
-0.038402431 0.33278555 0.24715599
0.07776925 0.33332556 0.24715599
0.21801801 0.33409071 0.24715599
-0.024324857 0.34280977 0.24715599
-0.017151415 0.34150431 0.24715599
0.047111984 0.35607299 0.24223638
0.15887055 0.35607302 0.24511528
