# .PCD v0.7 - Point Cloud Data file format
VERSION 0.7
FIELDS x y z
SIZE 4 4 4
TYPE F F F
COUNT 1 1 1
WIDTH 971
HEIGHT 1
VIEWPOINT 0 0 0 1 0 0 0
POINTS 971
DATA ascii
-0.126816 -0.2903035 -0.36292499
-0.023670506 -0.292429 -0.36053866
0.022654563 -0.28201282 -0.36292499
-0.17721024 -0.26958901 -0.36292499
0.1180898 -0.26793203 -0.36292499
0.053962171 -0.25404069 -0.36292499
0.058394346 -0.24526915 -0.36292499
0.1276648 -0.24712983 -0.36292499
-0.085075676 -0.22267744 -0.36292499
0.086328529 -0.22251883 -0.36292499
-0.14317524 -0.21234088 -0.36292499
-0.12246602 -0.21451001 -0.36292499
-0.0060275942 -0.21271542 -0.36292499
-0.049686965 -0.20685197 -0.36292499
0.050165184 -0.20936619 -0.36292499
0.12915772 -0.20083839 -0.36292499
-0.093934126 -0.19666156 -0.36292499
-0.085818097 -0.19300775 -0.36292499
-0.10815728 -0.1725255 -0.36292499
0.064497314 -0.16169314 -0.36292499
0.18083924 -0.16922109 -0.36029291
-0.10044239 -0.1510635 -0.36292499
-0.16795486 -0.1495645 -0.36292499
-0.084540293 -0.14399381 -0.36292499
0.16077717 -0.14017533 -0.36292499
0.10982325 -0.12192485 -0.36292499
0.1467891 -0.11376663 -0.36292499
-0.1453118 -0.10325202 -0.36292499
0.12698793 -0.10218114 -0.36292499
-0.13439119 -0.098950326 -0.36292499
-0.030606192 -0.094474584 -0.36292499
-0.0010415316 -0.093272656 -0.36292499
0.042133156 -0.094656661 -0.36292499
0.18047708 -0.096278168 -0.36106324
-0.10130981 -0.086840034 -0.36292499
-0.073741451 -0.088970959 -0.36292499
0.0060772821 -0.086156622 -0.36292499
0.098941773 -0.081101887 -0.36292499
-0.13156256 -0.07520324 -0.36292499
-0.12981883 -0.076731034 -0.36292499
0.014687046 -0.070188582 -0.36292499
-0.10174905 -0.068049461 -0.36292499
-0.036647841 -0.06348002 -0.36292499
0.056659065 -0.068157561 -0.36292499
0.064846464 -0.062296964 -0.36292499
0.11094587 -0.069794394 -0.36292499
-0.044544674 -0.054988116 -0.36292499
-0.026855035 -0.058654372 -0.36292499
0.14048073 -0.05534815 -0.36292499
-0.15381639 -0.046002835 -0.36292499
-0.14730318 -0.048673615 -0.36292499
0.10224215 -0.033248369 -0.36292499
-0.17379519 -0.022067323 -0.36292499
-0.091153629 -0.020690314 -0.36292499
0.026594549 -0.023037188 -0.36292499
-0.0010806024 -0.014961235 -0.36292499
0.083489433 -0.013780802 -0.36292499
-0.15115425 0.0010322556 -0.36292499
0.052133985 0.0063861459 -0.36292499
0.12094782 0.026469208 -0.36292499
-0.181027 0.0548767 -0.36122841
-0.0047571808 0.057287559 -0.36292499
0.044106908 0.052075967 -0.36292499
-0.054461993 0.079184137 -0.36292499
-0.042524543 0.085965954 -0.36292499
0.095416561 0.086080007 -0.36292499
-0.048999909 0.094849557 -0.36292499
0.12054145 0.094353795 -0.36292499
0.11070302 0.10256604 -0.36292499
0.13696648 0.10807618 -0.36292499
-0.1668655 0.12685561 -0.36292499
-0.10591106 0.12731536 -0.36292499
-0.079227403 0.13928032 -0.36292499
-0.0093491934 0.13680965 -0.36292499
0.077586114 0.13364246 -0.36292499
0.10851552 0.13634029 -0.36292499
-0.1184256 0.15681031 -0.36292499
-0.048109811 0.15812376 -0.36292499
0.10640521 0.15795429 -0.36292496
0.1427643 0.16725126 -0.36292499
-0.16496365 0.17359257 -0.36292499
-0.022969488 0.17919064 -0.36292499
0.18088892 0.18473174 -0.36011651
-0.18027653 0.21213385 -0.36292499
-0.15645671 0.21635441 -0.36292499
-0.181027 0.23833436 -0.36180529
-0.17479688 0.27326542 -0.36292499
-0.16995868 -0.292429 -0.35027534
0.14043406 -0.292429 -0.35704374
0.181027 -0.24632376 -0.35628539
0.181027 0.011991583 -0.35335204
-0.181027 0.1052361 -0.3585158
0.181027 0.15385699 -0.35324934
0.181027 -0.18693112 -0.34368119
0.181027 -0.026972808 -0.34796244
0.181027 0.046524547 -0.34806332
-0.074502327 0.208877 -0.34414613
0.030563768 0.208877 -0.3484751
0.18005982 0.20779797 -0.34118718
-0.181027 0.24893066 -0.3412815
0.181027 -0.24037224 -0.33113718
-0.181027 -0.23140711 -0.33812675
-0.181027 -0.11644098 -0.33023119
0.181027 -0.083623044 -0.33863059
-0.181027 -0.079264365 -0.33024937
-0.181027 -0.0051640123 -0.3327111
0.18102698 0.10668047 -0.3395938
0.181027 0.14654869 -0.33088824
0.07156425 0.208877 -0.33007142
0.095842838 0.208877 -0.33518639
-0.181027 -0.27977708 -0.32484329
0.181027 -0.18195799 -0.32041612
0.181027 -0.15436171 -0.32345352
-0.181027 0.017527148 -0.32201996
0.181027 0.087223098 -0.32299697
0.181027 0.090256788 -0.32481128
-0.037755664 0.208877 -0.32949579
0.035771064 0.208877 -0.32713979
0.077590525 0.208877 -0.32317924
0.10478872 0.208877 -0.32600534
0.11815836 0.208877 -0.32968795
0.12467068 0.208877 -0.3271482
0.13341552 0.208877 -0.32747075
-0.12021318 -0.292429 -0.31841171
-0.181027 -0.12557617 -0.31644407
0.181027 0.16709445 -0.31944096
-0.181027 0.2053398 -0.31165141
0.12583736 0.208877 -0.31558162
-0.181027 0.2436443 -0.31425661
-0.13202612 0.24739233 -0.31609529
-0.181027 -0.22056387 -0.30788147
0.181027 -0.12040457 -0.3085373
0.181027 -0.11641652 -0.30038461
-0.181027 -0.058566533 -0.30889952
0.181027 0.061599001 -0.30407199
-0.17034543 0.292429 -0.30791613
0.15362453 -0.292429 -0.29707617
0.181027 -0.24164568 -0.29683653
0.181027 -0.14048614 -0.29429933
0.181027 -0.10773183 -0.29761174
0.181027 0.080721319 -0.29996303
0.181027 0.094945028 -0.29525867
0.181027 0.15444702 -0.29415342
0.181027 0.18087862 -0.29790437
-0.020528236 0.208877 -0.29112032
-0.087152727 -0.292429 -0.28352651
0.17108893 -0.292429 -0.28149423
0.181027 -0.20037887 -0.28281862
0.181027 -0.14946175 -0.28418672
0.181027 -0.11664595 -0.28009245
-0.010445748 0.208877 -0.28751218
0.11139683 0.208877 -0.28070202
-0.147429 -0.292429 -0.27645737
0.078768671 -0.292429 -0.27988556
0.16103098 -0.292429 -0.2778866
0.181027 -0.2709797 -0.27589646
-0.181027 0.061678953 -0.27412564
0.181027 0.08186812 -0.27846384
-0.181027 -0.29208735 -0.26881123
-0.15657499 -0.292429 -0.26803631
-0.181027 -0.052670024 -0.26801246
0.181027 0.058594242 -0.26228327
0.10798299 0.208877 -0.26995841
-0.12864897 0.24927226 -0.26220357
-0.181027 0.27629212 -0.26751822
0.181027 -0.10163585 -0.25857031
-0.181027 -0.09427949 -0.25713602
0.181027 0.11248817 -0.2579155
0.181027 0.16200663 -0.25953788
0.039927855 0.208877 -0.25305453
0.11715062 0.208877 -0.25356087
-0.13073327 0.24553649 -0.25522825
-0.17132002 -0.292429 -0.24237299
0.13897859 -0.292429 -0.24017513
0.16492659 -0.292429 -0.2439279
0.181027 -0.28855866 -0.24497887
-0.181027 0.20278442 -0.24848108
0.10438267 0.208877 -0.24566966
-0.181027 0.0082020015 -0.23036662
-0.181027 0.024825446 -0.2385978
0.181027 0.056719262 -0.23121348
0.181027 0.10786682 -0.23468675
0.181027 0.1907424 -0.23788527
0.0039100023 0.208877 -0.23827495
-0.045569818 -0.292429 -0.22904123
0.11353016 -0.292429 -0.22287795
-0.181027 -0.26570827 -0.22068918
0.181027 -0.18375987 -0.22263178
-0.181027 -0.087211497 -0.22080393
-0.181027 -0.068181545 -0.22659282
0.181027 0.014951937 -0.22321591
0.13838008 0.208877 -0.22973479
0.148471 0.20659256 -0.2209135
-0.12397923 0.23583649 -0.22749893
-0.181027 -0.061273322 -0.21216282
-0.181027 -0.027325433 -0.21667922
0.181027 0.19852924 -0.21820743
0.0051255105 0.208877 -0.21744908
0.080954663 0.208877 -0.2138548
-0.12622467 0.23906082 -0.21443298
-0.181027 0.25770479 -0.21596485
-0.14938186 0.27231506 -0.21920472
0.09650138 -0.292429 -0.20396741
-0.181027 -0.28607702 -0.20564392
0.181027 -0.26207474 -0.20026031
-0.181027 -0.19759977 -0.20630267
0.181027 -0.1844793 -0.2010182
-0.181027 -0.12831119 -0.20830461
0.181027 0.19669552 -0.20680644
-0.087429181 0.208877 -0.20565331
-0.040963717 0.208877 -0.20435925
0.12089201 0.208877 -0.20445585
-0.181027 0.25668496 -0.20294188
0.069289193 -0.292429 -0.19669229
0.181027 -0.079609066 -0.19066168
0.181027 -0.030979257 -0.195576
-0.181027 0.10323292 -0.19117157
-0.181027 0.12587383 -0.19902501
-0.098587438 0.208877 -0.19980465
-0.02291094 0.208877 -0.19987161
0.035737317 0.208877 -0.19397344
-0.181027 0.21933772 -0.19492608
-0.17369151 -0.292429 -0.18381925
-0.10057695 -0.292429 -0.18896887
-0.091349609 -0.292429 -0.18932027
-0.017964285 -0.292429 -0.18045475
0.009083584 -0.292429 -0.18482535
0.075209446 -0.292429 -0.1864243
0.10620483 -0.292429 -0.18957084
0.11268246 -0.292429 -0.18116844
0.181027 -0.28013426 -0.18835914
0.181027 -0.092012279 -0.18874215
0.181027 -0.064385958 -0.18215667
0.1616641 0.208877 -0.18217814
0.063687846 -0.292429 -0.17004634
0.12308265 -0.292429 -0.17826995
-0.181027 -0.26899847 -0.17764539
0.181027 0.02526895 -0.17647769
0.181027 0.10962878 -0.17226662
-0.181027 0.19594973 -0.17473125
0.181027 0.19544098 -0.17433549
-0.181027 0.20083302 -0.17274615
0.00029973499 0.208877 -0.17848338
-0.181027 -0.27818704 -0.16126595
0.181027 -0.26313162 -0.16029437
-0.181027 -0.062235855 -0.16193114
-0.181027 -0.050823763 -0.16335636
0.181027 0.0044322023 -0.16714902
-0.181027 0.099277362 -0.16296206
0.14769915 0.208877 -0.1654769
-0.181027 0.23301409 -0.1693882
-0.14856359 0.27114028 -0.16596696
-0.181027 0.28131205 -0.16879162
-0.16930154 -0.292429 -0.15173823
-0.181027 -0.13137177 -0.15029424
-0.181027 -0.11937584 -0.1588192
-0.181027 -4.0069222e-05 -0.15231928
-0.181027 0.014902859 -0.1567398
0.181027 0.032680493 -0.15553257
0.181027 0.070612088 -0.15289567
-0.12424647 0.23622033 -0.15058629
-0.10949626 -0.292429 -0.14531966
0.11018848 -0.292429 -0.14507991
0.181027 -0.047693189 -0.14797519
-0.181027 -0.012779951 -0.14968736
0.004724443 -0.292429 -0.13977414
0.181027 -0.2733238 -0.13639228
-0.181027 -0.087662213 -0.13330869
-0.181027 -0.0088912509 -0.13557176
-0.181027 0.049359187 -0.13274947
-0.13965361 0.25834349 -0.13192114
-0.17672479 0.292429 -0.13705
-0.14762485 -0.292429 -0.125543
-0.096965134 -0.292429 -0.12189177
0.014833871 -0.292429 -0.12025426
0.181027 -0.26411864 -0.12825981
0.181027 -0.25918478 -0.12631471
0.181027 -0.19691627 -0.12401556
-0.181027 -0.022519633 -0.12658113
-0.181027 0.044481918 -0.12835585
-0.181027 0.116986 -0.12312769
0.181027 0.14810982 -0.1233981
-0.022981633 0.208877 -0.12297071
-0.16957343 -0.292429 -0.11057122
-0.181027 -0.2365941 -0.11827485
0.181027 -0.007052023 -0.11963734
-0.181027 0.042569578 -0.11340453
-0.181027 0.10079632 -0.11040439
0.181027 0.17818259 -0.11319618
-0.15858829 -0.292429 -0.10634877
-0.0082118101 -0.292429 -0.10816705
0.04440457 -0.292429 -0.10644947
0.050842576 -0.292429 -0.10833985
-0.181027 -0.11321713 -0.10181198
0.181027 -0.11576643 -0.1035756
0.181027 0.087664545 -0.10594299
0.181027 0.10323744 -0.10807996
-0.123307 0.23487118 -0.10655324
-0.1595585 0.28692928 -0.10083894
-0.14762725 -0.292429 -0.098499201
-0.038289763 -0.292429 -0.091039643
-0.181027 -0.27570599 -0.099769436
-0.181027 0.10295898 -0.093495011
0.0029161004 0.208877 -0.091461144
0.022854092 0.208877 -0.095192373
0.12205215 0.208877 -0.090692557
-0.181027 0.23650439 -0.098477781
-0.181027 0.28941894 -0.094428167
0.181027 -0.28867316 -0.08870329
-0.181027 -0.060733613 -0.080894478
0.181027 0.090888768 -0.086256757
-0.060175676 0.208877 -0.084140919
-0.013392752 0.208877 -0.087532833
0.034047201 0.208877 -0.088481322
-0.14579919 -0.292429 -0.075487293
0.061941985 -0.292429 -0.075193867
0.181027 -0.28554922 -0.074589707
0.181027 -0.062364787 -0.076281607
-0.181027 -0.014756292 -0.078813955
-0.181027 0.014206037 -0.077983715
-0.181027 0.13704443 -0.072307035
0.181027 0.15060098 -0.072683215
-0.044823565 0.208877 -0.07570231
0.11206761 0.20887701 -0.076110564
-0.181027 -0.29204741 -0.069541767
-0.181027 -0.11591569 -0.063433811
-0.181027 -0.093485616 -0.063747123
-0.181027 -0.0834416 -0.06868466
0.181027 -0.025180921 -0.067693524
0.181027 0.035052925 -0.068842486
0.181027 0.12859134 -0.06699346
-0.181027 0.13503218 -0.060876213
-0.181027 0.21625721 -0.064748272
-0.1223418 0.2334851 -0.068449147
-0.181027 0.26472253 -0.069822304
-0.10280925 -0.29242897 -0.052808404
-0.002037039 -0.292429 -0.05671576
0.181027 -0.22952382 -0.050373487
0.181027 -0.21286951 -0.057778902
0.181027 -0.15064794 -0.051289916
-0.181027 0.045409381 -0.057703052
0.181027 0.060537837 -0.055027481
0.181027 0.086892724 -0.056076605
-0.181027 0.18439534 -0.056395818
0.1657275 0.208877 -0.057459973
-0.030734498 -0.292429 -0.041512374
0.10416071 -0.292429 -0.049434178
0.181027 -0.20761906 -0.043722875
-0.181027 -0.15998784 -0.041150182
-0.181027 -0.023396 -0.041241847
-0.181027 -0.0021133572 -0.049415894
0.181027 0.088302888 -0.0407812
-0.181027 0.13717164 -0.042061903
-0.181027 0.26871485 -0.041464686
-0.16203217 -0.292429 -0.030579478
-0.12637495 -0.292429 -0.03881225
0.181027 -0.28476053 -0.039598905
0.181027 -0.18305093 -0.039160974
0.181027 -0.1773243 -0.0333299
0.181027 -0.047531817 -0.031961795
-0.181027 0.058623761 -0.032293916
-0.181027 0.10454481 -0.033358373
-0.181027 0.13058181 -0.039114051
0.181027 0.13473527 -0.034344051
-0.073958106 0.208877 -0.039072335
0.071026325 0.208877 -0.031320941
-0.12359041 0.23527807 -0.037736319
-0.12088983 -0.292429 -0.020226676
0.181027 -0.28278571 -0.026251052
-0.181027 -0.08223474 -0.025073959
0.181027 0.057005674 -0.025877545
-0.181027 0.074124306 -0.020247156
-0.181027 0.089180179 -0.027672445
-0.181027 0.181136 -0.026001181
-0.091080174 0.208877 -0.024266515
-0.11783133 -0.292429 -0.012695419
0.12736334 -0.292429 -0.016101018
0.13506663 -0.292429 -0.012479169
0.181027 -0.16439243 -0.010090238
-0.181027 -0.041212223 -0.013960481
-0.181027 -0.023874491 -0.01003812
0.181027 -0.0067413077 -0.017553236
0.181027 0.030018114 -0.017900491
-0.089870378 0.208877 -0.019327767
0.14915131 0.208877 -0.019210063
-0.181027 0.23908831 -0.014028528
-0.13223384 0.24769023 -0.01054222
-0.12918001 0.24330488 -0.013394587
-0.181027 0.25067541 -0.012178061
-0.15919153 -0.292429 -0.0074601085
-0.06376671 -0.29242897 -0.0093902834
0.028567739 -0.292429 -0.0085402736
0.0070230588 -0.28315735 -0.00087068998
-0.10828023 -0.27922964 -0.00087069004
-0.13504799 -0.26288202 -0.00087068998
0.063008308 -0.26064003 -0.00087068998
0.075931802 -0.26300013 -0.00087068998
0.084201589 -0.25840324 -0.00087068998
-0.12052017 -0.24995795 -0.00087069004
0.020048745 -0.2424742 -0.00087068998
0.081165425 -0.24246308 -0.00087068998
-0.16889721 -0.23387137 -0.00087068998
-0.13640837 -0.23834786 -0.00087068998
-0.181027 -0.22293055 -0.001765685
-0.13814615 -0.22621031 -0.00087068998
-0.073718995 -0.22229645 -0.00087068998
0.17780565 -0.22244972 -0.00088741438
-0.042071909 -0.21702561 -0.00087068998
0.019440889 -0.21166193 -0.00087068998
0.070525035 -0.20847583 -0.00087068998
-0.024632812 -0.19010842 -0.00087068998
0.032450348 -0.19607687 -0.00087068998
-0.032852285 -0.18479346 -0.00087068998
-0.015434336 -0.17076549 -0.00087068998
-0.181027 -0.16214299 -0.0014693334
0.055849716 -0.16367692 -0.00087068998
-0.026036017 -0.15924537 -0.00087068998
0.074724041 -0.15676776 -0.00087068998
0.15742044 -0.15108223 -0.00087068998
0.17546782 -0.15662332 -0.00098839984
-0.16503336 -0.1438175 -0.00087068998
0.044578753 -0.14001271 -0.00087068998
0.10113708 -0.14273904 -0.00087068998
-0.0076955445 -0.13577312 -0.00087068998
0.12737918 -0.13641477 -0.00087068998
0.15780702 -0.13240656 -0.00087068998
0.10121588 -0.1232639 -0.00087068998
-0.17211477 -0.11448266 -0.00087068998
-0.06780006 -0.11377122 -0.00087068998
-0.057066597 -0.10540197 -0.00087068998
0.003560923 -0.10208808 -0.00087068998
0.069087192 -0.10137448 -0.00087068998
-0.013489813 -0.098682582 -0.00087068998
0.013025932 -0.061314568 -0.00087068998
0.15134941 -0.065122813 -0.00087068998
-0.181027 -0.058362268 -0.004804139
0.013578221 -0.056073897 -0.00087068998
0.040919609 -0.059406072 -0.00087068998
0.181027 -0.058973484 -0.0045778072
-0.10894872 -0.048398882 -0.00087068998
0.10297339 -0.040219501 -0.00087068998
0.024784859 -0.034118012 -0.00087068998
0.16264427 -0.037867032 -0.00087068998
-0.035748128 -0.016952932 -0.00087068998
-0.13703768 -0.0075424602 -0.00087068998
-0.13637604 0.0050735697 -0.00087068998
-0.066070706 0.0025388189 -0.00087068998
-0.025483411 0.0044030994 -0.00087068998
-0.15503863 0.012992322 -0.00087068998
-0.11896282 0.013647713 -0.00087068998
0.018885432 0.014451143 -0.00087068998
0.073899604 0.018640984 -0.00087068998
0.17737105 0.016483173 -0.00087068998
0.1092963 0.02850466 -0.00087068998
0.099858269 0.0472335 -0.00087068998
0.14688256 0.042459622 -0.00087068998
-0.06889233 0.063960478 -0.00087068998
0.034195043 0.066442899 -0.00087068998
0.049519002 0.062569104 -0.00087068998
0.11826688 0.06958048 -0.00087068998
-0.047938019 0.074244015 -0.00087068998
-0.05649887 0.084484458 -0.00087068998
0.017247453 0.08512684 -0.00087068998
0.15312763 0.087921202 -0.00087068998
0.180355 0.084174871 -0.0023029596
0.034983326 0.090046436 -0.00087068998
-0.025307346 0.10042849 -0.00087068998
-0.047355808 0.11783615 -0.00087068998
0.038447727 0.11422032 -0.00087068998
0.086743705 0.11001261 -0.00087068998
-0.013794482 0.12694569 -0.00087068998
0.16848283 0.13767867 -0.00087068998
0.078523926 0.1414049 -0.00087068998
0.15473877 0.14807227 -0.00087068998
-0.1314605 0.15972319 -0.00087068998
-0.17862354 0.17959842 -0.00087068998
-0.0078544468 0.17025878 -0.00087068998
0.016689375 0.17557016 -0.00087068998
0.063016102 0.1744346 -0.00087068998
-0.10880993 0.18441577 -0.00087068998
-0.028845605 0.19982497 -0.00087068998
0.093163356 0.19131093 -0.00087068998
0.076877788 0.208877 -0.0078273471
0.083010033 0.208877 -0.0086533139
-0.15707394 0.26502401 -0.00087068998
-0.17037648 0.28747237 -0.00087068998
-0.094319388 -0.292429 0.0094350167
-0.046166196 -0.29029122 0.000869993
-0.011186369 -0.292429 0.0029240269
0.087647296 -0.27706125 0.000869993
0.10600561 -0.27276415 0.000869993
-0.15404668 -0.24619842 0.000869993
0.12711529 -0.24460585 0.000869993
-0.036777794 -0.23052949 0.000869993
0.034645997 -0.23210812 0.000869993
0.079378173 -0.22886699 0.000869993
-0.181027 -0.21016987 0.005570936
-0.060369968 -0.19801727 0.000869993
-0.18102701 -0.18732317 0.0022442969
-0.036816731 -0.18795708 0.000869993
0.0097663067 -0.17684835 0.000869993
0.068071693 -0.17642532 0.000869993
-0.060856283 -0.16780676 0.000869993
0.00428617 -0.15936849 0.000869993
0.08508946 -0.15398659 0.000869993
0.16896753 -0.15464011 0.000869993
-0.094533816 -0.14826746 0.000869993
-0.011300635 -0.14705765 0.000869993
0.093174934 -0.14131927 0.000869993
0.1587401 -0.14732081 0.000869993
0.16964023 -0.14958915 0.000869993
-0.11301038 -0.13575611 0.000869993
-0.056771267 -0.13300371 0.000869993
-0.079962671 -0.11899366 0.000869993
-0.14913315 -0.10016675 0.000869993
-0.1349958 -0.10363574 0.000869993
0.092545241 -0.1067659 0.000869993
-0.17445399 -0.096857861 0.000869993
0.14739488 -0.090272374 0.000869993
0.15140535 -0.09594965 0.000869993
0.14671196 -0.081942111 0.000869993
-0.0069708452 -0.077068068 0.000869993
0.011961527 -0.070699647 0.000869993
-0.046227034 -0.054284699 0.000869993
0.059758902 -0.052194629 0.000869993
-0.17675629 -0.042595029 0.000869993
-0.1645343 -0.045170762 0.000869993
-0.15006597 -0.040887028 0.000869993
-0.038160454 -0.049755786 0.000869993
-0.093585968 -0.023442544 0.000869993
-0.0044932663 -0.02012945 0.000869993
0.181027 -0.022529185 0.007506609
0.181027 -0.015640609 0.0058724652
0.029149063 -0.0036135465 0.000869993
0.013022997 0.0018472709 0.000869993
-0.17395511 0.023358099 0.000869993
0.0063186437 0.032563254 0.000869993
0.020423569 0.038565151 0.000869993
-0.16610751 0.04780554 0.000869993
0.014779449 0.041194074 0.000869993
0.17330797 0.044550154 0.000869993
-0.080254331 0.06786254 0.000869993
-0.082575999 0.073475644 0.000869993
0.14457282 0.079522163 0.000869993
0.181027 0.076965779 0.0099766878
0.12958974 0.087511636 0.000869993
0.14120758 0.086013384 0.000869993
-0.15697823 0.093037307 0.000869993
-0.075388588 0.0943584 0.000869993
0.1800867 0.092598476 0.0022015632
-0.17041805 0.11522071 0.000869993
-0.14962709 0.11689159 0.000869993
-0.10972609 0.1129889 0.000869993
-0.181027 0.1280286 0.0091793844
-0.14937276 0.12026463 0.000869993
0.02199766 0.12593566 0.000869993
-0.181027 0.13888165 0.0053127953
-0.047415722 0.13630512 0.000869993
0.17120884 0.13178411 0.000869993
0.017842367 0.14941375 0.000869993
0.069930986 0.14001937 0.000869993
0.090223908 0.14363033 0.000869993
0.1086576 0.14962623 0.000869993
0.072460055 0.15778124 0.000869993
-0.14962602 0.16770738 0.000869993
0.010401689 0.16557665 0.000869993
0.087397695 0.16387509 0.000869993
0.11535887 0.16117656 0.000869993
-0.11710683 0.17009327 0.000869993
0.089367405 0.17729279 0.000869993
0.1808814 0.17509779 0.0036523554
0.11766838 0.19566175 0.000869993
-0.07978113 0.20315219 0.00086999295
-0.035302278 0.208877 0.0061384621
-0.017702978 0.20291141 0.000869993
-0.12942719 0.21159558 0.000869993
-0.14498939 0.24375424 0.000869993
-0.1563777 0.25474983 0.000869993
-0.181027 0.2758857 0.0033194902
-0.13394785 -0.292429 0.0111799
-0.06760034 -0.292429 0.019465121
0.13273102 -0.292429 0.017475957
-0.181027 -0.20204434 0.018746709
-0.181027 -0.14455736 0.016257623
0.181027 -0.0084086172 0.014990408
0.181027 0.086705014 0.017479321
-0.059226513 0.208877 0.011505123
-0.029023604 0.208877 0.013952304
-0.181027 0.21123147 0.019650375
0.11738607 -0.292429 0.027410582
-0.181027 -0.25674552 0.023693588
-0.181027 -0.16316143 0.02855978
-0.181027 -0.13937841 0.027535234
0.181027 -0.11440141 0.0243981
0.181027 -0.10611066 0.022685328
0.181027 -0.16526715 0.032200608
0.181027 -0.064821169 0.033245761
-0.181027 0.056936108 0.032063201
-0.181027 0.063455641 0.033217579
-0.181027 0.071969002 0.039546616
-0.059792675 0.208877 0.033359073
-0.181027 -0.2396743 0.046371728
0.181027 -0.22939938 0.04576207
0.181027 -0.051685717 0.041250814
0.181027 0.028269382 0.046373613
-0.181027 0.097030371 0.048896786
0.095493376 0.208877 0.046326276
-0.12434958 0.2363683 0.047063034
-0.17636184 0.292429 0.049166985
-0.055757515 -0.292429 0.051874138
0.007535819 -0.292429 0.056737646
-0.181027 -0.28275889 0.057187382
0.181027 -0.28715321 0.052359387
-0.181027 -0.17221606 0.054993231
0.181027 -0.17191705 0.058946371
0.181027 -0.080344647 0.050922282
0.181027 0.15879931 0.057341293
-0.181027 0.16003317 0.054594278
-0.11208537 -0.292429 0.069127291
0.16429447 -0.292429 0.065332219
-0.181027 -0.28069732 0.06642127
-0.181027 -0.10234211 0.065539122
-0.181027 -0.099097706 0.060278159
-0.181027 -0.042062201 0.06059989
-0.181027 -0.017108589 0.069960684
0.181027 -0.017095678 0.06867522
0.181027 0.038886674 0.068698183
0.181027 0.043947399 0.061405666
-0.181027 0.1856916 0.063300923
-0.181027 0.19204156 0.063050613
-0.095088817 0.208877 0.067544475
-0.12995972 0.24899375 0.063431151
-0.181027 -0.25269482 0.078906164
-0.181027 -0.17042747 0.072833538
0.181027 -0.14717646 0.07940726
0.181027 -0.083440982 0.072067045
-0.181027 -0.059742928 0.07272625
0.025080979 0.208877 0.07120949
-0.181027 -0.29117683 0.084317066
0.03773284 -0.292429 0.081943013
0.181027 -0.20146057 0.088468596
-0.181027 -0.096741825 0.087068975
0.181027 0.071215756 0.085041746
-0.181027 0.138439 0.088341042
0.17674968 0.208877 0.080363646
-0.16330147 -0.292429 0.092215613
-0.13668901 -0.292429 0.099889606
0.12904558 -0.292429 0.092200413
0.181027 -0.15408693 0.092538074
-0.181027 -0.12725374 0.09307947
-0.181027 -0.072716355 0.099289715
0.181027 0.069433272 0.091511935
0.181027 0.10129128 0.096394405
-0.181027 0.19188538 0.095104508
0.16430639 0.208877 0.094066843
-0.11881047 0.22841433 0.099363476
-0.12656628 0.24068174 0.094716989
0.11814928 -0.292429 0.10886256
0.181027 -0.05082275 0.10863314
-0.181027 0.14265572 0.10274134
0.11738846 0.208877 0.1083125
0.181027 -0.20717554 0.11638197
0.181027 -0.18249641 0.11258136
-0.181027 -0.16256474 0.11091732
0.181027 -0.14828706 0.11247523
-0.181027 0.056212008 0.11485564
-0.181027 0.15593103 0.11448149
-0.11063489 0.21667476 0.11948127
-0.13287897 0.24861734 0.11157311
-0.181027 0.28384143 0.11260241
-0.093359731 -0.292429 0.12868813
0.15136378 -0.292429 0.12877809
-0.181027 -0.22955009 0.12714532
0.181027 -0.1838727 0.12918177
0.181027 -0.15189376 0.12026615
0.181027 -0.12578318 0.12477964
-0.181027 0.0042420737 0.12859374
0.181027 0.044398263 0.127047
0.018370701 0.208877 0.12410194
0.054397732 0.208877 0.12618339
-0.181027 0.22808087 0.1247131
-0.025103536 -0.292429 0.13254619
0.11842811 -0.292429 0.13373294
0.181027 -0.21521123 0.13695538
0.181027 -0.069575965 0.13811707
-0.181027 -0.012607157 0.13947859
0.181027 0.070653081 0.1375995
-0.181027 0.12970714 0.1336785
0.181027 0.15809177 0.13499402
-0.181027 0.17804633 0.13448098
0.181027 0.19312878 0.13408773
-0.050679978 0.208877 0.13987303
-0.028561374 0.208877 0.13032782
0.073398322 0.208877 0.13867921
-0.11611386 0.22454286 0.13209355
-0.10812461 -0.292429 0.14578518
-0.181027 -0.25239956 0.14883611
-0.181027 0.14169449 0.1407574
-0.181027 0.18304059 0.14366472
0.062687129 0.208877 0.14182989
-0.181027 0.2557247 0.14590456
-0.181027 0.26210436 0.14201745
-0.14228144 -0.292429 0.1532224
-0.1021971 -0.292429 0.15837379
0.181027 -0.21575662 0.1555911
0.181027 -0.1892972 0.15504783
-0.181027 -0.17235418 0.15017578
0.181027 -0.17582117 0.15885711
-0.181027 -0.021256015 0.15860741
-0.181027 0.037595917 0.15813458
-0.181027 0.15944862 0.15519506
0.181027 0.17784908 0.15331492
-0.063264579 0.208877 0.15480141
0.052504174 -0.292429 0.16828446
0.10408791 -0.292429 0.16727699
-0.181027 -0.154881 0.16143104
-0.181027 -0.14978528 0.16208518
-0.181027 -0.046946131 0.16575339
-0.181027 0.14315636 0.16972801
-0.071384832 0.208877 0.16461051
0.15778096 0.208877 0.16965804
-0.16872138 -0.292429 0.17116451
-0.1055797 -0.292429 0.17867045
0.026726583 -0.292429 0.17643085
0.181027 -0.2498849 0.17465717
-0.181027 -0.083635435 0.17775886
0.181027 -0.031866629 0.1725048
0.181027 0.037467405 0.17200126
-0.072463959 0.208877 0.17595039
0.053586416 0.208877 0.17115897
-0.12430479 0.23630422 0.17020428
-0.181027 0.24772537 0.17192611
-0.16552329 0.292429 0.17934357
-0.017791562 -0.292429 0.18511727
0.0205587 -0.292429 0.18706989
0.181027 -0.19965285 0.18463305
-0.181027 -0.13807696 0.18985988
0.181027 -0.12302038 0.1870528
0.181027 -0.0030272519 0.18798783
0.181027 0.12680413 0.1881277
0.181027 0.14260618 0.18834259
-0.10979113 -0.292429 0.1954008
-0.071529597 -0.292429 0.19476181
-0.181027 -0.085030943 0.195104
0.181027 -0.087503836 0.1945532
-0.181027 0.04294166 0.19315857
0.0020540338 0.208877 0.19973457
-0.13330531 0.26141298 0.19326925
0.14573643 -0.292429 0.2020396
0.181027 -0.16462085 0.20445596
0.181027 -0.15481845 0.20033813
-0.181027 -0.021663114 0.20719193
-0.050095953 0.208877 0.20579702
0.01673203 0.208877 0.20704557
0.12932372 0.208877 0.20962991
-0.11005649 0.21584412 0.20052829
-0.10941887 0.21492846 0.20327865
-0.181027 -0.29167446 0.21088888
0.15479258 -0.292429 0.2126995
-0.181027 -0.27431622 0.21371083
-0.181027 0.018108156 0.2161286
0.181027 0.17765278 0.2124365
-0.036479041 0.208877 0.21067031
-0.181027 0.21681204 0.21457252
-0.17698061 -0.29242897 0.22726175
-0.056391202 -0.292429 0.22656178
0.11143474 -0.292429 0.22604041
0.13676351 -0.292429 0.22345935
-0.181027 -0.20411633 0.22735026
-0.181027 -0.19262283 0.22599854
-0.181027 -0.16143242 0.22273719
-0.181027 -0.074114822 0.22155121
-0.181027 0.026098981 0.22715442
-0.181027 0.062415451 0.22847702
0.0038567781 0.208877 0.22521538
-0.14485145 -0.292429 0.23369756
-0.0062128324 -0.292429 0.23895687
0.16173241 -0.292429 0.2336836
0.181027 -0.23319414 0.23140347
-0.181027 -0.12517282 0.2397463
0.181027 -0.081491821 0.23276712
-0.181027 0.016159037 0.23093711
0.181027 0.057059422 0.23944828
-0.181027 0.076665096 0.2307916
0.181027 0.16292685 0.23582724
0.10608963 0.208877 0.2392332
-0.15446065 0.27960798 0.23784876
-0.097050145 -0.292429 0.24806528
0.08798404 -0.292429 0.24404272
0.181027 -0.00068145245 0.24866581
-0.181027 0.14576085 0.24682114
-0.181027 0.19588149 0.2443631
0.062028449 0.208877 0.24250153
-0.12767223 0.24113986 0.2478233
0.083442658 -0.292429 0.25960812
-0.181027 -0.23419058 0.25076827
-0.181027 -0.12890503 0.25286409
-0.181027 0.045591626 0.25374615
-0.053066216 0.208877 0.25688061
-0.13962749 0.25830817 0.25171754
0.052771091 -0.292429 0.26509216
0.181027 -0.22617546 0.26671562
0.181027 -0.15825912 0.26673546
-0.181027 -0.058994461 0.26215646
0.089684114 0.208877 0.26092023
-0.181027 0.031617999 0.27507967
-0.181027 0.09213043 0.27153099
-0.024403196 0.208877 0.27244216
0.0020141453 0.208877 0.27276698
-0.11778285 0.2269389 0.27936488
-0.12825291 0.24197291 0.27849695
-0.181027 0.011197105 0.28622645
-0.181027 0.063122347 0.28647527
-0.181027 0.092095524 0.28340197
0.0017476566 0.208877 0.28010491
0.082758695 0.208877 0.28032812
-0.181027 0.23886733 0.28163257
-0.12786554 -0.292429 0.29763243
0.14444223 -0.292429 0.29526347
-0.181027 -0.17020616 0.29876241
0.181027 0.032033026 0.29713589
-0.181027 0.059970789 0.29909733
-0.181027 0.15955977 0.29935241
-0.181027 0.20350249 0.29636791
0.14774135 0.208877 0.29389593
-0.12806073 0.2493166 0.29328889
-0.15132648 0.27510741 0.29798204
0.181027 -0.23521602 0.30369687
-0.181027 -0.071291178 0.30562812
-0.181027 0.030831084 0.30344594
-0.181027 0.2014619 0.30847809
-0.065417521 0.20887698 0.30912524
-0.02311049 -0.292429 0.31205145
0.028771684 -0.29242903 0.31723851
-0.181027 -0.14915735 0.31602448
-0.181027 0.070576437 0.31917018
-0.026667634 0.208877 0.31931022
0.14696223 0.208877 0.31747368
-0.12155522 0.23235621 0.31991518
-0.13208805 0.24748044 0.31211144
-0.11024092 -0.292429 0.329025
0.070723757 -0.292429 0.32603693
0.181027 -0.13680667 0.32294458
-0.181027 -0.1208428 0.32009476
0.181027 0.075114667 0.32478976
-0.181027 0.16209583 0.32210043
-0.181027 0.22595628 0.32137212
-0.181027 0.23028593 0.32481396
-0.1501288 0.27338746 0.32208613
-0.058535088 -0.292429 0.33047247
-0.181027 -0.065518208 0.33419338
0.181027 -0.05477969 0.33209133
-0.181027 0.010684617 0.33170798
0.181027 0.039946236 0.33902538
0.024663877 0.208877 0.33585805
0.091627344 0.208877 0.33781794
-0.181027 0.22564796 0.33804491
-0.13715789 0.2547611 0.33804002
0.047225785 -0.29242897 0.34084377
0.181027 -0.20421764 0.34852353
0.181027 0.012174267 0.34442922
-0.181027 0.053265773 0.34336919
-0.181027 0.17887783 0.34479824
-0.181027 0.20495068 0.34895375
-0.181027 0.28814805 0.34309611
0.11960697 -0.292429 0.35056537
-0.181027 -0.132579 0.3503876
0.181027 -0.13736141 0.35742927
0.181027 -0.033341005 0.35815567
-0.181027 0.098318219 0.35926586
-0.18102701 0.12826672 0.35467383
0.14074968 0.208877 0.35797802
-0.166692 0.292429 0.35293105
-0.18090682 -0.292429 0.3623389
-0.042846203 -0.29165357 0.36292499
0.055509444 -0.29057673 0.36292499
0.062002357 -0.27664512 0.36292499
-0.1395171 -0.26938573 0.36292499
0.0055884346 -0.26751864 0.36292499
0.15791348 -0.2634877 0.36292499
-0.10103475 -0.25967908 0.36292499
0.015587285 -0.2555331 0.36292499
0.058301888 -0.24302076 0.36292499
0.079594277 -0.23480402 0.36292499
0.10081894 -0.23662446 0.36292499
0.17010635 -0.20300396 0.36292499
-0.17193459 -0.18900305 0.36292499
0.0060829893 -0.18425092 0.36292499
0.1196417 -0.18835829 0.36292499
0.13692646 -0.18236256 0.36292499
-0.16824293 -0.1762192 0.36292499
-0.11188384 -0.17315428 0.36292499
-0.074667446 -0.16951776 0.36292499
-0.068408608 -0.1626004 0.36292499
0.0095524415 -0.16169712 0.36292499
0.14345644 -0.1630421 0.36292499
-0.17462529 -0.15585141 0.36292502
-0.03760653 -0.15245476 0.36292499
0.025705054 -0.15748176 0.36292499
0.034561716 -0.15223187 0.36292499
0.080799103 -0.14762846 0.36292499
-0.17895499 -0.12248293 0.36292499
-0.051121823 -0.12984575 0.36292499
-0.058987439 -0.11463638 0.36292499
0.1142677 -0.11676693 0.36292499
-0.018490266 -0.10173251 0.36292499
0.020381214 -0.10596425 0.36292499
-0.067266673 -0.094379432 0.36292499
0.089160599 -0.095587544 0.36292499
-0.11306823 -0.080701649 0.36292499
-0.057039291 -0.089635529 0.36292499
-0.14794649 -0.079983436 0.36292499
0.045820598 -0.078428365 0.36292499
-0.14959848 -0.069877222 0.36292499
0.047865104 -0.054759651 0.36292499
0.08264944 -0.05568441 0.36292499
-0.1779283 -0.047599189 0.36292499
-0.024140976 -0.044783816 0.36292499
-0.017644066 -0.040851738 0.36292499
-0.0089215199 -0.047418773 0.36292499
0.11895144 -0.042028159 0.36292499
-0.17044872 -0.039126337 0.36292499
-0.065425508 -0.038522311 0.36292499
-0.039613158 -0.032757271 0.36292499
-0.10102271 -0.02214767 0.36292499
-0.05589195 -0.023063324 0.36292499
0.074204922 -0.023008183 0.36292499
0.10701656 -0.028583266 0.36292499
0.13718809 -0.023676194 0.36292499
0.10457222 -0.011925356 0.36292499
-0.015658084 0.0059914999 0.36292499
0.072216719 0.0086931139 0.36292499
-0.10777179 0.014705487 0.36292499
-0.080371253 0.014208063 0.36292499
-0.092318237 0.027557097 0.36292499
0.1690384 0.024322925 0.36292499
-0.16216151 0.031630799 0.36292499
-0.10396707 0.03982164 0.36292499
0.16160671 0.037773725 0.36292499
0.17146385 0.033303693 0.36292499
-0.030691739 0.041491933 0.36292499
0.011276484 0.049063109 0.36292499
0.12946269 0.047655325 0.36292499
0.13236052 0.044495508 0.36292499
0.03943805 0.057542555 0.36292499
-0.075797133 0.077533156 0.36292499
0.14093587 0.073526554 0.36292499
-0.14066994 0.082514688 0.36292499
0.10033094 0.089282498 0.36292499
0.17676334 0.083312988 0.36292499
0.083686993 0.098431274 0.36292499
0.1772933 0.10524307 0.36292499
0.072586067 0.11891323 0.36292499
-0.057066236 0.12448628 0.36292499
0.057273794 0.12479459 0.36292499
-0.08957386 0.13784097 0.36292499
0.019825827 0.13749266 0.36292499
0.12145377 0.13971341 0.36292499
0.18052797 0.13270564 0.36123347
-0.17607732 0.14593869 0.36292499
0.013220135 0.14557937 0.36292499
0.0038919374 0.15809031 0.36292499
0.045753166 0.15705182 0.36292499
-0.065107502 0.1645391 0.36292499
0.029217098 0.17723614 0.36292499
0.07555972 0.17609113 0.36292499
0.10465974 0.17361796 0.36292499
0.14161339 0.18859884 0.36292499
-0.16236103 0.19634826 0.36292499
-0.10529772 0.20795551 0.36179385
-0.1521614 0.26982784 0.36292499
