# .PCD v0.7 - Point Cloud Data file format
VERSION 0.7
FIELDS x y z
SIZE 4 4 4
TYPE F F F
COUNT 1 1 1
WIDTH 982
HEIGHT 1
VIEWPOINT 0 0 0 1 0 0 0
POINTS 982
DATA ascii
-0.02298218 -0.2414954 -0.39734599
0.08235763 -0.24435954 -0.39734602
-0.075542882 -0.21930119 -0.39734599
0.093939953 -0.21155147 -0.39734599
0.14299065 -0.20835936 -0.39243999
-0.15425642 -0.19122155 -0.39734596
-0.050633661 -0.19635308 -0.39734599
-0.047341995 -0.19082369 -0.39734599
-0.070794716 -0.16383283 -0.39734599
0.029450033 -0.16864035 -0.39734599
0.05694028 -0.16737011 -0.39734599
0.063604094 -0.16505578 -0.39734599
0.10600203 -0.16033477 -0.39734599
0.14006178 -0.16398036 -0.39243999
-0.090360425 -0.15827967 -0.39734599
-0.022441186 -0.15418313 -0.39734599
0.084936582 -0.1564738 -0.39734596
0.1411368 -0.15965769 -0.39243999
-0.16639775 -0.14335555 -0.39734599
0.010807332 -0.14567569 -0.39734599
-0.080551445 -0.13436873 -0.39734599
-0.096087858 -0.12194755 -0.39734596
-0.083893418 -0.12129128 -0.39734602
-0.075538054 -0.12773056 -0.39734599
0.10124725 -0.12505394 -0.39734599
-0.051700708 -0.11094917 -0.39734602
-0.039474625 -0.11992118 -0.39734599
-0.13001747 -0.10357948 -0.39734599
0.12603439 -0.10016327 -0.39734599
0.13877626 -0.10413465 -0.39734599
0.12383903 -0.089874953 -0.39734596
-0.032716945 -0.07967566 -0.39734599
0.0017906129 -0.073864207 -0.39734602
0.055839635 -0.047189362 -0.39734599
0.1566337 -0.040003985 -0.39734596
0.160962 -0.044640973 -0.39620063
-0.16743279 -0.038366854 -0.39734599
0.13516174 -0.03501476 -0.39734599
-0.083565474 -0.022223894 -0.39734596
-0.0073264018 -0.027331345 -0.39734599
-0.11610319 -0.01692098 -0.39734599
-0.11957959 -0.00048988312 -0.39734599
0.066300556 0.0095640682 -0.39734599
0.085501537 0.0018534809 -0.39734599
-0.10931077 0.015178271 -0.39734599
0.099936038 0.014019346 -0.39734599
0.13027528 0.022327557 -0.39734599
-0.11539697 0.04368028 -0.39734602
-0.071328036 0.042179313 -0.39734596
0.0026385095 0.043779757 -0.39734599
-0.064350598 0.052010458 -0.39734602
0.13782096 0.054094851 -0.39734599
-0.092075273 0.068412215 -0.39734596
-0.0024014749 0.061562456 -0.39734599
0.10772479 0.075070329 -0.39734596
0.13788065 0.098594069 -0.39734599
-0.15502165 0.10277446 -0.39734599
-0.057106867 0.10903815 -0.39734596
0.08717826 0.11414456 -0.39734599
0.12373524 0.11445689 -0.39734599
0.033243991 0.12085827 -0.39734602
0.1044646 0.12688766 -0.39734599
-0.17016 0.13659084 -0.39211407
-0.018944811 0.1348453 -0.39734599
0.09648034 0.1379604 -0.39734602
-0.14336543 0.14097722 -0.39734602
0.12440643 0.1444778 -0.39734599
-0.10606797 0.15628561 -0.39734599
-0.1407474 0.16826166 -0.39734596
-0.1357443 0.165647 -0.39684874
-0.09998285 0.1684956 -0.39734596
-0.013586566 0.16553003 -0.39243999
0.087192662 0.16135903 -0.39734602
0.12977619 0.16345763 -0.39243999
0.1454844 0.165647 -0.39694563
-0.01795058 0.17480934 -0.39734599
-0.043516006 0.18984754 -0.39734599
-0.020888215 0.18899743 -0.39734599
0.16402799 0.18670365 -0.39314222
-0.11272348 0.19279101 -0.39734596
0.14092602 0.19647983 -0.39734602
-0.096623056 0.201057 -0.39682442
0.078331888 0.201057 -0.39687896
-0.16805077 0.21604216 -0.39734602
-0.045297578 -0.25132099 -0.38442108
-0.17016 -0.10326457 -0.38619995
-0.17016 -0.017235823 -0.38530952
-0.079828121 0.18849099 -0.38818505
0.099890746 0.190174 -0.38128629
-0.0081227925 0.201057 -0.38975522
0.028595611 0.201057 -0.38240051
-0.16266879 0.25132099 -0.38866341
-0.12422729 -0.25132099 -0.37288126
0.025477272 -0.25132099 -0.37793249
-0.17016 -0.14351515 -0.37000006
-0.17016 -0.092908859 -0.37969673
0.160962 -0.038061224 -0.37682796
0.160962 -0.014282495 -0.37878704
-0.17016 0.0096014142 -0.37771961
-0.17016 0.041610822 -0.37217215
0.028311756 0.188491 -0.37449366
-0.11203956 0.190174 -0.37647417
-0.012511015 0.19017401 -0.37518954
-0.052963089 0.20105702 -0.3786459
-0.17016 0.222298 -0.37722391
-0.15691499 0.23448575 -0.37196189
-0.0012672357 -0.25132099 -0.36448562
-0.17016 -0.24417955 -0.36087224
-0.17016 -0.2016622 -0.36104611
0.16368452 0.165647 -0.36412305
-0.17016 0.19387929 -0.36846516
-0.073981419 0.190174 -0.36716563
0.088437527 0.190174 -0.36493236
0.077216841 0.201057 -0.36214036
-0.1648114 -0.25132099 -0.35578367
0.160962 -0.22697923 -0.35235482
0.164028 0.17379886 -0.35384154
-0.16045786 0.188491 -0.35330504
0.16054836 0.188491 -0.35514349
-0.059486691 0.19017398 -0.3501479
-0.10360307 0.201057 -0.35486048
-0.15691499 0.24250817 -0.3501794
-0.14550425 -0.25132099 -0.34989017
-0.034488145 -0.25132099 -0.34507129
0.088585682 -0.25132099 -0.34835863
0.1549392 -0.25132099 -0.34886742
0.160962 0.020041838 -0.34006649
-0.17016 0.083400518 -0.34023115
0.070598073 0.18849102 -0.34040034
0.015372172 0.190174 -0.34357125
-0.17016 0.22860505 -0.344221
0.072774276 -0.25132099 -0.33141249
-0.17016 -0.11518258 -0.33504337
-0.17016 0.0026405454 -0.33698756
-0.17016 0.080322728 -0.33399928
-0.17016 0.10856244 -0.33176252
0.16709401 0.13169527 -0.33643836
-0.021100201 0.188491 -0.33531228
-0.011718509 0.190174 -0.33934739
0.1634721 0.19017401 -0.3392019
-0.14007598 0.201057 -0.3321366
0.14160474 0.201057 -0.33448938
0.093585469 -0.25132099 -0.32971582
0.16709401 -0.063298799 -0.32523865
0.16649979 -0.024708077 -0.32037655
-0.14402005 0.188491 -0.32094502
-0.15302086 -0.25132099 -0.31774005
-0.0045949183 -0.25132099 -0.31341177
0.06472791 -0.25132099 -0.31026635
-0.17016 -0.22364408 -0.31112576
0.15298259 -0.0036893804 -0.31143531
0.15645827 0.00066846749 -0.311122
0.0014400929 0.18849099 -0.31912771
-0.11524309 0.190174 -0.31249267
-0.098181546 0.190174 -0.31102812
-0.072740622 0.190174 -0.31585953
0.047495481 0.190174 -0.31219071
0.071287349 0.190174 -0.31698182
-0.10600736 0.20105702 -0.31403047
-0.052626103 0.201057 -0.31875038
-0.15691499 0.25022715 -0.31375846
-0.14025727 -0.25132099 -0.30449587
-0.11418262 -0.25132099 -0.30605403
0.160962 -0.24665788 -0.300928
0.160962 -0.19973581 -0.30924422
0.16709401 -0.086137757 -0.30520418
0.163793 0.023300424 -0.30544806
-0.10670152 0.188491 -0.30901703
0.15783024 0.188491 -0.30823728
0.12037042 0.190174 -0.30876219
-0.17016 0.20979407 -0.30893445
-0.17016 0.22224627 -0.30873322
-0.15691499 0.23819897 -0.30693325
-0.17016 -0.096394323 -0.29810476
0.13950101 -0.041619319 -0.29154518
0.13950101 -0.031188138 -0.29559478
-0.17016 0.10207568 -0.29223186
-0.059592575 0.201057 -0.29574689
-0.17016 0.22829017 -0.29079157
-0.15927717 0.25132099 -0.29493195
-0.02946944 -0.25132099 -0.28240415
-0.17016 -0.20644736 -0.28359556
0.1632632 0.044297501 -0.28552216
-0.097098485 0.188491 -0.28230318
-0.087574527 0.201057 -0.28334519
0.14551775 -0.25132099 -0.27906579
0.13950101 0.036930747 -0.27357727
0.16699713 0.1391663 -0.27037853
-0.1522191 0.188491 -0.27316344
-0.059206214 0.188491 -0.27588829
-0.0022870656 0.190174 -0.27004513
-0.17016 0.2148104 -0.27260166
-0.16033365 -0.25132099 -0.2692298
0.160962 -0.2438447 -0.26495057
-0.17016 0.060776755 -0.26190779
0.027926017 0.18849099 -0.26791832
-0.038836323 0.190174 -0.26804793
0.058946624 0.19017398 -0.26048806
-0.10330835 0.201057 -0.26651698
0.160962 -0.24519783 -0.25021246
0.160962 -0.1268518 -0.25627729
-0.17016 -0.082477488 -0.25183299
0.14357105 0.049121354 -0.25575155
-0.17016 0.1029548 -0.25950354
-0.16179225 0.19017401 -0.25654495
-0.081714883 0.190174 -0.25565878
-0.025227759 0.190174 -0.25214943
0.028707284 0.190174 -0.25625455
0.054553449 -0.25132099 -0.24607044
0.061127357 -0.25132099 -0.24292941
-0.17016 0.043132819 -0.24424587
-0.17016 0.14561692 -0.24891195
-0.17016 0.15151429 -0.2429733
0.164028 0.16738605 -0.244381
-0.15655923 0.190174 -0.24634302
-0.12501024 0.201057 -0.24704155
-0.17016 0.24730156 -0.2405466
-0.15783435 0.25132099 -0.2499775
-0.13465795 -0.25132099 -0.23004164
0.13950101 0.0069424119 -0.2332062
-0.15420765 0.188491 -0.23913802
-0.15527016 0.190174 -0.23964998
-0.12283044 0.19017401 -0.23818116
-0.13518852 0.201057 -0.23357643
0.10493869 0.20105699 -0.23133305
-0.058108624 -0.25132099 -0.22911613
0.139924 -0.25132099 -0.22104327
0.038726125 0.188491 -0.22324993
0.10298255 0.188491 -0.22776911
-0.12506658 0.190174 -0.2263436
0.038040441 0.190174 -0.22607428
-0.1246828 -0.25132099 -0.21075857
0.022070421 -0.25132099 -0.21772729
0.16096202 -0.20816191 -0.21430428
-0.17016 -0.12361372 -0.21851686
0.13950101 -0.053187519 -0.21431212
0.13950101 -0.032265648 -0.21473721
-0.17016 -0.01629168 -0.21429706
-0.17016 -0.0063657314 -0.21275336
0.160962 0.083313838 -0.2145997
-0.0038876906 0.18849102 -0.21811755
0.031770375 0.18849102 -0.21943843
-0.1563894 0.201057 -0.21925601
-0.033202037 0.201057 -0.21941152
0.11867937 0.20105699 -0.21842045
0.013391952 -0.25132099 -0.20397486
0.13950101 -0.040088385 -0.2035208
-0.17016 0.0050330609 -0.20235822
-0.014226221 0.18849099 -0.20541868
-0.026839692 0.19017398 -0.20366701
-0.0086324103 0.19017398 -0.20149091
-0.13812375 0.20105702 -0.20942476
0.089913733 -0.25132099 -0.19743232
-0.17016 -0.23542888 -0.19779043
0.16096202 -0.13337076 -0.19038999
-0.17016 -0.033752613 -0.19779164
0.14626502 0.043350805 -0.19366275
0.16120642 0.101262 -0.19776686
0.164028 0.1423426 -0.19347161
0.164028 0.16990328 -0.19397324
-0.010790154 0.188491 -0.19731103
0.037789244 0.190174 -0.19781972
0.160962 0.19503161 -0.19859733
-0.15691499 0.23524104 -0.19404
-0.036163326 -0.25132099 -0.18276764
0.046810798 -0.25132099 -0.18534367
0.061265387 -0.25132099 -0.18338186
0.095303334 -0.25132099 -0.18751532
0.16181061 -0.11776584 -0.18385974
-0.17016 0.035997525 -0.1844165
0.160962 0.083620459 -0.18752377
-0.14835531 0.188491 -0.18359977
-0.048208829 0.190174 -0.18804416
0.13772702 0.19017401 -0.18195346
-0.17016 0.20746091 -0.18026796
-0.10848095 -0.25132099 -0.17129667
-0.025773322 -0.25132099 -0.17320195
0.083495371 -0.25132099 -0.17620257
0.160962 -0.1175656 -0.17243043
0.16539991 0.061005924 -0.17440596
-0.093368948 0.18849102 -0.17765379
0.12214055 0.19017401 -0.17412734
-0.13681519 0.20105702 -0.17004715
-0.025723858 0.201057 -0.17719433
0.025208149 0.20105702 -0.17301077
0.16096199 -0.11509404 -0.16537361
-0.17016 -0.077208079 -0.16621038
-0.17016 -0.063644573 -0.1681588
-0.17016 0.011239104 -0.16217101
-0.17016 0.18186569 -0.16290328
-0.16437672 0.188491 -0.16400596
-0.006117383 0.19017401 -0.16122371
0.073675215 0.190174 -0.16508636
0.048638698 0.201057 -0.1614563
-0.17016 -0.19908315 -0.15921621
0.16709401 0.044030253 -0.15869839
-0.17016 0.19185355 -0.150685
-0.088482246 0.201057 -0.15329097
0.12973236 0.20105702 -0.15549204
-0.15691499 0.23001996 -0.1503396
-0.17016 0.24999553 -0.15692471
-0.11677253 -0.25132099 -0.14483605
0.15944554 -0.0264784 -0.1495402
0.16408199 0.029863697 -0.14515486
-0.17016 0.21448018 -0.14267491
-0.15919073 -0.25132099 -0.13120013
0.05076297 -0.25132099 -0.13835686
-0.17016 -0.15053461 -0.13372412
-0.17016 0.077479482 -0.13421246
-0.088354513 0.18849102 -0.1366193
0.09336289 0.18849102 -0.13314882
0.062295161 0.19017398 -0.13821478
-0.082393676 0.20105702 -0.13171045
0.12370527 -0.25132099 -0.12458468
0.164028 0.17762142 -0.12539862
-0.12040848 0.18849102 -0.12425742
0.16075991 0.201057 -0.12594016
-0.11391254 -0.25132099 -0.11842267
-0.041153565 -0.25132099 -0.11199982
0.047463 -0.25132099 -0.11185396
0.095907718 -0.25132099 -0.11022811
-0.17016 -0.17329435 -0.11999782
-0.17016 -0.097431779 -0.11275975
0.16096199 -0.075166486 -0.11754195
-0.17016 -0.04706407 -0.1100039
-0.17016 -0.014605731 -0.11909378
0.160962 0.069929034 -0.1170648
-0.10939302 0.190174 -0.11525629
0.05814001 0.19017398 -0.11681934
0.10303655 0.190174 -0.11535843
-0.040636886 0.201057 -0.11744704
-0.037492566 0.20105702 -0.11432134
0.036182329 0.201057 -0.11683097
0.14127772 0.20105702 -0.11239538
-0.16936657 -0.25132099 -0.10523532
-0.17016 -0.00059616566 -0.10679755
0.160962 -0.0098653845 -0.1083864
0.164028 0.14897458 -0.10902648
0.164028 0.15581901 -0.10988081
0.164028 0.16812178 -0.10766274
0.033244617 0.188491 -0.10425305
-0.17016 0.20025927 -0.10175934
0.13135293 0.20105702 -0.10903342
0.14570363 -0.25132099 -0.099804759
0.160962 -0.22507541 -0.096211433
-0.17016 -0.20253134 -0.09223114
0.160962 -0.075563811 -0.091640823
0.164028 0.16568071 -0.091314152
0.029479187 0.18849099 -0.098548427
-0.17016 0.19934803 -0.090504639
-0.1632987 0.25132099 -0.09245953
-0.051527541 -0.25132099 -0.081039116
-0.033371314 -0.25132099 -0.082946189
0.12551308 -0.25132099 -0.085907727
0.160962 -0.18470034 -0.088179216
-0.17016 -0.1488836 -0.085054949
0.160962 -0.035269115 -0.084811963
0.0028812587 0.188491 -0.080356628
-0.019862004 0.190174 -0.089655668
0.0025793724 0.190174 -0.088146538
-0.093502596 0.20105702 -0.080287397
-0.086655587 0.201057 -0.080637924
-0.01550689 0.20105699 -0.082691349
-0.01837907 -0.23406066 -0.073582403
0.066191398 -0.23814428 -0.073582403
-0.031820908 -0.22911054 -0.073582403
-0.11321841 -0.21561706 -0.073582403
-0.057534799 -0.2077024 -0.073582396
-0.019647211 -0.20745894 -0.073582403
0.047521301 -0.20769177 -0.073582403
0.055011109 -0.19230369 -0.073582403
0.095269971 -0.19745712 -0.073582403
0.10698225 -0.19905508 -0.073582411
-0.11851258 -0.18340546 -0.073582403
-0.045206666 -0.18073131 -0.073582403
0.022956155 -0.18990326 -0.073582403
0.03267514 -0.18023597 -0.073582403
0.058909152 -0.18731862 -0.073582403
0.10874613 -0.18318477 -0.073582403
0.029114455 -0.17994983 -0.073582403
-0.14504352 -0.15336229 -0.073582411
-0.014475543 -0.14491695 -0.073582403
-0.12865587 -0.13253167 -0.073582403
0.085362628 -0.13768707 -0.073582403
-0.1450575 -0.12521851 -0.073582403
0.11515256 -0.12389307 -0.073582403
-0.034656007 -0.11256762 -0.073582403
0.13424689 -0.11728399 -0.073582403
-0.17016 -0.10038221 -0.079854816
-0.12186612 -0.10530695 -0.073582403
-0.025352333 -0.10668224 -0.073582403
0.13015354 -0.10394772 -0.073582403
0.051734395 -0.090438738 -0.073582403
0.068791196 -0.096826747 -0.073582403
-0.040337149 -0.088077791 -0.073582403
0.036212344 -0.084906712 -0.073582403
0.11501684 -0.086221114 -0.073582403
-0.13091978 -0.070713863 -0.073582396
-0.10194142 -0.078980289 -0.073582403
-0.16054747 -0.069864094 -0.073582403
-0.045771085 -0.067409381 -0.073582403
0.064044051 -0.057026163 -0.073582403
0.10725797 -0.051484428 -0.073582403
0.019017465 -0.049660277 -0.073582403
-0.17016 -0.036804505 -0.079136908
-0.019930899 -0.032127984 -0.073582403
0.062991984 -0.035252638 -0.073582403
-0.011517607 -0.022379005 -0.073582403
0.079661161 -0.024227645 -0.073582403
-0.16952443 -0.015915215 -0.073582403
0.012296956 -0.015259907 -0.073582403
-0.16779721 0.0029321015 -0.073582403
-0.1226913 0.0060195103 -0.073582403
0.11224773 0.0056627616 -0.073582411
0.15083992 0.0024038488 -0.073582403
0.079920761 0.013626292 -0.073582403
0.10143544 0.01606106 -0.073582403
0.14087497 0.017060915 -0.073582403
-0.11883868 0.027040835 -0.073582403
-0.041437142 0.025602266 -0.073582403
0.055622127 0.025428351 -0.073582403
0.13369174 0.030536752 -0.073582403
-0.16677271 0.044769377 -0.073582403
-0.15766364 0.044300143 -0.073582403
0.13113926 0.044938192 -0.073582403
-0.066111729 0.050450373 -0.073582403
-0.1277301 0.069647357 -0.073582403
0.10168627 0.068517558 -0.073582403
-0.071384951 0.078733221 -0.073582396
0.045635972 0.072595619 -0.073582403
0.11339533 0.082430363 -0.073582403
0.034954291 0.094952956 -0.073582403
0.14031249 0.095822066 -0.073582403
0.048883751 0.10198782 -0.073582403
0.058142688 0.11073694 -0.073582403
0.147717 0.12441686 -0.071439035
-0.15353277 0.13493153 -0.073582396
-0.092942983 0.13675483 -0.073582403
-0.019641981 0.13910572 -0.073582403
0.017376311 0.14327596 -0.073582403
0.077799261 0.14978173 -0.073582403
-0.073158234 0.15149976 -0.073582403
0.070569895 0.15919438 -0.073582403
0.092372231 0.15136717 -0.073582403
-0.061368261 0.16798458 -0.073582403
-0.1241041 0.188491 -0.074964739
0.014178261 0.190174 -0.076516196
0.160962 0.19856507 -0.073518433
-0.1534615 0.20105702 -0.077396512
-0.0010943636 0.20105702 -0.071552277
0.033049412 0.201057 -0.078508645
-0.16929984 -0.25132099 -0.060315609
-0.076238148 -0.25132099 -0.067417212
0.026711442 -0.25132099 -0.06642466
-0.17016 0.023639895 -0.064765148
-0.15691499 0.22633606 -0.06492354
-0.17016 -0.23601532 -0.057082094
-0.17016 -0.16542719 -0.056636363
-0.17016 -0.10723284 -0.05039103
-0.17016 -0.041743889 -0.054665387
-0.1454224 0.20105699 -0.053953826
0.10425895 0.20105702 -0.059052274
0.107982 -0.2485096 -0.045565445
0.147717 -0.14162788 -0.046558715
0.147717 -0.081636935 -0.04263879
-0.17016 0.044211999 -0.046629217
0.147717 0.047036193 -0.047632925
0.147717 0.10115223 -0.044663012
-0.17016 0.15493244 -0.042552143
-0.15691499 0.20228831 -0.045285985
0.13135082 0.20105699 -0.049668252
-0.17016 0.24279892 -0.040697649
-0.13076995 -0.25132099 -0.031577501
-0.017931357 -0.25132099 -0.034317315
0.147717 -0.098389402 -0.031213429
0.147717 -0.067917719 -0.032796234
-0.17016 -0.031844921 -0.039483052
-0.17016 -0.0093794838 -0.031360343
0.147717 0.11738045 -0.038673136
-0.15691499 0.23474698 -0.036733165
-0.036594611 -0.25132099 -0.02645359
-0.023964608 -0.25132099 -0.02657225
0.147717 -0.17894243 -0.028814269
0.147717 -0.095248267 -0.025547175
0.147717 0.12985349 -0.025818842
0.147717 0.14176829 -0.021314571
0.147717 0.15640068 -0.023240775
-0.040699314 -0.25132099 -0.019243211
0.10667862 -0.25132099 -0.014331745
0.147717 -0.017748971 -0.016699685
-0.17016 0.20845261 -0.0123524
-0.17016 -0.18466261 -0.0037199026
-0.13873541 -0.25132099 0.004877381
0.084770679 -0.25132099 0.00086646713
0.10798199 -0.22879779 0.0024032444
0.11723413 -0.201057 0.009748932
-0.17016 -0.068248264 0.0052956054
0.11281464 0.201057 0.0061411411
-0.15691499 0.24356802 0.00065720081
0.0032471572 -0.25132099 0.016818218
0.147717 -0.1227426 0.015540663
-0.17016 0.020863868 0.017103836
-0.17016 0.078555912 0.017121678
-0.17016 0.11095633 0.027462261
0.147717 0.13407442 0.021671677
0.147717 0.17816728 0.021885954
-0.089211181 0.201057 0.021798253
-0.020064782 0.201057 0.022750746
0.027726848 0.20105699 0.024948239
0.15445906 0.201057 0.020474762
-0.17016 -0.24174756 0.034802258
0.147717 -0.17446317 0.037775524
-0.17016 0.094720848 0.031798188
0.15504175 0.20105699 0.031168312
0.067945324 -0.25132099 0.041185442
0.147717 -0.0094687343 0.047472868
0.147717 0.042399969 0.04138054
0.0068757683 0.201057 0.040806532
-0.068324305 -0.25132099 0.051364325
-0.016541909 -0.25132099 0.055708289
-0.17016 -0.1815601 0.054689214
0.147717 -0.075875215 0.059663467
0.147717 -0.0061481334 0.056189969
0.147717 0.030625656 0.056843493
-0.17016 0.098526835 0.055201173
0.147717 0.18841751 0.055819608
-0.15691499 0.20944995 0.058263935
-0.15691499 0.23635933 0.050656501
0.147717 -0.12244073 0.060622193
0.147717 -0.11076012 0.06117183
0.147717 -0.095124267 0.063880846
0.147717 -0.063276224 0.067935832
-0.044985384 0.20105702 0.063182861
-0.020946691 0.201057 0.061059423
0.060932472 0.201057 0.064809337
0.092233449 0.20105702 0.067408085
0.10323039 0.201057 0.060172632
-0.021020364 -0.25132099 0.071649753
0.061247386 -0.25132099 0.078148611
-0.10319935 -0.24707018 0.073582403
0.070596784 -0.24533813 0.073582403
0.081906192 -0.24797136 0.073582403
-0.12405334 -0.23744915 0.073582403
-0.05167691 -0.23925576 0.073582403
-0.026154451 -0.23534723 0.073582403
-0.0090494268 -0.23945788 0.073582403
-0.09243384 -0.22853552 0.073582403
-0.041823886 -0.22358473 0.073582403
0.10572234 -0.22282822 0.073582403
0.13368116 -0.22653018 0.073582403
-0.11632553 -0.21573174 0.073582403
0.067352518 -0.21570709 0.073582403
-0.1560109 -0.20398501 0.073582403
-0.056306913 -0.20959067 0.073582403
-0.14175999 -0.19311211 0.073582403
-0.13558899 -0.19731066 0.073582403
-0.12831444 -0.19865191 0.073582403
-0.047017444 -0.19849229 0.073582403
0.058039255 -0.19321172 0.073582403
0.11679336 -0.19895455 0.073582403
0.12433413 -0.19429865 0.073582403
-0.055186901 -0.18491173 0.073582403
0.099243872 -0.18926132 0.073582411
0.024626028 -0.17034568 0.073582396
0.068599351 -0.1747708 0.073582403
0.15628284 -0.16071787 0.078488201
-0.013357814 -0.15070838 0.073582403
0.096567377 -0.15981348 0.073582411
-0.16317275 -0.14426365 0.073582411
-0.066771075 -0.14178646 0.073582403
-0.024810277 -0.14608219 0.073582403
-0.086891204 -0.13793015 0.073582403
-0.11979201 -0.12044547 0.073582403
-0.10521023 -0.12177818 0.073582403
-0.065858111 -0.12858456 0.073582403
-0.048815463 -0.12286963 0.073582403
-0.16706137 -0.1188592 0.073582403
0.06899263 -0.1183183 0.073582403
0.10882843 -0.11888479 0.073582403
-0.10644178 -0.0990659 0.073582403
0.14295648 -0.091556571 0.073582403
-0.11714993 -0.083907098 0.073582403
0.13717453 -0.085145392 0.073582403
-0.065849952 -0.066019848 0.073582403
-0.040893432 -0.066063553 0.073582403
0.0066870227 -0.065459467 0.073582403
0.10525251 -0.061607972 0.073582403
-0.11598556 -0.056394976 0.073582403
-0.1022367 -0.056601234 0.073582403
0.011134506 -0.056276139 0.073582403
0.033538058 -0.050630223 0.073582403
-0.10500635 -0.041003779 0.073582403
0.030891225 -0.044557475 0.073582403
0.097789824 -0.045749426 0.073582403
0.0046155276 -0.03415351 0.073582403
-0.14582951 -0.024511702 0.073582403
-0.061324142 -0.026146725 0.073582403
-0.16795266 -0.016038097 0.073582411
-0.1402752 -0.011531301 0.073582403
-0.13304302 -0.019367829 0.073582403
0.11270869 0.0088284276 0.073582403
-0.03105687 0.019772807 0.073582403
0.099415801 0.012123708 0.073582403
-0.15382092 0.021110512 0.073582403
-0.041412942 0.026859725 0.073582403
0.047602195 0.021909403 0.073582403
-0.15954313 0.037630469 0.073582403
0.022739343 0.036877412 0.073582403
0.031527113 0.045705888 0.073582403
0.086560898 0.040831774 0.073582403
0.092766225 0.042033687 0.073582403
-0.15960564 0.074853525 0.073582403
-0.0026754793 0.082093202 0.073582403
-0.11978782 0.097068369 0.073582403
-0.06578365 0.097862184 0.073582403
-0.15643546 0.1047769 0.073582396
-0.10106579 0.10882027 0.073582403
-0.11163686 0.11905731 0.073582403
0.1374965 0.11025929 0.073582403
-0.16349523 0.12485033 0.073582403
-0.053437967 0.12367606 0.073582396
0.069551766 0.1250384 0.073582403
-0.16960345 0.13153891 0.073582403
-0.048733953 0.13306993 0.073582411
0.077027194 0.13986635 0.073582403
0.10396707 0.13214862 0.073582403
0.12166618 0.13615984 0.073582403
0.142566 0.13667099 0.074171871
-0.16471238 0.14322883 0.073582403
-0.040034037 0.14363009 0.073582403
0.01018884 0.14437051 0.073582403
0.051889576 0.14419904 0.073582403
-0.1231999 0.165647 0.075839788
-0.051190797 0.16235632 0.073582403
-0.036964886 0.162581 0.077597097
-0.087369867 0.17142498 0.073582403
0.037309453 0.17035852 0.073582403
0.088866219 0.1782646 0.073582403
0.091740824 0.17063777 0.073582403
-0.038304154 0.18819223 0.073582403
0.036427803 0.18629248 0.073582403
-0.11213323 0.201057 0.070674568
0.046883583 0.201057 0.079930425
0.083276153 0.20105699 0.070432037
0.095627204 0.20105702 0.078891255
-0.12061969 -0.25132099 0.085092612
-0.023787091 -0.25132099 0.08273872
-0.17016 -0.17295891 0.08979205
-0.17016 -0.15144485 0.087961502
0.16096202 -0.11840574 0.085885487
-0.03576532 0.19017398 0.08177419
0.076464951 0.190174 0.087035358
-0.15691499 0.2033672 0.085145131
-0.024844922 0.201057 0.084005386
0.033201229 -0.25132099 0.094421446
0.16096199 -0.20068276 0.092585176
-0.17016 -0.06736017 0.093317486
-0.17016 0.017147519 0.091069981
-0.16233873 0.188491 0.098390684
-0.15905069 0.18849102 0.095757999
-0.1464718 0.19017401 0.098820627
-0.13591173 0.190174 0.094434008
-0.12745582 0.190174 0.094190896
-0.11252271 0.190174 0.092917144
-0.074701831 0.190174 0.094068907
-0.17016 0.20905513 0.096409023
0.040153995 -0.25132099 0.10887067
0.164028 0.10531454 0.10338756
0.014575742 0.19017401 0.10630286
0.10116873 0.190174 0.10983057
-0.17016 0.21233357 0.10492533
-0.15691499 0.22680719 0.10168353
-0.090474784 -0.25132099 0.11884531
-0.17016 -0.13033041 0.11598454
0.160962 0.071185954 0.11273498
0.16709401 0.14365405 0.1181192
-0.14950949 0.188491 0.11849377
-0.022973053 0.188491 0.11818853
-0.035590593 0.190174 0.1139486
0.034424633 0.201057 0.11691381
0.075920209 0.20105699 0.11488077
0.11559753 0.20105702 0.11061659
0.12906435 0.20105702 0.11157683
-0.024356626 -0.25132099 0.12052236
-0.17016001 -0.15912059 0.12510923
0.160962 -0.028830977 0.12029727
0.16462505 0.14689758 0.12948911
0.073076069 0.188491 0.12436318
0.13046302 0.190174 0.12622391
-0.13338354 0.201057 0.1242816
0.1571974 -0.25132099 0.1348837
0.160962 -0.10720691 0.13937601
-0.17016 -0.088304788 0.13065955
-0.17016 0.069344811 0.13699467
-0.17016 0.075566262 0.13095906
0.164028 0.14042729 0.1338653
0.10939403 0.18849102 0.13687548
0.14205438 -0.25132099 0.14086761
-0.17016 -0.11117552 0.14469498
0.1616883 0.165647 0.14158845
0.11495114 0.18849099 0.14579991
0.12833482 0.188491 0.14045902
-0.01798735 0.19017398 0.1488709
-0.12839141 0.201057 0.14528376
0.10938977 0.20105699 0.14926469
-0.031622451 -0.25132099 0.15757152
0.11686331 -0.25132099 0.15858705
-0.17016 -0.068119451 0.15213707
0.15081525 -0.0095144575 0.15957722
-0.08210855 0.188491 0.15125498
0.0051841326 0.19017398 0.15991126
0.039120641 0.19017401 0.15680248
0.066561803 0.19017401 0.15152928
0.15399957 0.190174 0.15950626
0.15235671 0.20105702 0.15425327
-0.053668801 -0.25132099 0.16104439
-0.17016 -0.029494464 0.16361912
0.13950101 -0.0078339456 0.16659132
-0.17016 0.087529786 0.16812538
0.164028 0.12108962 0.16594809
0.14786525 0.18849099 0.16252741
0.15281862 0.188491 0.16157612
0.10389899 0.19017398 0.16833796
0.11465837 0.20105699 0.16278258
-0.16329846 0.25132099 0.16183558
0.14177395 -0.25132099 0.17173198
-0.17016 0.046162538 0.17200312
-0.17016 0.06076837 0.17487335
-0.17016 0.17886302 0.17185734
-0.0069687963 0.188491 0.17592277
0.13369931 0.188491 0.17939211
0.087641202 0.20105702 0.17069222
-0.17016 -0.23128146 0.18017887
0.160962 0.073027521 0.18008368
0.073065646 0.18849099 0.18994898
-0.12333804 0.201057 0.18087417
0.14066377 0.20105699 0.1837728
-0.0042323954 -0.25132099 0.19024883
0.031004965 -0.25132099 0.19741464
0.13297518 -0.25132099 0.19607165
0.160962 -0.15193605 0.1931351
-0.17016 -0.12463329 0.19759956
0.13950101 -0.021435108 0.19698302
0.089642584 0.201057 0.19381897
0.099438228 0.201057 0.19784133
-0.16799323 0.25132099 0.19333467
-0.16099392 -0.25132099 0.2008775
0.08679457 -0.25132099 0.20812339
-0.17016 -0.12276556 0.20159921
-0.17016 -0.059698191 0.20784646
0.13950101 -0.047497049 0.20545202
0.168933 0.12741987 0.20149782
-0.11696624 0.19017398 0.20320103
-0.01571383 0.190174 0.20951173
-0.12713018 0.201057 0.20755371
-0.16887784 -0.25132099 0.21308088
0.10666077 -0.25132099 0.21607399
-0.17016 -0.03018675 0.21284492
0.13950101 0.0022355102 0.21362555
0.16709401 0.067079887 0.21362217
0.160962 0.085897684 0.21095109
0.164028 0.10429893 0.21616447
0.14423868 0.188491 0.21024708
-0.12537377 0.19017401 0.21508661
-0.12147711 -0.25132099 0.22885548
0.070558257 -0.25132099 0.22037816
0.083172433 -0.25132099 0.22124971
0.13950101 0.011981895 0.22359355
-0.17016 0.052692361 0.2283439
0.164028 0.17869738 0.22546089
-0.17016 0.18576552 0.22365443
-0.056842998 0.188491 0.22061941
-0.11876881 0.190174 0.22659607
-0.12238254 0.201057 0.22994575
-0.11835498 -0.25132099 0.23004748
-0.086968392 -0.25132099 0.23561698
0.160962 -0.19716895 0.23788255
-0.17016 -0.13620745 0.23404016
0.13950101 -0.089782089 0.23710701
0.13950101 0.047131997 0.23397996
0.160962 0.080298714 0.23977181
-0.048759572 0.19017401 0.23985107
0.16013598 0.190174 0.23333377
-0.090368494 -0.25132099 0.24099994
0.12591319 -0.25132099 0.24460272
0.1400713 -0.25132099 0.24150573
-0.17016 -0.1487368 0.24517578
0.13950101 0.0010131262 0.24020565
0.164028 0.16646045 0.24990086
-0.15494739 0.188491 0.2453095
-0.052035443 0.188491 0.24844791
-0.079708666 0.201057 0.24553575
0.13928518 0.201057 0.2432619
0.15253381 0.20105702 0.24046865
0.069032133 -0.25132099 0.2547839
0.10330592 -0.25132099 0.2597993
-0.17016 -0.24047329 0.25816962
0.160962 -0.15079424 0.25836885
0.14627188 -0.10110414 0.25344065
-0.17016 -0.055567399 0.25964805
-0.14966656 0.188491 0.25706574
-0.082017295 0.188491 0.25141963
0.02593587 0.188491 0.25990838
-0.10339043 0.190174 0.255759
0.14584717 0.19017401 0.25455308
-0.10816497 0.20105699 0.25443274
0.039423548 0.201057 0.25288612
-0.0067361891 -0.25132099 0.26753795
0.084704533 -0.25132099 0.26950938
-0.17016 -0.24162015 0.26147008
-0.17016 -0.099411339 0.26854348
0.14488211 -0.095349804 0.26919711
0.164028 0.12824328 0.26221466
-0.12813123 0.188491 0.26502603
-0.096976146 0.18849102 0.2636402
0.065904133 0.18849102 0.26872379
0.12781255 0.188491 0.26860538
-0.16394773 0.190174 0.26590785
-0.040766411 0.190174 0.26980719
0.065793484 0.19017398 0.26104298
0.073785141 0.190174 0.26320082
0.14166936 0.188491 0.27932101
0.0073150806 0.190174 0.27848256
-0.014937822 0.201057 0.27362192
0.16709401 -0.1147342 0.28280175
-0.0082892627 0.188491 0.28645778
0.10834193 0.188491 0.28115201
0.054392427 0.201057 0.28395364
-0.00023208559 -0.25132099 0.29446867
0.016935103 -0.25132099 0.29892671
0.16093276 -0.088553548 0.29187602
0.14472422 -0.078095421 0.29426688
-0.062745959 0.188491 0.29832709
-0.16163668 0.19017398 0.29576576
-0.086823627 0.190174 0.29115462
0.026934709 0.190174 0.29642677
-0.098467112 0.201057 0.29649732
0.078749888 0.201057 0.29074693
-0.10703014 -0.25132099 0.30015138
-0.17016 -0.23518902 0.30317426
-0.17016 -0.1787796 0.30616808
0.160962 -0.14443707 0.30977637
0.160962 0.065477729 0.30187541
-0.17016 0.17712343 0.30171424
0.050706826 0.188491 0.30268073
-0.11115506 0.19017401 0.30354938
-0.066603482 0.201057 0.30267221
-0.054431386 0.20105699 0.30427298
-0.056050483 -0.25132099 0.31822973
-0.023823325 -0.25132099 0.31079406
0.14990117 -0.027689431 0.3174789
0.14536467 -0.01140344 0.31436461
-0.17016 0.095987305 0.31548268
-0.17016 0.17346975 0.3192445
0.164028 0.17395027 0.31561792
-0.1557145 0.188491 0.31936613
-0.11551264 0.188491 0.31006181
0.1410068 0.188491 0.31250226
-0.16082668 0.19017401 0.31096131
-0.1124278 0.20105699 0.31955788
-0.067479432 0.201057 0.31146052
-0.17016 -0.25105566 0.32470191
-0.12307043 -0.25132099 0.32197833
-0.09740217 -0.25132099 0.32443357
0.074753426 -0.25132099 0.32801262
0.160962 -0.13471405 0.3284061
0.16170931 0.031408351 0.32485798
0.0050970968 0.190174 0.32885978
-0.11925679 0.201057 0.3286806
-0.028574307 0.201057 0.32342649
0.013388425 0.201057 0.32551771
-0.15691499 0.22097003 0.32837352
0.045357697 -0.25132099 0.33519664
0.160962 -0.20225453 0.33974975
0.160962 -0.077278242 0.33621144
-0.17016 0.18210329 0.33449501
0.11908319 0.188491 0.33506316
-0.038884364 0.20105702 0.33400998
0.010042101 0.20105699 0.33338094
-0.17016 0.2334757 0.33335295
-0.066361897 -0.25132099 0.34124649
0.12608956 -0.25132099 0.34203801
0.16096199 -0.24752818 0.34245899
-0.17016 -0.078013457 0.34354219
-0.17016 0.10508332 0.3469848
0.164028 0.13308343 0.34613428
-0.058577754 0.18849102 0.34169054
-0.011113204 0.188491 0.34332567
0.034576885 0.18849099 0.34550387
0.077175036 0.188491 0.34816143
-0.10182495 0.20105702 0.34881511
0.074338183 0.201057 0.34133035
-0.17016 0.18514308 0.35331726
-0.049884837 0.18849102 0.3518796
0.095637575 0.188491 0.35198268
0.016405988 0.201057 0.35822228
0.160962 -0.23712698 0.36802983
-0.17016 -0.2144917 0.36372611
-0.17016 -0.19067511 0.36861554
0.160962 -0.068261169 0.36678436
0.160962 0.017557425 0.36167058
0.160962 0.074426241 0.36468169
0.092094541 0.18849099 0.36788544
-0.14531036 0.201057 0.36819291
-0.12639646 -0.25132099 0.37127766
-0.17016 -0.24775535 0.37852386
0.164028 0.1818327 0.37388611
0.0077962764 0.190174 0.37091321
0.017271636 0.190174 0.37780485
-0.17016 0.20410018 0.37555116
-0.15691499 0.23037606 0.37135929
0.16096199 -0.23820257 0.38278472
0.160962 -0.13291007 0.38031137
-0.10465765 0.188491 0.38141426
0.14373441 0.188491 0.38692734
-0.086792611 0.19017401 0.38881084
-0.0039773881 0.201057 0.386033
0.12357117 0.20105699 0.38975543
0.13583595 -0.25118229 0.39734599
-0.10908842 -0.23031713 0.39734599
-0.11929899 -0.22535002 0.39734599
0.12129235 -0.20335536 0.39734596
0.136435 -0.20074984 0.39558917
0.15376912 -0.20242965 0.39243999
0.062763311 -0.19344027 0.39734599
0.035688739 -0.18995653 0.39734596
-0.080453008 -0.16534376 0.39734602
0.047202781 -0.16961238 0.39734599
-0.12620018 -0.15215373 0.39734602
-0.032634109 -0.15438622 0.39734596
-0.094840832 -0.14913025 0.39734599
-0.15274404 -0.13512595 0.39734599
-0.01054796 -0.13912329 0.39734602
0.098524153 -0.12176418 0.39734599
-0.10278676 -0.11695956 0.39734599
-0.088409498 -0.10350082 0.39734599
0.10593677 -0.10630249 0.39734599
0.019448072 -0.070474587 0.39734599
-0.1537091 -0.062897786 0.39734599
-0.057877623 -0.060528066 0.39734602
0.10756202 -0.061254498 0.39734599
0.078616112 -0.050141841 0.39734599
0.10054274 -0.052358616 0.39734599
-0.068624035 -0.043707434 0.39734602
0.020275785 -0.04759803 0.39734599
0.160962 -0.044222426 0.39425561
-0.026302636 -0.036654264 0.39734599
0.12379023 -0.028607447 0.39734602
0.00077924272 -0.0067912666 0.39734599
0.071686015 -0.0097142905 0.39734599
-0.17016 0.0025667921 0.3968417
-0.031695265 0.0024622753 0.39734599
0.160962 0.014806204 0.39606237
-0.11697768 0.038364593 0.39734599
-0.046526939 0.046887983 0.39734596
-0.017624773 0.040685907 0.39734602
0.038625989 0.044440415 0.39734599
0.096141346 0.045225922 0.39734599
0.12070854 0.050697152 0.39734599
0.12743939 0.076421186 0.39734599
-0.0082211979 0.090974212 0.39734602
-0.11177839 0.10129676 0.39734599
-0.062817678 0.10481654 0.39734596
0.1577284 0.101262 0.39362943
-0.090696953 0.11032274 0.39734599
-0.059147388 0.1107749 0.39734602
0.077976957 0.12654899 0.39734599
0.10874301 0.12264847 0.39734599
-0.12819248 0.1342794 0.39734599
-0.095399342 0.14222179 0.39734596
-0.13611104 0.15836722 0.39734599
0.032733612 0.1575571 0.39734602
0.13059834 0.15440138 0.39734599
-0.11472108 0.16322839 0.39734602
-0.14613999 0.17536482 0.39734599
-0.10280916 0.17927481 0.39734599
0.13560982 0.17972107 0.39734599
-0.17016 0.18117106 0.390531
-0.013355343 0.18123263 0.39734599
-0.0062554926 0.18927255 0.39734602
-0.10031811 0.19199845 0.39734599
0.062974922 0.19755358 0.39734599
