# .PCD v0.7 - Point Cloud Data file format
VERSION 0.7
FIELDS x y z
SIZE 4 4 4
TYPE F F F
COUNT 1 1 1
WIDTH 981
HEIGHT 1
VIEWPOINT 0 0 0 1 0 0 0
POINTS 981
DATA ascii
-0.14778872 -0.2325013 -0.38810101
0.039185636 -0.232535 -0.38632244
0.072634652 -0.232535 -0.38347879
0.1847104 -0.2319545 -0.38810101
-0.15385674 -0.22140664 -0.38810101
-0.13700798 -0.22072862 -0.38810101
0.018848978 -0.22094664 -0.38810101
0.15823261 -0.22032818 -0.38810101
-0.0492213 -0.21195678 -0.38810104
-0.0047966698 -0.21423766 -0.38810101
-0.16268221 -0.20453075 -0.38810101
-0.043874219 -0.20718814 -0.38810101
0.067715839 -0.20752501 -0.38810101
0.091337077 -0.20782349 -0.38810101
-0.19504593 -0.19553576 -0.38810101
-0.16369343 -0.19569521 -0.38810098
-0.21135801 -0.18177262 -0.38040727
-0.12637621 -0.18478185 -0.38810104
0.12024717 -0.18110432 -0.38810101
-0.1220994 -0.17059235 -0.38810104
0.1917914 -0.17924991 -0.38810101
-0.211358 -0.16223919 -0.38776398
-0.015419219 -0.16973151 -0.38810101
0.02351366 -0.16146374 -0.38810104
0.13118118 -0.16603228 -0.38810101
-0.096032932 -0.15974811 -0.38810101
-0.046297561 -0.15076846 -0.38810101
0.11392967 -0.15275426 -0.38810101
0.21065906 -0.15365402 -0.38810104
-0.20172438 -0.14392756 -0.38810101
-0.16027221 -0.14351904 -0.38810098
-0.06115447 -0.14873342 -0.38810101
-0.052778982 -0.14146592 -0.38810101
0.075479105 -0.14445566 -0.38810098
0.093298152 -0.14158128 -0.38810098
0.16397303 -0.14968431 -0.38810101
-0.1815213 -0.1354319 -0.38810101
0.14039147 -0.13722664 -0.38810098
0.18354926 -0.13634381 -0.38810101
-0.19939718 -0.12892431 -0.38810101
0.038600691 -0.11379356 -0.38810098
0.20978519 -0.11334765 -0.38810101
0.21135798 -0.099468529 -0.38685489
0.072673589 -0.083342597 -0.38810101
0.20676552 -0.088062361 -0.38810104
-0.14446126 -0.071324334 -0.38810101
-0.051490001 -0.075251907 -0.38810101
-0.13036482 -0.061563365 -0.38810101
-0.053068228 -0.067039639 -0.38810101
0.19607502 -0.068918355 -0.38810098
0.053026304 -0.0523744 -0.38810101
0.12035544 -0.050006185 -0.38810101
0.211358 -0.04096153 -0.38431141
-0.18603131 -0.03502439 -0.38810101
-0.10923372 -0.035709642 -0.38810101
0.19020602 -0.036811192 -0.38810104
-0.035335854 -0.022048965 -0.38810101
0.0033139233 -0.01533951 -0.38810101
0.073304661 -0.015386075 -0.38810101
0.11792633 -0.016053952 -0.38810101
0.092502512 -0.0026024617 -0.38810101
-0.19672003 0.0087068975 -0.38810101
-0.11160649 0.004441835 -0.38810101
0.038029958 0.0048570009 -0.38810104
0.056730203 0.018345825 -0.38810101
0.11950138 0.010052595 -0.38810101
0.19795552 0.013077959 -0.38810098
-0.10147565 0.026255634 -0.38810101
0.12132479 0.02617643 -0.38810101
0.16940427 0.028201494 -0.38810101
0.18006563 0.022682033 -0.38810101
-0.060349878 0.032146581 -0.38810101
0.17342705 0.03740374 -0.38810101
-0.0091354959 0.049908921 -0.38810098
0.16670702 0.058606964 -0.38810101
-0.030831179 0.066292763 -0.38810101
-0.0022622868 0.066808 -0.38810101
0.023312096 0.06125043 -0.38810101
-0.10278575 0.076083347 -0.38810101
-0.018144362 0.07806959 -0.38810098
-0.15399456 0.096251272 -0.38810101
-0.072182283 0.099960789 -0.38810101
-0.042038005 0.094835907 -0.38810104
0.062512875 0.092985913 -0.38810101
-0.045424748 0.103057 -0.38810101
0.029509075 0.10516098 -0.38810098
0.1465297 0.10762783 -0.38810104
-0.12965943 0.116878 -0.38705522
-0.10358188 0.116878 -0.38043711
0.018891633 0.116878 -0.38443977
-0.18959124 0.232535 -0.38183197
0.11032225 -0.232535 -0.37310827
-0.211358 -0.11174654 -0.37998885
0.211358 -0.0096611753 -0.37616906
-0.21135798 0.054112546 -0.3781783
0.211358 0.050439917 -0.37868032
0.21135798 0.094749123 -0.37511206
-0.015957184 0.116878 -0.37997806
0.04572482 0.116878 -0.37161994
0.18438426 0.116878 -0.37788284
-0.21135798 0.14847085 -0.37740606
-0.16411901 0.1494368 -0.37258571
-0.211358 0.16454385 -0.37661201
0.1569925 -0.23253499 -0.36541173
0.21135798 -0.065903112 -0.36111426
0.21135798 0.0065689087 -0.36382484
0.041919053 0.116878 -0.36641967
-0.211358 0.22892292 -0.36387691
-0.1215695 -0.232535 -0.35382739
-0.094517298 -0.232535 -0.35384649
0.11129826 -0.232535 -0.35164005
0.21135798 -0.19015551 -0.3527571
0.211358 -0.17417631 -0.35196063
-0.211358 -0.16347229 -0.35531875
0.211358 -0.079604536 -0.35335249
0.211358 -0.033079661 -0.35012874
0.21135798 0.097086728 -0.35482839
-0.19282117 0.116878 -0.35537565
0.075955436 0.116878 -0.35550573
0.14633015 0.116878 -0.35036504
-0.21135801 0.15332404 -0.35166472
-0.09386526 -0.232535 -0.34090802
-0.21135801 -0.22074474 -0.3401753
0.211358 -0.16311991 -0.34040642
-0.211358 0.026064217 -0.34263352
0.211358 0.085749954 -0.34414631
0.040789504 0.116878 -0.34370613
0.1088494 0.116878 -0.34084234
-0.211358 0.22458716 -0.34750277
-0.10439496 -0.232535 -0.33146501
0.0416575 -0.232535 -0.33964056
0.16032015 -0.232535 -0.33318037
0.211358 -0.18803352 -0.33160931
0.211358 -0.15756963 -0.33994433
-0.211358 -0.13997807 -0.33927161
-0.21135798 -0.071753621 -0.33427298
-0.16411901 0.1186858 -0.33369339
-0.0098198839 0.116878 -0.33252722
0.051916126 0.116878 -0.33627868
0.068096988 0.116878 -0.33084995
0.072500072 0.116878 -0.33860028
-0.16411901 0.12144846 -0.3315354
-0.14089848 -0.232535 -0.32291591
-0.13628145 -0.23253502 -0.32265356
0.070787653 -0.232535 -0.32582235
-0.211358 -0.072222486 -0.32052413
0.211358 -0.047070153 -0.32267287
-0.211358 0.0073750801 -0.32119015
0.211358 0.097570635 -0.32181525
-0.15040022 0.116878 -0.32653892
-0.053923003 0.116878 -0.32872435
-0.0068302266 0.116878 -0.32952666
0.048664302 0.116878 -0.32460219
0.2069314 0.116878 -0.32291764
0.211358 -0.19200522 -0.318088
-0.211358 -0.18643315 -0.31328702
-0.211358 0.043833081 -0.31087017
-0.090942137 0.116878 -0.3132211
-0.152716 0.17329177 -0.31540245
-0.20205453 0.232535 -0.31158325
0.21135801 -0.070823833 -0.30449614
-0.211358 -0.0064153001 -0.3037025
-0.211358 0.066628233 -0.30288067
0.041307367 0.116878 -0.30046064
-0.211358 0.12974514 -0.30172804
-0.211358 0.16166043 -0.30289602
-0.19174546 0.232535 -0.3066771
-0.057565175 -0.232535 -0.29501086
0.11817808 -0.232535 -0.29003415
-0.21135798 -0.20901357 -0.29380777
0.211358 -0.10903893 -0.29405195
0.211358 -0.095128864 -0.29349452
-0.21135798 -0.080151044 -0.29513377
0.21135801 -0.061594129 -0.29551873
-0.211358 -0.017176542 -0.29322922
0.21135801 0.092425652 -0.29357743
-0.1801111 0.116878 -0.29229102
-0.064544424 0.116878 -0.29451591
0.068717882 0.116878 -0.29959264
0.078027025 0.116878 -0.29130521
0.10238837 0.116878 -0.29979274
-0.14784524 -0.232535 -0.28860229
-0.10588012 -0.232535 -0.286654
0.16302592 -0.232535 -0.28461158
-0.21135801 -0.079851501 -0.28640819
0.211358 0.055933878 -0.28031972
-0.19239056 0.116878 -0.28246352
0.065973185 -0.232535 -0.27746868
0.080749281 -0.232535 -0.27919811
0.11251471 -0.232535 -0.27471417
-0.211358 -0.19933149 -0.27623349
0.211358 -0.082523406 -0.27282697
0.211358 0.088683322 -0.27821317
-0.17337897 0.116878 -0.27502987
-0.16411901 0.20132394 -0.27235031
-0.20048539 0.232535 -0.27276433
-0.16877095 0.232535 -0.2732878
-0.21135798 -0.15745813 -0.26291496
-0.211358 -0.049287766 -0.26153108
0.21135801 -0.020944301 -0.26651528
-0.211358 0.0026857629 -0.26502272
0.211358 0.01624365 -0.26745597
-0.21135801 0.054869115 -0.26381046
-0.21135798 0.085468493 -0.26638722
0.211358 0.084102504 -0.26850921
0.13546446 0.116878 -0.26670724
-0.12584169 -0.232535 -0.25776631
-0.0043502636 -0.232535 -0.25420591
-0.21135801 -0.21196589 -0.25207505
-0.21135801 -0.18762037 -0.25602859
0.21135798 -0.16797292 -0.25646809
-0.21135798 0.012606404 -0.25993651
-0.083009124 0.116878 -0.2583679
0.040997505 0.116878 -0.2526207
-0.16411901 0.18807706 -0.25469491
0.10817433 -0.232535 -0.24417613
0.14591083 -0.232535 -0.24453385
-0.21135801 -0.17183396 -0.24810889
0.21135801 -0.11433271 -0.24426559
-0.21135801 -0.017218918 -0.24344219
0.21135801 0.05751219 -0.24702841
-0.18628407 0.116878 -0.24973571
-0.12976649 0.116878 -0.24513319
0.023792721 0.116878 -0.24301451
-0.16411901 0.20946985 -0.24595362
-0.18935136 -0.232535 -0.23478861
-0.13435391 -0.232535 -0.23840672
0.0041572917 -0.232535 -0.23397425
0.017058842 -0.23253499 -0.23403975
0.211358 0.035577334 -0.23402688
-0.17775784 0.116878 -0.23062369
-0.15157306 0.116878 -0.23016578
-0.13423541 0.116878 -0.23480046
-0.041453887 0.116878 -0.2300881
0.10180767 0.116878 -0.23382042
-0.211358 0.16878349 -0.23073581
-0.21135801 0.1904068 -0.23216626
-0.211358 0.21214551 -0.23910885
0.0011123344 -0.232535 -0.22038749
-0.211358 -0.17596197 -0.22768588
-0.211358 -0.13037011 -0.22389369
-0.16206244 0.116878 -0.22887699
-0.078371972 0.116878 -0.22045651
-0.010995284 0.116878 -0.22294565
0.014398296 0.116878 -0.22059286
-0.17212261 -0.232535 -0.21905176
-0.13284416 -0.232535 -0.21836157
0.018133864 -0.232535 -0.21159655
0.1794204 -0.232535 -0.21928006
0.18328038 -0.232535 -0.21377243
0.21135801 -0.22687533 -0.21162897
-0.21135801 -0.1986026 -0.21232004
-0.211358 -0.13228728 -0.21734279
-0.21135801 -0.04540842 -0.2136015
-0.211358 0.067265272 -0.21817736
-0.211358 0.075141937 -0.21144071
-0.15356407 0.116878 -0.21253389
0.033309314 0.116878 -0.21022795
0.11165433 0.116878 -0.21482186
-0.211358 0.12977444 -0.21255484
-0.1314881 -0.232535 -0.2049433
0.021939859 -0.232535 -0.20452476
0.067988701 -0.232535 -0.20872307
-0.211358 -0.16854012 -0.20257629
0.211358 -0.15554288 -0.20935661
-0.211358 -0.12875926 -0.20389715
-0.21135798 0.053943295 -0.2058395
-0.211358 0.10977045 -0.20516077
-0.03711528 0.116878 -0.20566174
0.032220658 0.116878 -0.20381579
0.12810543 0.116878 -0.20455006
0.14474553 0.116878 -0.20219222
-0.211358 -0.21276954 -0.19026478
-0.211358 -0.15157302 -0.19795559
0.211358 0.026016131 -0.19000486
-0.211358 0.1323856 -0.19867896
-0.211358 0.18499604 -0.19151188
-0.21135801 0.00072800182 -0.18860476
-0.211358 0.012768051 -0.18297049
-0.14839026 0.116878 -0.18238842
0.024538446 0.116878 -0.18727884
0.19856128 0.116878 -0.18944414
-0.16411901 0.14581668 -0.18242784
-0.211358 0.18278672 -0.18570009
-0.211358 0.19237724 -0.18513972
-0.211358 0.22960651 -0.18425332
-0.16623285 0.232535 -0.18225127
0.0053252131 -0.232535 -0.17655608
0.058324501 -0.232535 -0.17676938
-0.211358 0.059013914 -0.17266181
-0.211358 0.06257721 -0.17416923
-0.095402732 0.116878 -0.1748433
0.19882491 0.116878 -0.17682526
-0.16411901 0.17682782 -0.17485631
-0.20400345 0.232535 -0.17843857
-0.2088249 -0.232535 -0.16790447
0.072145164 -0.232535 -0.16361636
0.16315563 -0.232535 -0.16842559
-0.21135801 -0.19055034 -0.16892855
-0.211358 -0.12280773 -0.16633618
-0.21135801 0.13503291 -0.1676726
-0.21135801 0.15175474 -0.16767146
-0.21135801 -0.11488396 -0.15760958
-0.211358 -0.09796153 -0.15147194
0.211358 0.045961261 -0.15061294
0.211358 0.062036522 -0.15275007
0.21135801 0.10375093 -0.15239458
0.10864036 0.116878 -0.15171146
-0.051448945 -0.232535 -0.1483541
0.211358 -0.21002845 -0.1416724
-0.211358 -0.014682278 -0.14777777
-0.211358 0.053506475 -0.1475158
-0.1815547 0.116878 -0.14188872
-0.11020322 0.116878 -0.14867114
-0.091417372 0.116878 -0.14711295
0.10626989 0.116878 -0.14334802
-0.21135798 0.15908746 -0.14743695
-0.16411901 0.16599517 -0.14613879
-0.211358 0.22480336 -0.14607126
-0.20768464 0.232535 -0.14090978
-0.19707045 0.232535 -0.14679208
-0.18992263 0.232535 -0.1415858
-0.079775222 -0.232535 -0.13118385
0.0245327 -0.232535 -0.13578926
0.031816758 -0.232535 -0.13994524
0.13387299 -0.232535 -0.1393795
-0.21135798 -0.17846285 -0.13524824
0.21135801 -0.15349837 -0.13893604
-0.211358 -0.078737244 -0.13837917
-0.16835324 0.116878 -0.13820964
0.12889972 0.116878 -0.13894226
-0.16411901 0.20643856 -0.1384203
-0.21135801 0.21244934 -0.13871041
-0.046995886 -0.232535 -0.12544607
0.094071485 -0.232535 -0.12649298
0.18561354 -0.232535 -0.12388448
-0.211358 -0.21022999 -0.12999423
0.211358 -0.10708326 -0.12506145
-0.20080602 0.116878 -0.12391679
-0.11306167 0.116878 -0.12492845
-0.014790298 0.116878 -0.12226915
0.097883783 0.116878 -0.12460713
-0.16411901 0.199343 -0.12124193
-0.211358 0.21885307 -0.12081202
-0.077028282 -0.232535 -0.11189039
0.0014925562 -0.232535 -0.1178906
0.065123931 -0.232535 -0.11447122
0.21135798 -0.20442373 -0.11467107
-0.21135801 -0.15885995 -0.11754186
-0.211358 -0.11451466 -0.1194529
0.21135801 -0.010682966 -0.11383406
0.035751361 0.116878 -0.11505814
0.092748687 0.116878 -0.11196543
0.17546941 0.116878 -0.11248035
0.068254419 -0.232535 -0.10447114
-0.211358 -0.14684695 -0.10267447
0.211358 -0.08676149 -0.10701333
-0.19468097 0.116878 -0.10134781
0.14198495 0.116878 -0.10299972
0.15412369 0.116878 -0.10672016
0.17589265 0.116878 -0.1051695
0.20506847 0.116878 -0.10730731
-0.21135798 0.17725006 -0.10953663
-0.211358 0.21755283 -0.10228732
0.21135801 0.042778149 -0.098992005
-0.21135798 0.067868389 -0.098916143
-0.16411901 0.14622089 -0.092943639
-0.16411901 0.18709332 -0.097104028
-0.14846714 -0.232535 -0.080835558
-0.10723855 -0.232535 -0.080809981
-0.087598629 -0.232535 -0.089304246
0.211358 -0.18741918 -0.084838361
-0.211358 0.0065092221 -0.080981217
-0.211358 0.11309779 -0.082330354
-0.03021965 0.116878 -0.088157855
-0.024964476 0.116878 -0.083917566
0.1903663 0.116878 -0.080752559
0.211358 0.11334531 -0.089481235
-0.211358 0.16457313 -0.087110847
-0.21135798 0.21203853 -0.088516176
-0.18963024 -0.232535 -0.075516343
-0.211358 -0.17574558 -0.075182892
0.21135798 -0.17880267 -0.077577636
0.211358 0.00023724046 -0.070038855
0.211358 0.099137254 -0.074426383
-0.20375846 0.116878 -0.077270776
-0.15632229 -0.232535 -0.064675584
0.21135798 -0.21769552 -0.067378737
-0.211358 -0.20385775 -0.064457707
0.211358 -0.14467631 -0.06797491
-0.21135798 -0.13596533 -0.06230332
-0.211358 -0.10808427 -0.064872339
-0.21135798 0.073104069 -0.063185699
0.11592614 0.116878 -0.060376003
0.16334301 0.116878 -0.067462012
0.14776175 -0.232535 -0.054004531
0.15546884 -0.232535 -0.058960378
0.17978501 -0.232535 -0.055159688
0.19130628 -0.232535 -0.05869931
-0.21135801 -0.16281362 -0.055958737
-0.211358 -0.040198535 -0.051433749
0.211358 0.036506698 -0.051989529
-0.211358 0.045776386 -0.057279106
-0.07631734 0.116878 -0.05264049
0.096010372 0.116878 -0.052469019
0.21135798 0.11577556 -0.053408295
-0.211358 0.23224911 -0.05402137
-0.14087524 -0.232535 -0.049366556
-0.094364807 -0.232535 -0.046267837
0.16139491 -0.232535 -0.049606089
0.211358 -0.19213717 -0.048800539
0.21135801 -0.16682431 -0.042517561
-0.21135801 -0.073666781 -0.045780167
-0.211358 -0.06891644 -0.040226046
-0.13139112 0.116878 -0.049616341
0.211358 0.11179599 -0.046356417
-0.211358 0.12108123 -0.041131824
-0.211358 0.15721613 -0.049690552
-0.16411901 0.17802089 -0.049178068
-0.18745762 0.232535 -0.04471758
-0.014570549 -0.232535 -0.035083633
0.21135798 -0.12849472 -0.038140934
0.21135801 -0.10783193 -0.030332621
-0.21135798 0.034425728 -0.036505844
-0.211358 0.099749394 -0.038291223
-0.16411901 0.1851493 -0.039086219
-0.10455721 -0.232535 -0.026324283
-0.19932829 0.116878 -0.026816495
-0.11973012 0.116878 -0.024383197
-0.211358 0.17606492 -0.023881558
-0.17843217 0.232535 -0.020701792
0.044897392 -0.232535 -0.018789824
0.16029079 -0.232535 -0.01371528
-0.21135798 -0.2228151 -0.011120043
0.211358 -0.17299721 -0.017049287
-0.21135801 -0.13388889 -0.017263075
0.12757754 0.116878 -0.011372432
-0.13391981 -0.232535 -0.0016564379
-0.12087002 -0.232535 -0.009621108
-0.10685261 -0.23088716 -0.0085521899
0.0052954108 -0.232535 -0.0050166659
0.029060736 -0.23185626 -0.0085521899
0.048309371 -0.23001172 -0.0085521899
-0.14261962 -0.22593868 -0.0085521899
-0.097465947 -0.22368221 -0.0085521899
-0.026036993 -0.22226948 -0.0085521899
0.039642662 -0.22629541 -0.0085521899
0.090558387 -0.21918976 -0.0085521899
0.211358 -0.21782085 -0.0023511956
-0.21081103 -0.20173725 -0.0091390777
-0.14346606 -0.20578769 -0.0085521899
-0.033491142 -0.19368343 -0.0085521899
0.088688366 -0.19383094 -0.0085521899
0.20945187 -0.19933039 -0.0085521899
0.20586944 -0.18620789 -0.0085521899
-0.19623418 -0.17426614 -0.0085521899
-0.016578954 -0.17088673 -0.0085521899
0.18943103 -0.17178285 -0.0085521899
0.20975344 -0.17334095 -0.0085521899
0.12733722 -0.16382554 -0.0085521899
0.14816661 -0.16483285 -0.0085521899
0.1790289 -0.15973341 -0.0085521899
0.19339222 -0.14925587 -0.0085521899
0.20617081 -0.14400259 -0.0085521899
-0.1263184 -0.13371646 -0.0085521899
-0.012285743 -0.13178968 -0.0085521899
-0.026610896 -0.12211587 -0.0085521899
0.027249925 -0.12019661 -0.0085521899
0.080905221 -0.12861505 -0.0085521899
0.20924741 -0.12770432 -0.0085521899
-0.096774891 -0.11637512 -0.0085521899
-0.12984246 -0.10757373 -0.0085521899
0.096448399 -0.10879606 -0.0085521899
-0.16079646 -0.09204708 -0.0085521899
-0.14865659 -0.093808621 -0.0085521899
-0.13926512 -0.09909343 -0.0085521899
0.10133483 -0.092650883 -0.0085521899
0.044292606 -0.086217612 -0.0085521899
0.094574183 -0.087754264 -0.0085521899
0.15601176 -0.082319289 -0.0085521899
-0.16240975 -0.074307658 -0.0085521899
-0.056867845 -0.075243607 -0.0085521899
0.027192257 -0.079814374 -0.0085521899
0.10923149 -0.068667158 -0.0085521899
-0.051004499 -0.052376844 -0.0085521899
0.092418469 -0.058019143 -0.0085521899
-0.12896934 -0.046786781 -0.0085521899
-0.1086119 -0.042293251 -0.0085521899
-0.20316854 -0.030857924 -0.0085521899
0.17493847 -0.035777714 -0.0085521899
-0.048103504 -0.027752172 -0.0085521899
0.01704485 -0.027424917 -0.0085521899
0.031176334 -0.020040438 -0.0085521899
0.048032977 -0.02309818 -0.0085521899
0.15455723 -0.013935558 -0.0085521899
-0.16679971 -6.633997e-05 -0.0085521899
-0.13340992 0.00031615607 -0.0085521899
-0.03814961 0.0013510194 -0.0085521899
0.078274466 0.0016201958 -0.0085521899
0.14162056 0.0079008974 -0.0085521899
0.078711301 0.019974768 -0.0085521899
0.12746249 0.028824821 -0.0085521899
0.055360973 0.032429777 -0.0085521899
0.20309156 0.034060802 -0.0085521899
-0.15187526 0.048489705 -0.0085521899
-0.13364954 0.046766311 -0.0085521899
0.1358538 0.046316423 -0.0085521899
-0.1563471 0.05092597 -0.0085521899
-0.0072211586 0.055390123 -0.0085521899
0.17380938 0.059982926 -0.0085521899
-0.16686162 0.061850362 -0.0085521899
-0.064089894 0.06743744 -0.0085521899
0.049526017 0.062645771 -0.0085521899
0.1640017 0.0618448 -0.0085521899
0.1904861 0.060150802 -0.0085521899
-0.211358 0.071631849 -0.0077568851
-0.013147838 0.07990668 -0.0085521899
0.011642043 0.071671993 -0.0085521899
-0.211358 0.080919012 -0.0007674857
-0.1721025 0.087617338 -0.0085521899
0.10369915 0.085252248 -0.0085521899
-0.18820687 0.094437435 -0.0085521899
-0.16284311 0.092784755 -0.0085521899
-0.15369879 0.10707551 -0.0085521899
-0.044332009 0.10004943 -0.0085521899
-0.0012633614 0.10142042 -0.0085521899
0.031575233 0.10647762 -0.0085521899
-0.19586869 0.116878 -0.0045351591
-0.0042402633 0.11210317 -0.0085521899
-0.17350374 0.19336991 -0.0085521899
0.21135801 -0.21532096 0.0082162861
-0.211358 -0.15344478 0.0095005259
-0.211358 -0.1114172 0.0088974256
-0.16272418 0.116878 0.0081993937
-0.15100038 0.116878 0.0037167212
-0.0039874166 0.116878 0.0017738342
0.159272 0.116878 0.0075961244
-0.21135798 0.16286759 0.00013672654
-0.16411901 0.18688858 0.0069087418
-0.16411901 0.19171923 0.0086948732
-0.20295103 -0.232535 0.018121237
-0.092943497 -0.232535 0.014745047
0.1635063 -0.232535 0.013799185
0.211358 -0.20793612 0.012676036
-0.21135801 0.023827173 0.018025804
-0.211358 0.050370503 0.011060339
0.211358 0.065305993 0.012493666
-0.18071745 0.116878 0.012916426
0.10396357 0.116878 0.016580276
0.12256875 0.116878 0.014944069
0.13397995 0.116878 0.018614244
0.1805478 0.116878 0.012503043
-0.16411901 0.17385194 0.017357904
-0.211358 0.20673698 0.016917618
-0.050756417 -0.23253499 0.023132706
0.01637245 -0.232535 0.02472174
0.211358 -0.18291223 0.02760933
0.21135801 -0.16035809 0.022472946
0.211358 -0.11459934 0.02148661
0.21135801 0.064704992 0.023717526
-0.18255636 0.116878 0.022989718
-0.036427148 0.116878 0.023286879
-0.21135801 0.18680398 0.025156381
0.061032183 -0.232535 0.032737345
0.11390605 -0.232535 0.035517097
-0.211358 -0.21240887 0.038300283
-0.21135801 -0.18629038 0.032031756
-0.211358 0.028576488 0.031249078
-0.211358 0.092945598 0.033166535
-0.1327966 0.116878 0.033254437
-0.085025541 0.116878 0.034626618
0.14034197 0.116878 0.031340994
-0.18574572 0.232535 0.031547397
0.0098742247 -0.232535 0.042961385
-0.21135798 -0.14011708 0.041611578
-0.211358 0.057833008 0.046263717
0.211358 0.092429996 0.048928376
-0.0097729117 0.116878 0.04744219
0.0046534464 0.116878 0.045675594
-0.16411901 0.18635273 0.045564335
-0.12747088 -0.232535 0.057555258
0.074135035 -0.232535 0.051250555
0.19264926 -0.232535 0.058210105
0.21135798 -0.0013787337 0.05725481
0.21135801 0.079556219 0.059617296
-0.15344834 0.116878 0.051875316
-0.018087581 0.116878 0.058510929
0.14954375 0.116878 0.058476675
0.17200981 0.116878 0.052028071
0.19128442 0.116878 0.058108181
-0.19700798 -0.232535 0.061533138
-0.13139148 -0.232535 0.064434387
0.011471242 -0.232535 0.06152679
0.043645903 -0.232535 0.064496316
0.068777002 -0.232535 0.064580478
0.083560571 -0.232535 0.067819379
-0.211358 -0.20608929 0.061553452
-0.21135798 -0.0071903504 0.066398844
0.211358 0.03221795 0.064045817
-0.21135801 0.044246394 0.06343025
-0.20084479 0.116878 0.061238524
-0.211358 0.22674449 0.066698559
-0.19896625 -0.232535 0.075868733
-0.1622633 -0.232535 0.075686187
-0.038213387 -0.232535 0.075021461
0.019274659 -0.23253502 0.073468909
0.17282999 -0.232535 0.077680454
-0.211358 -0.22294393 0.078806959
-0.18878977 0.116878 0.075648345
0.12533237 0.116878 0.070421174
-0.16411901 0.17568569 0.077532582
-0.211358 0.19096576 0.071567662
-0.19242805 0.232535 0.073141366
-0.16745059 0.232535 0.072793342
0.0177834 -0.232535 0.084965795
0.09693329 -0.232535 0.08907637
0.12716518 -0.232535 0.081598379
-0.211358 -0.22015357 0.089817971
-0.211358 -0.16762869 0.088232502
-0.211358 -0.077837959 0.088511005
0.211358 0.11295194 0.084911674
-0.12882032 -0.232535 0.090086363
-0.080448344 -0.232535 0.093937419
0.19519991 -0.232535 0.094504356
0.211358 -0.05712276 0.096751586
-0.211358 -0.027269721 0.099197119
-0.152716 0.19477522 0.09703733
-0.152716 0.20777698 0.098168612
-0.16411901 0.21623996 0.097299933
-0.08494544 -0.232535 0.10160462
-0.048489846 -0.232535 0.10587952
-0.211358 -0.21443287 0.10251939
0.211358 -0.091497652 0.10139238
0.211358 0.011761949 0.10293315
-0.211358 0.073525354 0.10058916
-0.211358 0.087734684 0.10874008
-0.211358 0.097152278 0.10877484
-0.10217442 0.116878 0.10437184
-0.16411901 0.13520811 0.10827167
-0.21135798 0.17123728 0.1035932
-0.18160111 -0.232535 0.11235925
-0.1424457 -0.232535 0.11431141
0.058111575 -0.232535 0.11957305
-0.211358 -0.14245051 0.11043989
-0.21135798 -0.076118439 0.11408451
0.211358 -0.026761092 0.11610731
0.03606198 0.116878 0.11179248
0.063636102 0.116878 0.11283074
0.16335434 0.116878 0.11313817
-0.15390119 0.2081477 0.11380655
-0.21067691 -0.232535 0.12796536
-0.20676635 -0.232535 0.12998883
-0.06899222 -0.232535 0.12118314
0.065284498 -0.232535 0.12539181
-0.211358 -0.1919547 0.12540261
0.211358 -0.16346547 0.12924202
0.211358 -0.0883471 0.12840253
-0.21135801 0.083457567 0.12833878
-0.17770921 0.116878 0.12667483
0.20252253 0.116878 0.12142757
-0.16411901 0.16245608 0.12561646
-0.21135801 0.20713168 0.12602887
-0.17564428 -0.232535 0.130271
-0.211358 -0.19025391 0.13922693
-0.21135798 -0.14551421 0.13919181
0.0011027288 0.116878 0.13419382
0.049443889 0.116878 0.13377775
0.11106355 0.116878 0.13032618
-0.21135798 0.16597441 0.13306019
-0.211358 0.22634526 0.13831522
-0.19868711 -0.232535 0.14507878
-0.090786323 -0.232535 0.14530531
0.053527672 -0.232535 0.14015467
0.076998785 -0.232535 0.14987828
0.211358 -0.20527276 0.14612743
-0.211358 0.068383954 0.14421263
0.211358 0.10396078 0.14719446
-0.19000059 0.116878 0.14049834
-0.10644992 0.116878 0.14409456
-0.033867359 0.116878 0.14759623
0.013262565 0.116878 0.14203602
0.077634186 0.116878 0.14077166
0.1145895 0.116878 0.14310905
0.1272873 0.116878 0.14613646
-0.16411901 0.17748353 0.14139818
-0.21135801 0.18864577 0.14252244
-0.20277086 0.232535 0.14341749
0.211358 -0.22712421 0.15012607
0.211358 -0.11255771 0.15623735
-0.211358 -0.040162928 0.15358746
-0.21135798 0.02428533 0.15831187
-0.16418031 0.116878 0.15835482
-0.047448277 0.116878 0.15192291
0.16539817 0.116878 0.15684247
0.1848115 0.116878 0.15510486
-0.078168221 -0.232535 0.16962826
0.028676247 -0.232535 0.16419609
-0.211358 -0.22294967 0.16076152
0.211358 -0.20484766 0.16031104
-0.21135801 -0.19056472 0.16741997
0.21135801 -0.18974286 0.16690189
-0.21135801 -0.15096056 0.16638844
0.211358 -0.15376811 0.16785903
0.211358 -0.14387698 0.16842544
0.211358 -0.094664462 0.16599768
-0.16240202 0.116878 0.16146034
-0.066605233 0.116878 0.16104096
-0.059264354 0.116878 0.16573894
-0.0051092803 0.116878 0.16411313
-0.16411901 0.12214737 0.16875003
-0.211358 0.19468072 0.16436704
-0.21135801 0.20447317 0.16737542
-0.19156089 0.232535 0.16649388
-0.037516244 -0.232535 0.17487162
0.19903271 -0.232535 0.17294243
-0.211358 -0.025989022 0.17897999
0.21135798 0.080682255 0.17430571
0.20777151 0.116878 0.17749514
-0.211358 0.15649024 0.17771536
-0.20708829 0.232535 0.17597137
-0.1574107 -0.232535 0.18294971
-0.088717282 -0.232535 0.1803724
-0.07268928 -0.232535 0.1898924
-0.030884326 -0.232535 0.181206
-0.21135798 -0.1932281 0.18759477
-0.039771192 0.116878 0.18954566
0.011186056 0.116878 0.18267848
0.057426602 0.116878 0.18628336
-0.211358 0.13617551 0.1813999
-0.20755571 0.232535 0.18015558
-0.16876338 0.232535 0.1830157
-0.21135798 -0.17661376 0.19486654
-0.21135801 -0.148927 0.19915427
-0.211358 -0.0044301618 0.19472182
0.21135801 0.04038538 0.19376558
-0.211358 0.068738058 0.19687404
-0.03700082 0.116878 0.19284262
0.053193666 0.116878 0.19665289
0.15569112 0.116878 0.19783072
-0.16411901 0.20502359 0.19465931
-0.16411901 0.21970777 0.19771788
-0.17459157 0.232535 0.19735517
0.12396862 -0.232535 0.20997301
0.19923568 -0.232535 0.20015399
-0.211358 0.033052005 0.2016875
-0.14397211 0.116878 0.20797405
0.11356065 0.116878 0.20931664
-0.16411901 0.23036686 0.20677829
-0.211358 -0.23115037 0.21687727
-0.082805678 -0.232535 0.21436369
0.21021478 -0.232535 0.21948594
-0.21135801 -0.1834181 0.21876438
-0.211358 0.08892899 0.21663658
-0.16254877 0.116878 0.2192978
-0.064211249 0.116878 0.21551794
0.035818219 0.116878 0.21283185
0.13972603 0.116878 0.21068174
-0.211358 0.15838557 0.21217738
-0.16411901 0.20378213 0.21640374
-0.17624152 0.232535 0.21000943
0.211358 -0.18702878 0.22056413
0.21135798 -0.15180591 0.22600277
-0.21025084 0.116878 0.22210801
-0.13454239 0.116878 0.22265364
0.060713358 0.116878 0.22897619
-0.211358 0.19578981 0.22623613
-0.10597987 -0.232535 0.2321547
0.211358 -0.16422045 0.2320493
0.211358 0.067362227 0.23716822
-0.023604143 0.116878 0.23666242
0.1089853 0.116878 0.23789741
0.211358 0.11151489 0.23742399
-0.18807828 0.232535 0.23004836
-0.13800247 -0.232535 0.24111822
-0.0046830699 -0.232535 0.24416427
-0.21135798 -0.08114139 0.24343981
-0.11145751 0.116878 0.24103931
-0.073364563 0.116878 0.2462742
-0.064001814 0.116878 0.24696496
-0.211358 0.21087205 0.24603797
-0.18807454 -0.232535 0.25022122
-0.035271056 -0.232535 0.25376913
0.18261974 -0.232535 0.25722256
-0.16112839 0.17596592 0.25378561
0.11412663 -0.232535 0.26624858
0.15245101 -0.232535 0.26009935
-0.21135798 -0.16820335 0.26979932
-0.12170401 0.116878 0.26537481
0.21135801 0.11241405 0.2642009
-0.21135801 0.21254942 0.26823947
0.0039137118 -0.232535 0.27665529
0.11937012 -0.232535 0.27274793
-0.211358 -0.18514214 0.27550104
-0.211358 -0.16723083 0.27676207
0.21135801 -0.13503036 0.2714687
0.21135798 -0.068474434 0.27876616
-0.211358 0.19737649 0.27711987
-0.095042631 -0.232535 0.28292555
0.21135801 -0.075181477 0.28706318
0.211358 0.053276837 0.28618297
-0.1400584 0.116878 0.28723174
-0.06640093 0.116878 0.28525981
-0.022553034 0.116878 0.28258115
0.015094798 0.116878 0.28453863
0.03135271 0.116878 0.28117302
0.063882813 0.116878 0.28611931
0.082571432 0.116878 0.28060299
0.19472399 0.116878 0.28420243
0.20316923 0.116878 0.28399381
-0.194878 -0.232535 0.29449838
-0.14429043 -0.232535 0.29220745
-0.21135798 -0.17634925 0.29260409
0.211358 -0.00030953065 0.29302424
-0.11028285 0.116878 0.29368612
-0.071878053 0.116878 0.29078269
0.0043045059 0.116878 0.29582998
0.21135798 0.11122175 0.2915765
-0.13895451 -0.232535 0.30314627
0.0082776472 -0.232535 0.30677512
0.21135798 -0.19508827 0.30918255
0.211358 -0.17387041 0.30053359
-0.211358 -0.16710167 0.30719337
0.211358 -0.081029095 0.30508626
0.21135798 -0.056976937 0.30623958
0.211358 -0.046689712 0.30969024
0.21135801 0.021576688 0.30453339
-0.21135801 0.070990905 0.30437851
-0.15793155 -0.232535 0.31029627
-0.001650773 -0.232535 0.31388637
0.048011631 -0.232535 0.31481695
0.12734805 -0.232535 0.31114843
0.211358 -0.035682708 0.31324446
0.044423789 0.116878 0.31198767
0.10207818 0.116878 0.3104516
-0.21135801 -0.066660643 0.32867527
0.211358 0.0030628638 0.32126236
0.21135801 0.010640711 0.3200542
-0.19157827 0.116878 0.32286376
-0.17068125 0.116878 0.32709011
-0.12915185 0.116878 0.32389405
-0.030350693 0.116878 0.3287133
0.08797729 0.116878 0.32998797
-0.031441636 -0.232535 0.3326377
0.21135798 -0.17083926 0.3397359
0.211358 -0.064099289 0.33694461
-0.21135801 -0.0002175644 0.33729655
-0.211358 0.0064299582 0.3300094
-0.15713067 0.19727622 0.33953512
-0.16411901 0.22689511 0.33604106
-0.16411901 0.23068087 0.33521521
-0.20304659 -0.232535 0.34946284
-0.16064173 -0.232535 0.34435242
-0.015173569 -0.232535 0.34317648
-0.21135798 -0.045255154 0.34132633
0.211358 -0.045293223 0.34752026
-0.1732277 0.116878 0.34764254
-0.10881444 0.116878 0.3436957
0.09981855 0.116878 0.34290776
-0.16411901 0.12386291 0.34499055
-0.031305298 -0.232535 0.35811281
0.073995188 -0.232535 0.35079187
-0.211358 -0.22987385 0.35165334
0.211358 -0.19608082 0.35290995
0.211358 -0.17363134 0.35704777
-0.211358 -0.1383359 0.35306266
0.211358 0.068124525 0.3574205
-0.047954805 0.116878 0.35441914
-0.04957249 -0.232535 0.36724889
0.11403988 -0.232535 0.3669641
0.211358 -0.20108502 0.36553627
0.211358 -0.126568 0.36850742
0.211358 -0.085826427 0.36155164
-0.211358 -0.071840808 0.36024418
-0.211358 -0.041413993 0.3615433
0.211358 0.058782209 0.36887088
0.211358 0.091993853 0.36509994
-0.12056205 0.116878 0.36332643
-0.089326613 0.116878 0.36874607
0.086472385 0.116878 0.3635354
-0.16411901 0.2124795 0.36911106
-0.16411901 0.22111981 0.36992693
-0.1943575 -0.232535 0.37642908
-0.060148723 -0.232535 0.37523252
-0.211358 -0.19335838 0.37508392
0.211358 -0.16898844 0.37966937
0.21135801 -0.12410405 0.37428311
0.21135801 -0.031366631 0.37223113
0.21135798 0.042877197 0.3743163
-0.21135801 0.052018814 0.3735047
0.211358 0.061191864 0.3723326
-0.19196402 -0.23201746 0.38891599
-0.049050093 -0.22003815 0.38891599
0.17896752 -0.22356401 0.38891599
-0.10954505 -0.21596602 0.38891599
-0.088946953 -0.21123989 0.38891599
-0.012854353 -0.21508613 0.38891599
-0.15058769 -0.20609197 0.38891599
-0.14335325 -0.2006764 0.38891602
-0.004230544 -0.20070426 0.38891599
0.1527203 -0.20884888 0.38891599
0.018249452 -0.19892889 0.38891596
-0.038596883 -0.18432799 0.38891602
-0.14519511 -0.17547001 0.38891599
-0.07832326 -0.177488 0.38891599
-0.029704798 -0.17670229 0.38891599
0.071929358 -0.17790124 0.38891602
0.15042952 -0.17325763 0.38891599
-0.019211419 -0.16720468 0.38891599
0.211358 -0.16774942 0.38378853
-0.091321133 -0.15939096 0.38891599
-0.085318111 -0.14115568 0.38891596
-0.036787469 -0.14859311 0.38891602
-0.12905502 -0.13870408 0.38891599
-0.020831946 -0.1314353 0.38891596
-0.1335862 -0.1210974 0.38891602
-0.067902081 -0.12118553 0.38891602
-0.051049121 -0.12208539 0.38891596
-0.024321247 -0.12546584 0.38891599
-0.13119073 -0.11496024 0.38891599
-0.10553824 -0.11543413 0.38891602
-0.075986162 -0.11145347 0.38891599
-0.04707063 -0.11868398 0.38891599
0.10923209 -0.11449552 0.38891599
0.14388546 -0.11181833 0.38891602
-0.20954274 -0.10111932 0.38891599
-0.052396499 -0.10728905 0.38891599
-0.026906393 -0.10115509 0.38891599
-0.0097412542 -0.10829239 0.38891596
0.019381847 -0.10256037 0.38891599
0.20004866 -0.10858393 0.38891596
-0.1226484 -0.09200868 0.38891602
-0.17876156 -0.085164301 0.38891596
0.10661624 -0.08680062 0.38891596
0.16382129 -0.085952006 0.38891596
-0.087919697 -0.067144409 0.38891596
0.082537502 -0.067969225 0.38891599
-0.04224956 -0.057147384 0.38891599
-0.036207169 -0.050210424 0.38891599
0.041713126 -0.05606512 0.38891599
0.10418763 -0.059283301 0.38891599
-0.1132157 -0.046615642 0.38891602
-0.022648327 -0.041820601 0.38891596
0.14217573 -0.04942143 0.38891599
-0.20251337 -0.034056626 0.38891599
-0.079109319 -0.037270036 0.38891596
-0.010046966 -0.03001482 0.38891599
0.11707246 -0.020168018 0.38891599
0.211358 -0.029937252 0.38256446
0.12610584 -0.014400233 0.38891599
0.19318298 -0.01358337 0.38891599
-0.020923734 -0.0009207949 0.38891599
0.042373113 -0.0053302795 0.38891599
0.18910556 -0.0095056221 0.38891602
-0.17131343 0.00077015907 0.38891602
-0.015947368 0.0070574582 0.38891599
0.085042365 0.0017676218 0.38891599
0.17121714 0.0027316883 0.38891602
-0.1128565 0.010200288 0.38891599
-0.21135798 0.024802409 0.38026431
-0.093803219 0.026783338 0.38891599
-0.083047107 0.034662254 0.38891599
-0.053706996 0.034048647 0.38891599
0.211358 0.038744148 0.38428822
0.14505701 0.046456847 0.38891596
0.19629946 0.048028547 0.38891599
-0.20955318 0.065543711 0.38891599
-0.15599643 0.060499992 0.38891599
-0.049813978 0.067611486 0.38891599
0.1765216 0.0641504 0.38891599
0.11125872 0.070146814 0.38891599
-0.032628529 0.086831644 0.38891599
0.10447464 0.084747151 0.38891599
-0.044522673 0.091405138 0.38891602
-0.094358146 0.10851867 0.38891602
0.21062435 0.116878 0.38878277
-0.19176809 0.12246063 0.38891599
-0.20841996 0.16342625 0.38891602
-0.19817255 0.17513995 0.38891602
-0.17178303 0.19643003 0.38891596
-0.21082927 0.20076147 0.38891599
-0.17405856 0.20007274 0.38891602
