# .PCD v0.7 - Point Cloud Data file format
VERSION 0.7
FIELDS x y z
SIZE 4 4 4
TYPE F F F
COUNT 1 1 1
WIDTH 976
HEIGHT 1
VIEWPOINT 0 0 0 1 0 0 0
POINTS 976
DATA ascii
-0.13904448 -0.43269771 -0.156087
0.037515793 -0.43972099 -0.15003912
-0.16498269 -0.42184958 -0.156087
-0.03065487 -0.42670357 -0.156087
0.05548057 -0.41612345 -0.156087
-0.15057611 -0.39547244 -0.156087
0.077495098 -0.39839855 -0.15608698
0.10773696 -0.39891613 -0.156087
-0.096775837 -0.37914729 -0.15608701
0.063628323 -0.37485164 -0.156087
0.082030103 -0.37228337 -0.15608701
0.082930282 -0.3543967 -0.156087
-0.11704752 -0.34790826 -0.156087
0.052837107 -0.34975475 -0.156087
-0.16656068 -0.3317858 -0.156087
-0.055143509 -0.32535362 -0.156087
0.11599926 -0.32586849 -0.156087
0.09753944 -0.30144361 -0.156087
-0.12046384 -0.2943373 -0.156087
0.13863067 -0.282812 -0.156087
0.11674359 -0.26717424 -0.156087
-0.064518504 -0.25393263 -0.156087
-0.17375025 -0.24086665 -0.156087
-0.1276238 -0.24481253 -0.156087
-0.025694113 -0.24836096 -0.156087
-0.01614186 -0.24618465 -0.156087
0.092803292 -0.24149689 -0.156087
-0.04312548 -0.23871824 -0.156087
0.10127487 -0.21466461 -0.156087
-0.17390206 -0.2028001 -0.156087
0.039142296 -0.19996436 -0.156087
0.070096068 -0.19591993 -0.156087
-0.17026246 -0.17597288 -0.156087
-0.17957529 -0.16286229 -0.156087
-0.077566832 -0.15961577 -0.156087
0.055462912 -0.15308638 -0.156087
0.17514776 -0.14306508 -0.15608698
0.10460687 -0.13593246 -0.156087
-0.15197936 -0.12665983 -0.156087
-0.042705245 -0.12400442 -0.156087
0.021716395 -0.12565425 -0.156087
0.14970344 -0.11848892 -0.156087
-0.15228546 -0.10309812 -0.156087
0.022617385 -0.10824852 -0.15608701
-0.038445797 -0.090345666 -0.156087
-0.12926809 -0.086735293 -0.156087
-0.051324818 -0.081247821 -0.156087
0.0083258636 -0.084669292 -0.156087
-0.14822441 -0.078018598 -0.156087
-0.025169581 -0.069983169 -0.156087
-0.068809062 -0.055031136 -0.156087
0.086061455 -0.054642275 -0.156087
-0.10849467 -0.044883631 -0.156087
0.013948228 -0.044785656 -0.156087
-0.179674 -0.032622807 -0.15481617
-0.10535254 -0.038437255 -0.156087
0.10206042 -0.037129 -0.15128291
0.12794554 -0.037129 -0.15304577
0.16187762 -0.037129 -0.15608013
0.078701541 -0.02078085 -0.15599868
-0.081683487 -0.019656399 -0.15175559
-0.067779265 -0.0025401895 -0.156087
-0.1201241 0.011865894 -0.156087
-0.10380773 0.010091378 -0.156087
-0.14303707 0.022510743 -0.156087
-0.077175185 0.020914728 -0.156087
-0.037907854 0.071008466 -0.15608701
0.040296301 0.094460033 -0.15608698
-0.16871552 0.10882837 -0.156087
-0.074323878 0.10404669 -0.15608701
0.056055322 0.11591984 -0.156087
0.088340186 0.13717917 -0.156087
-0.12143077 0.15202895 -0.156087
-0.029058738 0.15333775 -0.156087
0.097308099 0.15646081 -0.15001628
0.012382973 0.16446434 -0.156087
0.078368679 0.16767114 -0.156087
0.085991025 0.16273361 -0.156087
-0.049288679 0.17862651 -0.156087
-0.0048908517 0.1958687 -0.156087
-0.14992666 0.20735389 -0.156087
-0.038984206 0.2169932 -0.156087
0.022638306 0.21721967 -0.156087
0.025408335 0.22045946 -0.156087
0.044772726 0.22858971 -0.156087
0.078082532 0.22714765 -0.156087
0.080868647 0.2245113 -0.156087
0.051996533 0.24576704 -0.156087
0.06579563 0.24682114 -0.15608701
0.026447795 0.26228744 -0.156087
-0.076494068 0.28612792 -0.156087
-0.050789881 0.28813547 -0.156087
0.011216446 0.28930226 -0.156087
-0.049973954 0.29656291 -0.156087
-0.018554486 0.30846336 -0.156087
-0.12687081 0.31524241 -0.156087
0.020085065 0.33159295 -0.156087
-0.15236658 0.34544954 -0.156087
-0.14180894 0.34299225 -0.156087
-0.017005289 0.35841373 -0.156087
0.073268414 0.35816848 -0.156087
-0.023527119 0.36990401 -0.156087
-0.14617571 0.39842638 -0.156087
-0.12986299 0.3910974 -0.156087
-0.061490275 0.39580187 -0.156087
-0.058216419 0.39778936 -0.156087
-0.13756412 0.4074465 -0.15608698
-0.0057421522 0.4024387 -0.156087
0.10557635 0.40168983 -0.156087
-0.15054038 0.41793662 -0.156087
-0.070903346 0.4280619 -0.156087
-0.059349377 0.4362554 -0.156087
-0.025398962 0.43255785 -0.15608698
-0.014207162 0.43972099 -0.15186304
-0.032677643 -0.35722438 -0.14452399
0.082110152 -0.35088482 -0.14452399
-0.12041424 -0.33273068 -0.14452399
0.179674 -0.31084281 -0.14830799
-0.1448455 -0.30661437 -0.14452399
-0.07590504 -0.30653402 -0.14452399
-0.040282056 -0.30319524 -0.14452399
-0.017941736 -0.30261099 -0.14452399
-0.035905041 -0.29964009 -0.14452399
0.028249197 -0.28719205 -0.14452399
0.179674 -0.2841616 -0.14075366
-0.16667762 -0.2668359 -0.14452399
-0.13903326 -0.26674902 -0.14452399
-0.11901891 -0.25152275 -0.14452399
-0.14633717 -0.22888085 -0.14452399
-0.11591827 -0.22815901 -0.14452399
-0.03232621 -0.22580449 -0.14452399
-0.018206161 -0.22708513 -0.14452399
-0.14006248 -0.2178859 -0.14452399
-0.0055137035 -0.20625752 -0.14452399
-0.075301498 -0.19664796 -0.14452399
0.070464388 -0.19263086 -0.14452399
0.053731304 -0.17614801 -0.14452399
-0.15754135 -0.16936378 -0.14452399
-0.10053749 -0.16600089 -0.14452399
-0.16088496 -0.15528944 -0.14452399
0.075819477 -0.15352133 -0.14452399
-0.03292923 -0.14603131 -0.14452399
-0.12312537 -0.13799056 -0.14452399
0.016934378 -0.1335106 -0.14452399
-0.053768992 -0.12905911 -0.14452401
-0.01477524 -0.12288922 -0.14452399
0.026727479 -0.12798738 -0.14452399
-0.056601938 -0.09470389 -0.14452399
0.080876835 -0.084317803 -0.14452399
0.01304285 -0.073280215 -0.14452399
0.011380624 -0.06291692 -0.14452399
0.12557447 -0.066034608 -0.14452398
-0.0065467376 -0.048776802 -0.14219292
0.087367661 -0.048776802 -0.14272697
-0.11260989 -0.0390958 -0.14452399
-0.070715979 -0.019656399 -0.14908631
-0.179674 0.067829959 -0.14307947
-0.14616252 0.13048001 -0.1423226
-0.028669113 0.13438815 -0.14452399
-0.13115996 0.17974648 -0.14452399
-0.09521237 0.17768279 -0.14452399
0.085645899 0.19208527 -0.14146659
-0.11787482 0.21500391 -0.14452399
-0.15093558 0.22444561 -0.14452399
0.047201384 0.22665069 -0.14452399
0.097308099 0.22160739 -0.14256117
-0.1294767 0.23166189 -0.14452399
0.05527506 0.25435373 -0.14452399
0.097308099 0.25479245 -0.14143258
-0.02093108 0.26941359 -0.14452399
-0.093844235 0.2993229 -0.14452399
0.0027478784 0.33157095 -0.14452399
0.065442376 0.36719993 -0.14452399
-0.12803777 0.37747467 -0.14452399
-0.011671202 0.38828567 -0.14452399
0.097308099 0.43630737 -0.1452359
-0.080431074 -0.381479 -0.13451473
0.062483199 -0.38147902 -0.13793665
0.10449743 -0.381479 -0.13337
0.162181 -0.33143562 -0.13142321
0.179674 -0.31454208 -0.13936558
-0.179674 -0.29128924 -0.13844198
0.179674 -0.22759268 -0.13939375
-0.01956738 -0.048776802 -0.13684201
0.048628956 0.075096741 -0.13259771
0.092483051 0.12499093 -0.13984175
-0.029365502 0.13048001 -0.13659462
0.077676989 0.13048001 -0.13289927
0.097308099 0.13253945 -0.13259949
0.114802 0.15750235 -0.13916501
0.085645899 0.16484797 -0.1314225
-0.179674 0.2532568 -0.13931128
0.085645899 0.34562394 -0.132595
0.085645899 0.36669433 -0.13139857
0.097308099 0.38569295 -0.13019884
-0.179674 -0.43247321 -0.12091891
-0.15673268 -0.43972099 -0.128929
-0.179674 -0.41218635 -0.12548523
-0.16801099 -0.36741635 -0.12466088
0.162181 -0.18045804 -0.12127085
-0.0360802 -0.043173652 -0.12302118
-0.0047454974 -0.043890409 -0.125736
0.076493509 -0.041063886 -0.125736
0.084176078 -0.045094922 -0.125736
0.11679541 -0.040245727 -0.125736
0.11633287 -0.021072641 -0.12574653
0.093376458 -0.019656399 -0.12416329
0.001620777 0.13048001 -0.12954921
0.11077073 0.21754502 -0.125736
0.085645899 0.22472829 -0.12318493
0.106055 0.29157135 -0.12135674
0.11144814 0.2961598 -0.12718099
0.097308099 0.38867384 -0.12243414
-0.16801099 0.39683729 -0.12472617
0.017475698 0.42807299 -0.12606665
-0.10422486 0.43972099 -0.12302393
-0.09182018 0.43972099 -0.12787592
-0.13123113 -0.43972096 -0.11215925
0.015500441 -0.43972099 -0.11874752
0.179674 -0.39063206 -0.11932439
0.081017762 -0.381479 -0.11193155
-0.179674 -0.35375088 -0.11421411
0.150518 -0.33624214 -0.11702535
-0.16801098 -0.27812904 -0.11033034
-0.16801099 -0.19890735 -0.11960176
0.179674 -0.13462363 -0.11139037
0.150518 -0.064156197 -0.1197914
-0.179674 -0.059016097 -0.1107825
-0.026106583 -0.046852715 -0.11424214
-0.047819499 -0.031304099 -0.11450901
-0.10785633 -0.019656399 -0.11003982
-0.071762711 -0.019656399 -0.1199024
-0.033164602 -0.017121151 -0.11761524
0.018458627 -0.019656399 -0.11560136
-0.179674 0.061391979 -0.11705571
0.114918 0.16104637 -0.11852643
-0.051343206 0.42807299 -0.11551921
0.13425468 -0.43972099 -0.10594908
0.15529393 -0.43972099 -0.105324
0.10258596 -0.381479 -0.10105611
0.16218099 -0.302508 -0.10250247
-0.179674 -0.22934131 -0.10793571
0.150518 -0.20063353 -0.10386815
-0.16801101 -0.16296121 -0.10708077
0.162181 -0.14858265 -0.10826476
0.179674 -0.091899551 -0.10154847
0.162181 -0.084147736 -0.10883942
0.162181 -0.070097253 -0.10514833
0.15051799 -0.056074958 -0.10014896
-0.024418 -0.038886692 -0.10501197
0.10681967 -0.0283927 -0.10887711
0.043585643 -0.019656399 -0.10078355
0.078715846 0.10932628 -0.10739806
-0.14211106 0.13048001 -0.10626865
-0.13003658 0.13048001 -0.10531877
-0.12984914 0.13048001 -0.10990945
-0.055708796 0.13048001 -0.10980455
0.10806161 0.19292399 -0.10291649
0.097308099 0.20168088 -0.10464568
-0.16801099 0.27426597 -0.10470077
0.10605499 0.34399617 -0.1081733
0.114802 0.40941131 -0.10067281
-0.039222367 0.42807299 -0.10074323
0.062275201 0.42807299 -0.10607607
-0.10412242 0.43972096 -0.10376945
-0.031754896 -0.43972099 -0.09524332
0.016718 -0.43972099 -0.095888115
0.162181 -0.39889178 -0.094746768
-0.021049455 -0.381479 -0.098780826
0.150518 -0.32676247 -0.095108822
0.179674 -0.32132199 -0.090395615
-0.16801101 -0.30529514 -0.093566954
0.16218102 -0.19938178 -0.093742892
-0.16801099 -0.16697866 -0.093299568
0.16218102 -0.14103399 -0.090539522
0.162181 -0.092976384 -0.098971426
0.179674 -0.078971267 -0.09904667
-0.090844832 -0.031304099 -0.096489303
0.072571814 -0.028392702 -0.091768786
0.16143268 -0.019656399 -0.098837048
0.0077029872 0.028535731 -0.099515527
0.019433549 0.041881457 -0.095105767
0.0096278302 0.13048001 -0.091306359
-0.179674 0.20055765 -0.0905274
-0.179674 0.23428112 -0.098104857
0.091236815 0.37815082 -0.097873859
-0.13350652 0.42807299 -0.095999539
0.10204539 -0.43972099 -0.080209434
-0.11154335 -0.38147902 -0.083490066
0.179674 -0.3382318 -0.081317537
0.162181 -0.25359109 -0.0835682
0.150518 -0.22140399 -0.089793429
0.150518 -0.1633013 -0.083292224
-0.179674 -0.12471255 -0.084473051
-0.020776149 -0.037129 -0.080969192
0.15498418 -0.037129 -0.089296408
-0.028442364 -0.028392699 -0.088766843
-0.16966027 -0.019656399 -0.089679942
0.106055 0.35204184 -0.081291825
0.085645899 0.38987911 -0.087734096
0.085645899 0.40015346 -0.088862441
-0.13880238 0.42807299 -0.088073887
0.021966219 0.42807299 -0.08857996
0.085645899 0.42504466 -0.08494129
-0.14369076 0.43972099 -0.085781828
-0.034982145 0.43972099 -0.088748999
-0.013077386 0.43972099 -0.086857364
-0.078325234 -0.43972099 -0.071978174
0.040900856 -0.43972099 -0.071467854
0.16046052 -0.43972099 -0.078910217
0.179674 -0.26319522 -0.070014603
-0.16801099 -0.14985082 -0.071559235
0.179674 -0.1477605 -0.070596069
0.162181 -0.13169201 -0.071018986
0.150518 -0.091220699 -0.070081249
0.150518 -0.083636612 -0.074921727
-0.179674 -0.078834116 -0.071741
0.150518 -0.060993277 -0.073733941
-0.13832457 -0.031304099 -0.079669178
0.17907262 -0.036818437 -0.070716396
0.043584362 -0.028392702 -0.07579013
0.092150703 -0.028392702 -0.077924423
0.15183048 -0.028392702 -0.079156533
-0.10760391 0.13048001 -0.075360209
-0.073723495 0.13048001 -0.072537005
-0.055689625 0.13048001 -0.070002615
0.016709317 0.13048001 -0.079097494
-0.179674 0.18259364 -0.074201256
-0.16801099 0.27066201 -0.075179882
0.10605499 0.30273798 -0.076151952
-0.16801101 0.37082464 -0.074317873
0.097308099 0.39030495 -0.073253408
-0.16801098 0.40099382 -0.078012794
0.162181 -0.41528058 -0.061581362
0.179674 -0.41556135 -0.067815743
-0.179674 -0.40638322 -0.068856016
0.162181 -0.38915333 -0.065774538
0.162181 -0.29181075 -0.068271399
0.150518 -0.28902352 -0.066725872
-0.16801099 -0.2408765 -0.064075053
0.162181 -0.23578054 -0.067734614
-0.179674 -0.22210762 -0.063572869
0.179674 -0.14631024 -0.068502039
0.15526664 -0.054600999 -0.069306448
0.03435003 -0.019656399 -0.066013984
-0.179674 -0.0048737386 -0.062220253
-0.080261111 0.13048001 -0.063860632
0.11111555 0.19292399 -0.067004532
0.106055 0.26661336 -0.065432571
-0.16801099 0.34317499 -0.068355486
-0.16801099 0.38637653 -0.067177013
-0.11452647 0.42807299 -0.061522171
-0.081008062 0.42807299 -0.065756291
-0.0045138747 0.42807299 -0.067194849
0.051620658 0.42807299 -0.069767885
0.085645899 0.42393649 -0.061748099
0.150518 -0.26403835 -0.058603123
-0.179674 -0.24910539 -0.053150937
-0.16801099 -0.23624747 -0.056656461
-0.0040687509 -0.028392699 -0.051801756
-0.16801101 0.17458464 -0.053157087
-0.179674 0.22736275 -0.057970673
0.114802 0.28875908 -0.052932106
-0.16083373 0.42807299 -0.050634556
-0.179674 0.43412659 -0.057442121
0.069914371 0.43972099 -0.05331463
-0.179674 -0.39417922 -0.046408452
0.048511319 -0.381479 -0.044360656
0.070779696 -0.381479 -0.047653601
0.090109609 -0.38147897 -0.047261596
0.162181 -0.25429836 -0.049709257
-0.16801099 -0.10170239 -0.046911243
-0.16801099 -0.077506468 -0.049411669
0.150518 -0.056233063 -0.045128509
0.036136806 -0.028392699 -0.048738632
0.084458001 -0.019656399 -0.04722828
-0.033164602 -0.0092586298 -0.043361925
0.061999366 0.090308122 -0.045920089
-0.013415781 0.13048001 -0.044330642
-0.179674 0.16398424 -0.046903178
0.097308099 0.1719019 -0.041400876
0.114802 0.41054398 -0.047114387
-0.01566964 0.42807299 -0.040791612
0.019200958 0.43972099 -0.041914299
0.17671686 -0.43972099 -0.037814066
-0.14490449 -0.38147897 -0.030000649
-0.093471661 -0.381479 -0.031657703
0.14915016 -0.381479 -0.035811834
-0.179674 -0.27982733 -0.03192091
-0.179674 -0.23726231 -0.03632031
-0.16801099 -0.19560999 -0.039150957
-0.16801099 -0.15576091 -0.038730014
-0.16801099 -0.12406284 -0.030770957
0.179674 -0.11540907 -0.039030328
-0.179674 -0.10345392 -0.030735917
0.179674 -0.087447986 -0.036570095
-0.16801098 -0.07362318 -0.035954718
-0.12463224 -0.019656399 -0.033505663
0.053660739 -0.019656399 -0.035792228
0.083140604 0.11436027 -0.033316463
0.114802 0.17599103 -0.035072424
0.106055 0.30562764 -0.035832711
0.106055 0.35175157 -0.031506602
0.10018967 0.38366401 -0.037271082
0.114802 0.40632045 -0.03221041
0.114802 0.42332217 -0.038723566
-0.15728198 0.43972099 -0.034706261
0.083672695 -0.38147897 -0.028275168
0.162181 -0.38341206 -0.025057673
-0.16801099 -0.37056929 -0.025398299
-0.16801099 -0.34501505 -0.020193916
-0.179674 -0.26825878 -0.02189789
-0.16801099 -0.14127064 -0.024362523
0.162181 -0.12936693 -0.021998286
-0.179674 -0.11813401 -0.021445323
0.179674 -0.06754525 -0.027047381
-0.16801099 -0.051918082 -0.023916911
-0.026390905 -0.048776805 -0.023925807
-0.10955064 -0.031304099 -0.023217406
0.048572883 -0.028392702 -0.026957149
0.028697055 0.052420449 -0.026944976
0.055289678 0.082674578 -0.0253269
0.10261517 0.12355701 -0.022655524
-0.13908647 0.13048001 -0.022771306
-0.00060235336 0.13048001 -0.024117909
-0.179674 0.19113512 -0.024668515
-0.16801099 0.30973879 -0.023268819
0.114802 0.34273827 -0.029422738
0.097308099 0.39374888 -0.026440995
0.097308099 0.41740638 -0.020816304
-0.179674 0.43010926 -0.021238372
-0.1524224 -0.43972099 -0.012597889
0.097815305 -0.43972099 -0.012243487
-0.1107586 -0.38147902 -0.010543473
0.150518 -0.33964282 -0.016192585
0.150518 -0.32193327 -0.018708639
0.179674 -0.29189247 -0.012073424
-0.09211947 -0.019656399 -0.012702204
0.014555789 0.036332089 -0.010925602
-0.088600591 0.13048001 -0.016552603
0.11410949 0.1368199 -0.019782148
-0.179674 0.14780533 -0.013549075
0.114802 0.21757765 -0.014026321
0.114802 0.29212487 -0.011453194
0.106055 0.30788445 -0.014098942
-0.16801098 0.32127127 -0.015995622
0.106055 0.3382225 -0.016574249
0.106055 0.35282186 -0.017926186
0.114802 0.41210914 -0.0198259
-0.012361696 0.43972099 -0.017628483
-0.11940037 -0.43972099 -0.0084714741
0.012721464 -0.38147902 -0.0042162165
-0.16801099 -0.29165989 -0.0063568
0.179674 -0.23624127 -0.0070830844
0.150518 -0.14490762 -0.0093487017
0.150518 -0.082763501 -0.0020960495
0.16218102 -0.065592565 -0.0053253919
-0.12536986 -0.031304099 -0.0052046198
0.064762294 -0.028392702 -0.0038311146
0.013999065 -0.019656399 -0.0039501861
0.011121878 0.03242537 -0.00020357594
-0.0067319907 0.13048001 -0.0032022297
0.114802 0.29945296 -0.0011378396
-0.16801101 0.3804214 -0.0034558512
-0.10923651 0.42807299 -0.00028255582
-0.098808505 0.42807299 -0.0054539945
-0.10720264 0.43972099 -0.0050863251
0.097308099 0.43857419 -0.0066994205
-0.17663315 -0.43972099 0.0066874623
-0.083120659 -0.43972099 0.002890259
-0.179674 -0.31849435 0.0084673129
0.179674 -0.25073096 0.0057659745
0.179674 -0.20892054 0.0034697773
-0.16801099 -0.13530612 0.0042422879
0.05434173 -0.019656399 0.0098749353
-0.179674 -0.0011426378 0.0036666044
0.011768999 0.033161588 0.0057169683
-0.179674 0.092692249 0.0020671524
-0.16801099 0.32614815 0.0090659559
-0.16801099 0.37841928 0.0063864738
-0.12155381 0.42807299 0.0032363832
0.082034931 0.42807299 0.0054566562
-0.16029729 0.43972099 0.0039326549
0.099606007 0.43972099 0.0016557202
-0.15744691 -0.38147902 0.012888703
-0.1032216 -0.381479 0.016078351
0.179674 -0.31775624 0.014963306
0.162181 -0.2966868 0.013682619
0.150518 -0.2890583 0.01295251
-0.16801099 -0.21430041 0.012801987
0.162181 -0.19173442 0.016593035
0.16218099 -0.086407818 0.012092307
-0.16801099 -0.065310493 0.010656808
0.162181 -0.049256116 0.017391294
-0.179674 -0.033392653 0.015796326
0.02284956 -0.028392699 0.017122505
0.10613309 -0.028392699 0.017460721
-0.179674 0.042652171 0.015987001
-0.16801098 0.1519472 0.011591522
0.085645899 0.15046427 0.015631177
-0.16801099 0.23940116 0.019285329
0.085645899 0.4181093 0.017288025
0.097308099 0.41622525 0.016281985
-0.095236018 0.42807299 0.014481917
-0.10606694 0.43972099 0.019747838
0.044890791 -0.43972099 0.020123947
0.15566638 -0.43972099 0.029275943
0.162181 -0.4038012 0.021592926
-0.14607936 -0.381479 0.02639468
0.11192229 -0.38147897 0.029331386
-0.179674 -0.37920702 0.023178808
-0.179674 -0.33640099 0.025497001
-0.16801098 -0.30939597 0.025325149
0.162181 -0.23603113 0.028282329
-0.16801099 -0.19243607 0.029473711
0.150518 -0.17523043 0.021969076
-0.16801099 -0.088000491 0.022358757
-0.16801098 -0.051112667 0.022490304
0.13673145 -0.028392699 0.022649946
0.093355805 0.12598293 0.020281376
-0.179674 0.20130983 0.027772833
0.114802 0.22232008 0.026838465
0.114802 0.2318808 0.029663984
0.10605499 0.27427575 0.026547605
0.114802 0.31488425 0.025700849
0.097308099 0.4142288 0.026967159
-0.077879176 0.42807299 0.027507251
-0.021693051 0.42807299 0.020886974
-0.012820266 0.43972099 0.025279284
0.019118259 0.43972099 0.022150144
-0.179674 -0.40161848 0.03632402
0.162181 -0.26802555 0.031604268
-0.179674 -0.19693789 0.036325175
0.162181 -0.14466618 0.036424015
-0.16801099 -0.092137486 0.037912041
0.162181 -0.084133819 0.033897195
0.00088694971 -0.028392699 0.030549131
-0.095325872 -0.019656399 0.039507762
-0.024329737 -0.0079075452 0.031845324
0.056084439 0.083578773 0.034695964
0.10664371 0.12761071 0.038282964
0.11435548 0.13712333 0.035262436
0.114802 0.14019111 0.030252077
-0.179674 0.26511514 0.037623957
0.106055 0.26345664 0.036204632
0.10605501 0.27074707 0.038333699
-0.16801099 0.30984762 0.035366837
0.106055 0.3117322 0.030338053
0.106055 0.36939096 0.03811349
-0.179674 0.37117302 0.030512888
-0.15281335 0.42807299 0.036182512
-0.011701964 0.42807299 0.034358088
-0.13536814 -0.43972099 0.047751158
0.150518 -0.3252089 0.048258297
0.150518 -0.30899733 0.041705787
-0.16801099 -0.29722041 0.043711603
0.179674 -0.26613712 0.041258924
-0.16801099 -0.2149509 0.048133805
-0.179674 -0.15702562 0.046654232
-0.179674 -0.11128769 0.043208323
-0.16801099 -0.10654466 0.049187694
0.162181 -0.10225458 0.042584538
-0.179674 -0.046217669 0.047059398
0.15474954 -0.020062592 0.042159736
0.085645899 0.16442454 0.043909211
0.114802 0.16098781 0.04112944
-0.179674 0.19361395 0.047695711
-0.179674 0.25040939 0.042377193
0.106055 0.27657914 0.044391267
-0.16801099 0.30174479 0.041540232
0.1126262 0.38366401 0.049006119
-0.179674 0.39826187 0.04162671
0.114802 0.4134478 0.044654649
-0.13540515 0.42807299 0.04394336
-0.16976765 0.43972099 0.047388278
0.099147998 0.43972099 0.044155892
-0.026424291 -0.43972099 0.057726905
0.179674 -0.40348577 0.054876789
0.076294214 -0.381479 0.056276049
-0.16801099 -0.30325904 0.056667298
-0.16801099 -0.18417042 0.055780165
-0.179674 -0.090495914 0.05204935
0.162181 -0.096815854 0.052019726
-0.16801099 -0.073380306 0.057119623
-0.179674 -0.033074126 0.051528454
-0.1500154 -0.031304099 0.055105269
-0.024418 -0.031387445 0.057348713
-0.033164602 -0.026725164 0.050757788
0.13479736 -0.0283927 0.054171212
0.066620477 0.095565498 0.052695025
0.085645899 0.1493672 0.053920541
-0.179674 0.16836229 0.056906696
0.085645899 0.17089692 0.05695048
0.114802 0.20443837 0.057485733
-0.179674 0.23986806 0.053913124
-0.179674 0.24970281 0.056046113
-0.16801099 0.34992105 0.05339472
0.10605499 0.37193692 0.055911407
0.114802 0.43658 0.054102946
0.012051821 -0.43972099 0.061151646
0.042892218 -0.43972099 0.064349994
0.162181 -0.40219909 0.065365784
0.10984849 -0.381479 0.065390289
-0.179674 -0.33283454 0.064896099
-0.179674 -0.31654114 0.066774778
-0.179674 -0.17688978 0.060398243
0.162181 -0.14044257 0.064311385
0.179674 -0.10799672 0.063086934
-0.16496912 -0.019656399 0.068757735
-0.11508857 -0.019656399 0.06848228
-0.179674 -0.0099653769 0.061643772
-0.179674 0.080088489 0.068952426
0.058214158 0.086001731 0.069651805
0.049730141 0.13048001 0.06242625
-0.16801099 0.15732417 0.066598848
0.106055 0.19482048 0.060501266
0.106055 0.37381393 0.067613073
-0.179674 0.39823878 0.061588965
0.055427082 0.42807299 0.062403046
-0.179674 -0.40106437 0.070669539
-0.095281914 -0.38147902 0.077903703
0.14068511 -0.38147897 0.072056085
0.162181 -0.30280787 0.075189933
0.150518 -0.26759943 0.07145188
0.162181 -0.11393386 0.075231507
0.179674 -0.095968015 0.077690788
-0.179674 -0.083680704 0.075792529
0.150518 -0.081864752 0.074068412
0.162181 -0.045909114 0.079775259
-0.10600298 -0.031304099 0.072884455
0.14707743 -0.033964105 0.073228464
0.053315025 -0.019656399 0.074145876
0.095509529 0.12356275 0.075699762
0.085645899 0.14560771 0.072004579
0.09951856 0.191468 0.07407926
-0.16801099 0.20180593 0.078318924
0.106055 0.22605249 0.075839512
-0.179674 0.30102369 0.070813552
0.114802 0.331994 0.076703556
-0.179674 0.34567666 0.074139878
-0.179674 0.35028002 0.072256193
0.10605499 0.37803313 0.070737951
-0.16801099 0.38628173 0.070993006
0.114802 0.39689729 0.070270307
0.098162822 0.43972099 0.074724674
-0.099240914 -0.43972099 0.086582571
-0.076965027 -0.43972099 0.086218193
0.16570641 -0.43972099 0.088912174
-0.12112617 -0.381479 0.082223527
0.13793562 -0.381479 0.08685483
0.162181 -0.22508398 0.08407028
0.179674 -0.16832925 0.08667808
-0.179674 -0.090106465 0.087042212
0.16032705 -0.037129 0.086979568
-0.048998442 -0.019656399 0.085441366
-0.16122183 0.13048001 0.084440306
-0.15549466 0.13048001 0.08950641
-0.11047855 0.13048001 0.086953983
-0.028552232 0.13048001 0.084768221
0.085645899 0.13719964 0.083267272
0.085645899 0.14346828 0.080350041
0.11491801 0.14121775 0.082933232
-0.16801101 0.23744038 0.086258993
0.108971 0.29022306 0.086940676
-0.16801099 0.37691635 0.088337734
0.106055 0.37212953 0.08328329
-0.10672984 0.42807299 0.088128887
0.01362559 0.42807299 0.082897477
0.035062898 -0.43972099 0.094178483
-0.16801099 -0.37441278 0.092190892
0.179674 -0.36215857 0.095767803
0.179674 -0.29997683 0.091006204
0.162181 -0.21073568 0.090103462
0.150518 -0.20485952 0.092436686
-0.16801099 -0.1637376 0.094902441
0.150518 -0.16808553 0.090955719
-0.179674 -0.15636012 0.097415328
0.17544854 -0.037129 0.098136567
-0.16375801 -0.019656399 0.093625352
0.14886919 -0.019656399 0.090546705
-0.179674 0.0097312247 0.09449245
-0.179674 0.14547613 0.097615778
0.085645899 0.16333617 0.092369929
-0.16801099 0.19195083 0.090641439
0.10521841 0.19216312 0.093291789
0.114802 0.3279075 0.092612438
-0.16801099 0.41342905 0.096595973
0.085645899 0.41585577 0.096760519
0.179674 -0.39168555 0.10540428
-0.15688312 -0.381479 0.10819752
-0.092583224 -0.381479 0.10586614
0.179674 -0.31831658 0.10099341
-0.16801099 -0.2904672 0.1098979
-0.16801099 -0.25791687 0.10680525
0.179674 -0.2301057 0.10756093
0.150518 -0.22362396 0.10511565
-0.179674 -0.18524985 0.10172807
-0.16801099 -0.16243023 0.10061678
0.150518 -0.14345834 0.10416662
0.179674 -0.063663013 0.10333508
0.179674 -0.057055872 0.10138799
-0.16801099 -0.043120064 0.10802584
-0.0127558 -0.036182329 0.10783517
-0.179674 0.10066681 0.10708444
-0.179674 0.11981656 0.10214321
-0.179674 0.1375398 0.10187306
-0.16750343 0.13048001 0.10709462
0.085645899 0.14583297 0.10143383
0.10605501 0.30109182 0.1034315
-0.179674 0.36781994 0.10510376
-0.14177082 -0.43972099 0.11873142
-0.068881199 -0.43972099 0.11258443
-0.014966764 -0.43972099 0.11624714
-0.091624588 -0.381479 0.11523138
0.015840065 -0.381479 0.11966848
-0.179674 -0.15906611 0.11133309
0.150518 -0.10346566 0.11413924
-0.179674 -0.041908644 0.11393427
0.156349 -0.04236605 0.11996455
-0.051757067 -0.019656399 0.11526213
-0.14687458 0.13048001 0.11477732
0.038238231 0.13048001 0.11698525
-0.179674 0.14873195 0.11422987
0.114802 0.14109179 0.11267166
-0.16801099 0.15349016 0.11211556
-0.16801099 0.18865694 0.11181259
0.114802 0.33419055 0.11525113
0.106055 0.36955762 0.11033264
-0.081186011 0.43972099 0.11819522
0.023900855 0.43972099 0.1148131
-0.14846043 -0.381479 0.12630269
0.021170102 -0.381479 0.12021898
0.057671975 -0.381479 0.12936445
-0.179674 -0.36022291 0.12564014
0.150518 -0.35112348 0.12500997
-0.179674 -0.31720901 0.12406082
0.162181 -0.3032096 0.12114322
0.162181 -0.25703907 0.12326255
0.162181 -0.24132077 0.12657812
0.150518 -0.11957262 0.12668268
-0.16801099 -0.060043875 0.1256717
-0.0360802 -0.040275119 0.12140349
-0.019737761 -0.044644848 0.125736
-0.088245913 -0.031304099 0.12001035
-0.065249331 -0.031304099 0.12187604
-0.098896213 -0.019656399 0.12260158
0.066891588 -0.019656399 0.1242352
0.04485777 0.13048001 0.12096279
-0.179674 0.17591986 0.12127778
-0.16801098 0.19685999 0.12600176
0.11256982 0.21342075 0.12718099
0.096853562 0.27122396 0.12718099
0.11058488 0.27554658 0.12718099
-0.179674 0.28396493 0.12135682
0.096410491 0.29670396 0.12718099
0.085645899 0.32649574 0.12918672
0.11094415 0.35524479 0.12718099
0.085645892 0.42156371 0.12201937
-0.16044998 -0.43972099 0.13830362
0.094561636 -0.43972099 0.13379379
0.12824807 -0.43972099 0.13123815
-0.12091052 -0.381479 0.13941559
0.059123356 -0.381479 0.13815109
0.062355157 -0.381479 0.13760884
0.150518 -0.3213886 0.13180044
-0.179674 -0.3169497 0.13181429
-0.16801099 -0.31857669 0.13696727
0.162181 -0.26256779 0.13043223
0.150518 -0.25523749 0.13434011
0.162181 -0.20671512 0.13592553
0.179674 -0.14129686 0.13438913
0.150518 -0.10271873 0.13832697
0.179674 -0.10883923 0.13402459
0.10596199 -0.037129 0.13317846
0.14582746 -0.037129 0.13214026
-0.036408093 -0.019656399 0.13207638
0.020729735 -0.019656399 0.13434258
0.16687557 -0.019656399 0.13853638
-0.12514718 0.13048001 0.13554308
-0.179674 0.14642973 0.13521822
0.114918 0.15380666 0.13175899
0.114802 0.21966627 0.13154319
-0.179674 0.22626524 0.13667127
-0.179674 0.26997769 0.13938004
0.085645899 0.2804836 0.13433573
-0.16801099 0.33705801 0.13100654
0.114802 0.38048926 0.13054633
0.075897627 0.42807299 0.13234186
-0.15441945 0.43972099 0.13432904
-0.069475859 -0.43972099 0.14354552
0.073543973 -0.43972099 0.14415433
0.080974169 -0.43972099 0.14391658
0.10476 -0.43972099 0.14227068
0.17562588 -0.43972099 0.14543018
-0.11113305 -0.38021612 0.14452399
-0.125365 -0.37715918 0.14452399
-0.084173061 -0.3773964 0.14452399
0.10751151 -0.3650516 0.14452399
-0.11145777 -0.3560341 0.14452401
0.179674 -0.34254628 0.14790811
-0.04630674 -0.33791828 0.14452399
0.019577492 -0.33677346 0.14452399
0.035110246 -0.32659155 0.14452399
0.069936708 -0.32205278 0.14452401
0.049216073 -0.31544831 0.14452399
-0.16801099 -0.30827478 0.14291407
-0.15533718 -0.30026871 0.14452398
-0.053675506 -0.30109948 0.14452399
-0.080493562 -0.29488432 0.14452399
-0.179674 -0.28696063 0.14608184
-0.050738405 -0.28786662 0.14452399
-0.12449906 -0.27880505 0.14452399
0.019086324 -0.2770783 0.14452399
0.11083044 -0.26702407 0.14452399
-0.10187091 -0.25177476 0.14452399
-0.036358923 -0.25293267 0.14452399
0.10469739 -0.25360662 0.14452399
-0.096959129 -0.2482028 0.14452399
-0.10073425 -0.2365298 0.14452401
-0.040825211 -0.23966549 0.14452399
0.039773177 -0.22429088 0.14452399
0.179674 -0.21572945 0.14292873
-0.13274813 -0.20517619 0.14452399
0.036841277 -0.20477979 0.14452399
0.13766743 -0.20784497 0.14452399
-0.09147089 -0.18636228 0.14452399
-0.050617114 -0.18510191 0.14452399
0.058170717 -0.16372016 0.14452399
-0.10434555 -0.15476426 0.14452399
-0.078706846 -0.15213361 0.14452399
-0.15160677 -0.13080679 0.14452399
-0.16801099 -0.10175318 0.14426732
0.042256977 -0.1002866 0.14452399
0.12118984 -0.10119117 0.14452399
0.050686367 -0.091985047 0.14452399
-0.16801099 -0.088217355 0.14075936
-0.048577994 -0.083798051 0.14452401
-0.016709959 -0.086960852 0.14452399
-0.10924964 -0.071588673 0.14452399
-0.026298407 -0.066998087 0.14452399
-0.10505331 -0.038081028 0.14452399
0.10364459 -0.037129 0.14801668
-0.031155583 -0.019656399 0.14411984
0.11339179 -0.019656399 0.14070717
-0.179674 0.0030449256 0.14474192
-0.014241211 0.13850704 0.14452399
0.055002287 0.13452823 0.14452399
-0.16722654 0.15730777 0.14452401
0.040648237 0.16005173 0.14452399
0.072120987 0.16614011 0.14452399
0.07145822 0.18713519 0.14452399
-0.179674 0.1925434 0.14818257
-0.13208848 0.21542126 0.14452399
0.074101515 0.21150443 0.14452399
-0.093894772 0.23190817 0.14452399
-0.022090442 0.23350139 0.14452399
-0.072496057 0.24526712 0.14452399
-0.16682234 0.25168973 0.14452398
0.036240488 0.26237413 0.14452399
-0.14684299 0.27752435 0.14452399
-0.055926092 0.2784934 0.14452399
-0.030301053 0.28968108 0.14452399
0.051796362 0.28742808 0.14452399
0.076622866 0.2841363 0.14452399
0.114802 0.31605959 0.14783366
-0.047679767 0.33301026 0.14452399
-0.053181909 0.34459957 0.14452399
-7.9153106e-06 0.3400501 0.14452399
0.029731926 0.35118166 0.14452399
-0.080906793 0.36786932 0.14452399
-0.10151484 0.38335988 0.14452399
-0.075139999 0.38314414 0.14452399
-0.036161609 0.3804698 0.14452399
0.055019896 0.38501137 0.14452399
-0.03241824 0.39944223 0.14452399
-0.027916059 0.3919284 0.14452399
-0.179674 0.40948051 0.14633745
-0.13149878 0.40539718 0.14452399
-0.065550536 0.41258025 0.14452399
0.085645892 0.41557217 0.14210705
-0.17926374 0.43972099 0.14222701
-0.13454513 -0.43805891 0.15608698
-0.064471245 -0.43972099 0.1534128
-0.179674 -0.41334388 0.15104237
-0.16361064 -0.40036139 0.15608701
-0.017408647 -0.39194989 0.156087
0.081329316 -0.39213124 0.156087
-0.1398135 -0.3680748 0.156087
-0.11497987 -0.36540481 0.156087
-0.030481547 -0.35002211 0.156087
0.16165549 -0.35384828 0.156087
0.067560986 -0.34976906 0.156087
0.10252856 -0.34108123 0.156087
0.15344365 -0.33830419 0.156087
-0.064044125 -0.3182157 0.156087
0.029088955 -0.31584656 0.156087
0.022091139 -0.30395183 0.156087
0.17408419 -0.29502693 0.156087
0.089010164 -0.28753713 0.156087
-0.17121056 -0.27990273 0.156087
-0.063185908 -0.26914582 0.156087
-0.05586898 -0.26986688 0.156087
0.0813879 -0.26693681 0.156087
0.162181 -0.25371197 0.15083171
0.179674 -0.25077361 0.15427539
-0.179674 -0.24457349 0.15073134
-0.065061346 -0.24516782 0.15608698
0.019847739 -0.24631867 0.156087
0.10842656 -0.23731709 0.156087
0.05252035 -0.22624981 0.156087
0.035432361 -0.21820216 0.156087
0.076937333 -0.21722482 0.15608701
0.12875402 -0.20306757 0.156087
-0.15073001 -0.18523557 0.156087
0.055843867 -0.18191984 0.156087
-0.17432907 -0.15605739 0.15608698
-0.0062239999 -0.1534119 0.15608698
0.055768952 -0.14603671 0.156087
0.11457219 -0.14480555 0.156087
0.031326782 -0.13136119 0.156087
0.097861886 -0.11161217 0.156087
-0.14929703 -0.10655805 0.15608701
0.12595436 -0.1048476 0.15608701
0.002407751 -0.064648829 0.156087
0.058580067 -0.068083555 0.156087
0.13926719 -0.068366885 0.156087
0.093875043 -0.058882456 0.156087
-0.10594122 -0.040000618 0.156087
0.08417213 -0.045564156 0.156087
-0.09189561 -0.030568266 0.156087
0.053185508 -0.03483253 0.156087
-0.16226692 -0.024916537 0.156087
0.10039549 -0.02357237 0.156087
-0.058262199 -0.015147015 0.15430966
0.071699306 -0.019656399 0.15004981
-0.179674 0.035258166 0.15531532
-0.11442403 0.032515973 0.156087
-0.043543234 0.068161711 0.156087
-0.026960382 0.079092585 0.156087
-0.10973091 0.083146878 0.156087
-0.179674 0.10140306 0.15259293
0.042039752 0.10046813 0.156087
0.03956455 0.12407374 0.156087
0.068646096 0.14571214 0.156087
0.046822064 0.15965092 0.156087
-0.10573607 0.17901269 0.156087
-0.0058058091 0.17146052 0.156087
-0.12034178 0.20384681 0.156087
-0.074598163 0.21845628 0.156087
0.092502691 0.2309874 0.156087
-0.16633412 0.24576388 0.15608698
0.038478021 0.24194694 0.156087
0.10986211 0.24970907 0.156087
-0.090828732 0.25938767 0.156087
-0.095360748 0.27779838 0.156087
0.00076356041 0.2726678 0.156087
-0.05770066 0.2852942 0.156087
0.075842418 0.28952241 0.156087
-0.15110981 0.29535577 0.15608701
-0.067965552 0.29437113 0.156087
0.0005669184 0.29194394 0.156087
0.06543377 0.29947272 0.156087
-0.081237063 0.30905533 0.156087
0.011688616 0.3018384 0.156087
-0.079380155 0.31903434 0.156087
-0.11111097 0.34042713 0.156087
-0.10280421 0.34101105 0.156087
-0.11966325 0.35761446 0.156087
-0.06926918 0.35672149 0.156087
0.070740715 0.35414305 0.156087
-0.11958138 0.40678185 0.156087
0.0055354228 0.42111868 0.156087
-0.053196553 0.43149552 0.156087
-0.020761954 0.43818435 0.156087
0.026360516 0.43428665 0.156087
0.098240353 0.43603116 0.156087
