# .PCD v0.7 - Point Cloud Data file format
VERSION 0.7
FIELDS x y z
SIZE 4 4 4
TYPE F F F
COUNT 1 1 1
WIDTH 907
HEIGHT 1
VIEWPOINT 0 0 0 1 0 0 0
POINTS 907
DATA ascii
0.22223599 -0.29067129 -0.20216949
0.22366199 -0.25526145 -0.20597398
0.22223599 -0.19766639 -0.20876233
0.22223599 -0.30845261 -0.19770688
0.2274543 -0.28996548 -0.19143328
0.22232828 -0.18241152 -0.19528081
0.22223599 -0.3010934 -0.18233849
0.22223598 -0.18247214 -0.18000466
0.22223599 -0.31452709 -0.17934936
0.2310155 -0.27489379 -0.17383114
0.23120615 -0.26770127 -0.17460161
0.22223599 -0.23259814 -0.17071417
0.22223599 -0.19270244 -0.17747816
0.22223599 -0.30723882 -0.16007833
0.22297661 -0.27163628 -0.16070613
0.23315944 -0.25063881 -0.16704701
0.22605261 -0.24589175 -0.16923925
0.22264369 -0.23618953 -0.16628513
0.22773099 -0.22217247 -0.16152391
0.22223599 -0.21396941 -0.16731407
0.22223601 -0.18413424 -0.16504118
0.22997029 -0.17041594 -0.16449487
0.22223599 -0.31401765 -0.15097603
0.22223599 -0.30206209 -0.15783352
0.22259453 -0.28335753 -0.15583377
0.23518088 -0.24283934 -0.15703253
0.23619232 -0.20383143 -0.15017419
0.22223599 -0.1774852 -0.15614668
0.23690183 -0.17687669 -0.15831521
0.23354885 -0.26554325 -0.14592491
0.22223599 -0.23146491 -0.14829715
0.23696783 -0.23127101 -0.14850071
0.22223601 -0.22750844 -0.14724927
0.23760456 -0.22400038 -0.1471623
0.22882506 -0.1594851 -0.14101693
-0.044016823 0.0033291797 -0.14076133
-0.0033079274 0.0021957674 -0.14029239
0.088691071 0.0090770712 -0.14313954
-0.010544676 0.016925555 -0.14448661
-0.0075483099 0.011689739 -0.14379795
0.036014352 0.014101366 -0.14411515
0.063468896 0.018534036 -0.14469816
0.027111497 0.024292368 -0.14545554
0.098114863 0.021951312 -0.14514762
0.20347045 0.024890624 -0.14553423
-0.10129426 0.033757783 -0.14670052
0.013957008 0.039293867 -0.14742866
0.028524004 0.035190448 -0.14688894
0.090237699 0.035896335 -0.14698181
0.15182287 0.036864657 -0.14710915
0.19007617 0.038860112 -0.14737162
0.21196225 0.037197292 -0.1471529
-0.101799 0.044233739 -0.14016497
-0.082961112 0.046045624 -0.1483167
-0.057826772 0.045664541 -0.14826658
-0.018572403 0.044124674 -0.14806405
0.027464125 0.045794539 -0.14828369
0.055849984 0.042175837 -0.14780772
0.019570921 0.054028865 -0.14794128
0.057678197 0.053582814 -0.14799994
0.073531151 0.057726875 -0.14745487
0.11446298 0.051574513 -0.14826408
-0.10059336 0.06157162 -0.14694919
-0.07778345 0.069087721 -0.1459606
-0.010689748 0.063088968 -0.14674962
0.074127153 0.061902881 -0.14690562
0.1371426 0.068691075 -0.14601278
-0.065475814 0.077918321 -0.14479913
0.022645891 0.078173995 -0.14476551
0.098111629 0.07770329 -0.14482743
0.13773054 0.077029474 -0.14491604
-0.10169039 0.087085649 -0.14357702
0.083955161 0.086867034 -0.14362215
0.14460006 0.081519343 -0.14432551
0.18472789 0.080062285 -0.14451715
-0.061731674 0.092391938 -0.14138153
-0.053758081 0.093483701 -0.14092982
-0.013961818 0.094485804 -0.14051519
0.060737211 0.093014285 -0.14112404
0.22223599 -0.27476963 -0.13512805
0.22223601 -0.26155287 -0.1347197
0.22223599 -0.25379288 -0.13555728
0.23943374 -0.19286264 -0.13157466
0.22223598 -0.17713651 -0.13350959
0.17183258 -0.020633798 -0.13084662
-0.084296763 -0.013028037 -0.13399351
-0.076084532 -0.01163445 -0.13457011
0.0084444974 -0.012286381 -0.13430038
0.063922539 -0.012750052 -0.13410853
0.10397816 -0.012535252 -0.13419741
0.14043942 -0.013487557 -0.1338034
0.18208203 -0.011476723 -0.13463536
-0.101799 -0.0099930326 -0.13346764
-0.098524116 -0.0015459186 -0.13874425
-0.048565943 -0.0057015638 -0.13702485
-0.031890761 -0.0044198278 -0.13755518
0.018530376 -0.0037566982 -0.13782954
0.032577608 -0.006381481 -0.13674355
0.10410837 -0.008809478 -0.13573894
0.13204932 -0.0041817627 -0.13765368
0.19429713 -0.0038554403 -0.13778868
-0.101799 0.019776745 -0.13025939
-0.101799 0.029398743 -0.13549894
-0.101799 0.082219779 -0.13067625
-0.025910851 0.098384812 -0.13890198
0.14301291 0.099666119 -0.13837184
0.20664307 0.096144222 -0.13982904
-0.021796061 0.10519372 -0.13608479
0.045713492 0.10460898 -0.13632672
0.10840161 0.10961366 -0.13425604
0.15405583 0.10460827 -0.13632701
-0.08535552 0.11387936 -0.1324911
-0.037831083 0.11240788 -0.13309991
-0.005265953 0.11917958 -0.13029812
0.03264527 0.11830961 -0.13065808
0.07953012 0.11779672 -0.13087028
0.11154259 0.11961816 -0.13011666
0.22313362 -0.33437133 -0.12240555
0.22796133 -0.30281347 -0.12623367
0.23367971 -0.26544112 -0.12150425
0.22223599 -0.2572349 -0.12961143
0.22223599 -0.24301524 -0.12376937
0.24095787 -0.21556939 -0.12330727
0.22223599 -0.20183903 -0.12269129
0.24173912 -0.19861242 -0.12679294
0.22223598 -0.18186444 -0.12697111
0.042193986 -0.031859882 -0.12399583
0.072038174 -0.031132467 -0.12455341
0.097698256 -0.03184266 -0.12400903
0.10089821 -0.030276697 -0.12520941
0.15381438 -0.03105673 -0.12461148
-0.061075468 -0.026680879 -0.12796575
-0.027114838 -0.025673112 -0.12873824
0.019714084 -0.022846282 -0.12993121
0.034271557 -0.025560439 -0.12880822
0.093850486 -0.027836964 -0.12707956
-0.101799 0.075114489 -0.12377238
-0.101799 0.11274133 -0.12048481
-0.035918623 0.12888147 -0.12414799
-0.0028484594 0.12990263 -0.12336524
0.10947949 0.12521753 -0.12695655
0.16987768 0.12387646 -0.12798454
-0.037424617 0.13323721 -0.12080915
0.056176949 0.1333531 -0.12072031
0.10446832 0.13212501 -0.1216617
0.22223598 -0.2952697 -0.11312291
0.22223599 -0.27889699 -0.11424878
0.23546866 -0.25374609 -0.111939
0.22223598 -0.2067852 -0.11466829
0.24169797 -0.15642793 -0.11140159
-0.081114009 -0.048474997 -0.11125966
-0.070331119 -0.042111315 -0.11613769
0.046869967 -0.045184962 -0.11378162
0.067837954 -0.044218346 -0.11452257
0.15709279 -0.045967195 -0.11318199
0.18307593 -0.044801902 -0.11407524
-0.101799 -0.033607617 -0.11275203
-0.071007065 -0.037589043 -0.11960419
0.20390609 -0.038585924 -0.11884004
-0.101799 0.015312267 -0.11231232
-0.101799 0.12267181 -0.11966112
-0.094410516 0.13672772 -0.11813352
-0.069107898 0.13949484 -0.11601241
0.009628199 0.1346374 -0.11973584
0.099469312 0.13735004 -0.1176565
-0.030562056 0.1401954 -0.11547542
0.098594517 0.14564613 -0.11129721
0.12327884 0.14147434 -0.11449505
0.16756295 0.14679971 -0.11041293
0.18722244 0.14395462 -0.11259381
0.22793061 -0.30301654 -0.10800958
0.22565621 -0.28403881 -0.10923296
0.23134685 -0.28068566 -0.10172705
0.22223598 -0.20282622 -0.10260464
-0.090865076 -0.052467104 -0.10819956
-0.022334499 -0.056264348 -0.10528881
0.0040910402 -0.052890722 -0.10787483
0.016062133 -0.055429827 -0.10592851
0.13801806 -0.052666206 -0.10804693
0.16181223 -0.057064209 -0.10429269
-0.101799 -0.021627961 -0.10537975
-0.101799 0.006184564 -0.10294366
0.21207228 0.066005729 -0.10539373
0.20846353 0.08767055 -0.100192
-0.101799 0.11710044 -0.1065661
0.044618957 0.14768508 -0.10973427
0.021318542 0.15027025 -0.10775263
0.12079519 0.15678731 -0.10103419
0.177286 0.15452737 -0.10397632
0.22223599 -0.30974895 -0.09774559
0.22223598 -0.29537922 -0.095870577
0.2325663 -0.27271622 -0.099950552
0.22223599 -0.23625979 -0.098112211
0.23120895 -0.19349852 -0.09247037
0.22223599 -0.18695849 -0.094984613
0.22223599 -0.1560902 -0.091372967
0.22223601 -0.14960855 -0.091873705
-0.015660962 -0.063199937 -0.096304566
0.084519267 -0.067957059 -0.090111211
0.19310123 -0.062142473 -0.097681478
0.21314001 -0.062082738 -0.097759426
-0.101799 0.032508653 -0.093976453
0.21099871 0.036885295 -0.096693791
0.20672429 0.097293198 -0.090229899
-0.092038222 0.16475099 -0.090666607
-0.081552081 0.16497946 -0.090369165
-0.018312011 0.16414687 -0.091453075
0.0059425384 0.16490956 -0.090460166
0.040786631 0.16204071 -0.094195008
0.070956305 0.16071121 -0.095925808
0.13568233 0.16181117 -0.094493836
0.22415853 -0.32855606 -0.084846586
0.22223598 -0.28693658 -0.082580552
0.22223599 -0.26436704 -0.086982831
0.22223598 -0.25195089 -0.08171688
0.22223601 -0.2313661 -0.08809527
0.24013366 -0.22325176 -0.089745477
0.22223599 -0.21857148 -0.083372563
0.22223599 -0.20289256 -0.080711842
0.24726075 -0.17666677 -0.088983901
0.22223599 -0.16435857 -0.087672397
0.22223599 -0.15439993 -0.080766335
-0.055850025 -0.074817896 -0.081180304
0.059384808 -0.074512757 -0.081577614
0.11884363 -0.075441942 -0.080367945
-0.101799 -0.040085662 -0.08489693
0.20963663 0.019539952 -0.087041751
0.20023927 0.029741105 -0.080404334
0.19816075 0.056734357 -0.084718406
-0.101799 0.074351564 -0.082703963
-0.033529315 0.16871099 -0.085511252
0.015848208 0.16594934 -0.089106515
0.047735248 0.16734213 -0.08729329
0.065905467 0.16744527 -0.087159038
-0.065701842 0.1717872 -0.081506424
0.083613418 0.17247108 -0.080616117
0.21516912 0.17093106 -0.082621008
0.2246255 -0.32571799 -0.073632963
0.22223598 -0.30427361 -0.074489444
0.22223601 -0.22496527 -0.075221702
0.22223599 -0.21511483 -0.073892064
0.23134793 -0.20036513 -0.079960957
0.038651373 -0.081123836 -0.07165385
0.11063596 -0.081356041 -0.071093857
0.12658539 -0.080774844 -0.07249549
0.13325876 -0.081777558 -0.0700773
-0.065109558 -0.077303164 -0.077944763
0.12942861 -0.077632271 -0.077516265
0.15984032 -0.078451343 -0.076449558
-0.101799 -0.068146907 -0.074043699
-0.101799 -0.059552044 -0.076792955
0.21130204 -0.014108276 -0.075421117
0.18651778 0.020995777 -0.078741334
-0.101799 0.054378737 -0.077821575
0.17521697 0.062612422 -0.076070607
0.17451747 0.071464568 -0.073107988
0.17981738 0.094227627 -0.073960125
0.18414161 0.096461356 -0.076638229
0.19356644 0.10302699 -0.07169272
-0.101799 0.16667087 -0.074268073
-0.01755821 0.17526841 -0.076974377
0.027975585 0.17654517 -0.075312212
0.043415926 0.17319907 -0.079668358
0.089101344 0.17856795 -0.071114108
0.13498104 0.17634676 -0.075570524
0.18439193 0.17761405 -0.073414572
0.19570076 0.17831098 -0.071733855
0.22358277 -0.33205467 -0.060563095
0.22223599 -0.29506874 -0.061851334
0.23180467 -0.28208402 -0.064351872
0.22223598 -0.27978098 -0.064115942
0.22223601 -0.26717606 -0.067493238
0.2351303 -0.26187229 -0.064878307
0.22223601 -0.24574837 -0.063189894
0.23209637 -0.21401793 -0.069319963
0.22223599 -0.20732988 -0.069968782
0.24552515 -0.19423443 -0.065737084
0.25058007 -0.15792304 -0.068084896
-0.022229742 -0.081995755 -0.069551088
0.086200453 -0.083867282 -0.065037653
0.11076271 -0.081885122 -0.069817908
0.14814967 -0.084231883 -0.064158365
0.17118707 -0.084604569 -0.063259587
0.20177805 -0.085561335 -0.060952183
0.20303446 0.0043725707 -0.068268165
-0.101799 0.04949861 -0.06607201
0.17282778 0.052760281 -0.069136478
-0.101799 0.0649665 -0.061861545
0.17209797 0.074193582 -0.063525401
0.17884751 0.098899618 -0.063266791
0.20252022 0.11531025 -0.065739669
0.21081108 0.14060608 -0.067273483
-0.10179899 0.15285604 -0.065959536
-0.089355201 0.18067081 -0.066042803
-0.070912875 0.1818365 -0.063231602
-0.046260051 0.18281093 -0.060881656
-0.025659479 0.18244962 -0.061752971
0.057887774 0.18308514 -0.060220364
0.18853287 0.1823445 -0.062006511
0.25224057 0.24055567 -0.061950203
0.22223598 -0.31010085 -0.059537537
0.22827014 -0.30356723 -0.055761609
0.23007567 -0.29259443 -0.050287191
0.22223598 -0.27987444 -0.053895384
0.23228422 -0.27917176 -0.050700404
0.22223601 -0.26897117 -0.055586129
0.22223601 -0.15200071 -0.054930046
0.23108844 -0.13886699 -0.057617359
-0.079483487 -0.086655527 -0.0583134
0.069350831 -0.086000897 -0.059892129
0.1715703 -0.089875437 -0.050548136
0.18015336 -0.089797124 -0.050736986
-0.101799 -0.033225775 -0.057928476
0.20350087 -0.010291521 -0.053699277
0.18122488 0.0031211288 -0.054759197
0.17466572 0.044891633 -0.054297231
-0.101799 0.10004037 -0.053893164
0.20553973 0.12784728 -0.058314804
0.21057653 0.15135129 -0.050855346
-0.022645872 0.18347391 -0.059282776
0.014304379 0.1866399 -0.051647585
0.060676619 0.18392991 -0.058183122
0.12720834 0.18383275 -0.058417372
0.18440312 0.18445827 -0.056908883
0.21742952 0.18378946 -0.058521792
0.22891819 0.30686462 -0.050145283
0.23215812 0.30129984 -0.053421527
0.22635949 -0.31517994 -0.047526054
0.22223599 -0.26807112 -0.04124029
0.24095871 -0.22645241 -0.043597937
0.24539177 -0.19950998 -0.043967295
0.22223598 -0.16206715 -0.042751856
0.25024295 -0.16836458 -0.048956942
0.22223599 -0.13952002 -0.045590591
0.070577115 -0.093099013 -0.042774029
0.11028702 -0.092399664 -0.04446061
0.1674187 -0.091459058 -0.04672901
-0.101799 -0.039939381 -0.046399903
0.21162888 -0.03057958 -0.047548555
0.17577532 -0.0042750314 -0.044317894
0.171077 0.035602748 -0.041932054
0.171077 0.057035975 -0.041954942
0.17263463 0.11124349 -0.045058824
-0.013797177 0.18860693 -0.046903849
0.0040691942 0.18939833 -0.044995252
0.014334872 0.18965894 -0.044366796
0.025712468 0.18764883 -0.049214438
0.15564132 0.18747906 -0.049623817
0.16467369 0.18772039 -0.049041837
0.24205443 0.27862367 -0.049388401
0.22600636 -0.31732708 -0.035843208
0.23143467 -0.28433526 -0.030426281
0.22223601 -0.27934265 -0.034386665
0.22223598 -0.23856032 -0.037992634
0.23960663 -0.23467022 -0.037979174
0.24666354 -0.19178045 -0.030088972
0.22223599 -0.16358952 -0.033406775
0.23862073 -0.14023536 -0.036687598
0.031110175 -0.095621914 -0.032262839
0.068014964 -0.095548019 -0.032823507
0.15838709 -0.094936691 -0.037461888
0.2001747 -0.095453009 -0.03354441
-0.101799 -0.0018927716 -0.034877319
0.17158589 0.0068409853 -0.033428054
0.17109644 0.022190912 -0.03905493
0.171077 0.043688018 -0.032012887
0.1728185 0.057972319 -0.039140299
0.18466774 0.13904376 -0.032993354
-0.092803933 0.19264457 -0.033762068
0.010903545 0.19257675 -0.034276862
0.20454672 0.19267069 -0.033563845
0.2519193 0.24818525 -0.034209374
0.22756495 0.28411508 -0.039000802
0.23199904 0.29613358 -0.034909222
0.22551507 0.30675289 -0.037851948
0.22317484 0.32175955 -0.034976631
0.22223599 -0.25661293 -0.024341829
0.22223601 -0.20967117 -0.021515246
0.25088561 -0.1677058 -0.020288201
0.22223599 -0.13638529 -0.028384686
-0.095669314 -0.096762657 -0.023607649
-0.072280139 -0.09720169 -0.020276548
0.033350643 -0.095949665 -0.029776074
0.052135766 -0.096103206 -0.028611045
0.061853796 -0.09668275 -0.024213903
0.086793587 -0.096514381 -0.025491385
0.11548615 -0.096193336 -0.027927201
0.13476641 -0.096818388 -0.023184793
0.16165064 -0.096936911 -0.022285517
-0.10179899 -0.075193293 -0.0254196
0.20438725 -0.026252735 -0.025944088
0.18420526 -0.017611345 -0.027637016
0.17236312 -0.0020745844 -0.028998436
0.17127366 0.0072475993 -0.025936885
0.17456 0.055254392 -0.02577618
-0.101799 0.067745656 -0.021872438
0.17118773 0.10565944 -0.029000264
-0.101799 0.11269835 -0.026131842
0.17754854 0.12716924 -0.025605211
-0.101799 0.13653807 -0.028869316
0.18005241 0.1382423 -0.024519736
0.20202395 0.14155142 -0.027404472
-0.101799 0.16358721 -0.027702775
-0.085825533 0.19357128 -0.026729308
0.079589561 0.19441238 -0.020346286
0.25102085 0.25899729 -0.029392138
0.22223599 -0.31030059 -0.013712622
0.22223599 -0.30216524 -0.015416316
0.22223599 -0.26940325 -0.010088556
0.24897748 -0.17916375 -0.019226165
0.22223601 -0.14425699 -0.014428111
-0.078876972 -0.097487509 -0.01810796
-0.0025063232 -0.097428612 -0.018554782
0.0014631089 -0.097920865 -0.014819924
0.017847814 -0.097417489 -0.01863917
0.07739459 -0.09736003 -0.019075133
0.11276977 -0.098387688 -0.01127796
0.21083307 -0.038130604 -0.016597321
-0.101799 -0.0066070966 -0.012383054
0.17456 0.026570367 -0.013435598
0.171077 0.067685559 -0.018044965
0.1728185 0.084437907 -0.012353318
0.17281848 0.10276088 -0.015557059
0.18187846 0.13783869 -0.014233376
0.20381127 0.14605202 -0.017792929
-0.101799 0.17194083 -0.013346799
0.22302844 0.32211438 -0.015739864
0.22409314 -0.31774658 -0.0040017613
0.22223601 -0.2808497 -0.002462551
0.25024399 -0.17343523 -0.0034612152
0.22223599 -0.14109224 -0.0092419172
0.24813461 -0.14441273 -0.009431011
-0.052901022 -0.09914773 -0.0055112755
0.019186903 -0.099335916 -0.0040834011
0.10728753 -0.099413462 -0.0034950161
0.165843 -0.098578274 -0.0098318849
0.17111874 -0.098650232 -0.0092859222
0.2115131 -0.042883225 -0.0018942313
-0.101799 -0.020436643 -0.0044298735
0.19425189 -0.026459545 -0.0012422382
0.20198214 -0.028854141 -0.0029696121
0.17130864 -9.7026408e-05 -0.0038559481
0.17456 0.031015495 -0.003797848
0.171077 0.073806025 -0.0089498712
0.17456 0.083053865 -0.0092586614
0.17642766 0.12956159 -0.0013564313
0.17815332 0.14032881 -0.0074968697
-0.101799 0.15668492 -0.005064337
0.0069846902 0.19626021 -0.0063232142
0.04759587 0.19616964 -0.0070105172
0.22585994 0.27087623 -0.00099454075
0.24312368 0.27107981 -0.0029053912
0.22422287 0.29489434 -0.0027878098
0.22334114 -0.33352923 0.005109292
0.22223599 -0.32028019 0.00067913509
0.22223599 -0.20327488 0.0040615303
0.24613452 -0.19767155 0.0050391718
0.24223807 -0.14057599 0.00017212515
-0.070399046 -0.09951967 0.001939563
-0.033203371 -0.099142976 0.0047977427
0.00032927841 -0.09951736 0.001957085
0.17461275 -0.098663479 0.0084357932
-0.101799 -0.08847867 0.001331417
-0.101799 -0.045732308 0.0097430227
-0.101799 -0.03536766 0.005510347
-0.101799 0.03580448 0.002517995
-0.101799 0.040003542 0.0064714607
0.17456 0.046184704 0.0058012055
-0.101799 0.064584807 0.0086034201
-0.101799 0.10438818 0.007041513
0.17743456 0.13301262 0.0085621402
-0.101799 0.1645098 0.0025450406
-0.10177922 0.19608104 0.0069327378
-0.04617409 0.19636942 0.004744289
-0.031251557 0.19583291 0.0088159414
0.012792639 0.1967745 0.0016701261
0.031880505 0.19667757 0.0024057527
0.10843179 0.19662967 0.0027692064
0.126314 0.19616576 0.0062899613
0.1664419 0.19681029 0.0013985474
0.20063519 0.19615509 0.0063708606
0.23443112 0.29056063 0.0072734766
0.22735602 0.30600378 0.0038619514
0.22479708 0.31816673 0.0090421587
0.22223599 -0.28550681 0.011454143
0.24263912 -0.21730362 0.015004919
0.24564004 -0.19966222 0.013352741
0.24927361 -0.17748785 0.018493097
0.22223599 -0.13395403 0.014857548
-0.101799 -0.094254985 0.015419065
-0.048307575 -0.098052844 0.013068892
0.10086522 -0.097697228 0.015767053
0.19507001 -0.0978778 0.014397027
-0.101799 -0.089533046 0.011213839
-0.101799 -0.072855815 0.018074676
0.21195328 -0.044754773 0.01199876
0.1752563 -0.0027842622 0.019413762
0.17456 0.043500889 0.012259047
0.17486453 0.11931965 0.012503509
0.20597464 0.14956769 0.016150884
-0.054413658 0.19485226 0.016258081
0.063853256 0.1948888 0.015980814
0.071513325 0.19524884 0.013248376
0.15017343 0.19504254 0.014814145
0.22185189 0.19435924 0.019999607
0.22735797 0.27129003 0.01468486
0.2411596 0.27353883 0.012071984
0.2261173 -0.3039785 0.023662902
0.22961673 -0.29538316 0.024277454
0.22223598 -0.27963373 0.024012305
0.23430222 -0.26690751 0.029720323
0.25218511 -0.159238 0.026843343
0.25258544 -0.1476943 0.024511237
-0.101799 -0.094228558 0.021973871
-0.059974931 -0.097050622 0.020673139
0.019803785 -0.097094059 0.020343572
0.020659782 -0.096064508 0.028155094
0.076806143 -0.096396729 0.025634475
0.10118909 -0.096961379 0.021350242
0.2122685 -0.096846759 0.022219872
0.17195413 -0.0015351644 0.02777396
-0.101799 0.069407731 0.024235761
0.17456 0.080315799 0.022739463
0.171077 0.10705011 0.025594071
-0.101799 0.11410587 0.028451817
-0.101799 0.12030319 0.028568892
0.17432396 0.12507674 0.025746839
0.18507841 0.14398712 0.025949929
0.1976143 0.14687705 0.026746733
-0.101799 0.15987565 0.02082368
0.066346392 0.19422834 0.020993078
0.11774455 0.19328657 0.028140198
0.23289523 0.29408002 0.028037079
0.22433896 0.30820709 0.026937203
0.22223601 -0.25979191 0.030996889
0.22223599 -0.1925188 0.037702784
0.22493915 -0.13219556 0.033221256
-0.078902341 -0.095210001 0.034638621
-0.034298822 -0.09559799 0.031694788
0.055431847 -0.095177963 0.034881663
0.16284651 -0.094785139 0.037716459
0.17567888 -0.094852909 0.03684967
0.18861394 -0.095246106 0.034364641
-0.101799 -0.084535331 0.030428998
0.1961962 -0.023629913 0.034237046
0.20050704 -0.024634611 0.033470131
0.17456 0.059074137 0.033899974
0.17456 0.064525694 0.035497434
0.17110504 0.10739613 0.031956248
0.17118196 0.11050432 0.030307844
-0.101799 0.13999814 0.036609348
-0.101799 0.15256104 0.033988111
0.21157394 0.15565211 0.03981477
0.20860182 0.16178542 0.033315331
-0.076295994 0.192498 0.034124795
-0.042958446 0.19295904 0.030625984
-0.017711829 0.19260526 0.033310849
0.095091522 0.19271305 0.032492742
0.23416409 0.28627551 0.039000802
0.22931275 0.30490714 0.037720889
0.2236347 0.32098854 0.031254344
0.22223599 -0.3214449 0.049723014
0.22603235 -0.31716833 0.047369875
0.22223601 -0.2243311 0.04589995
0.22223598 -0.19099298 0.046393294
0.22223598 -0.1735692 0.049044956
0.22223601 -0.16457184 0.04062232
0.24578458 -0.14590356 0.047938421
-0.036419876 -0.091823541 0.045100406
-0.015712436 -0.092320204 0.043902624
0.005898118 -0.092774019 0.042808175
0.060063489 -0.091183998 0.046642754
0.083799064 -0.090906978 0.047310822
0.18712758 -0.093064696 0.042107187
-0.101799 -0.034853652 0.047161855
0.19750795 -0.013702532 0.048540704
-0.101799 -0.0019938536 0.047507688
0.17858163 -0.0057392903 0.041897461
-0.101799 0.016991649 0.048264716
0.17369372 0.02554105 0.043508761
0.17456001 0.045621634 0.045735117
-0.101799 0.062804669 0.043480814
-0.101799 0.080842569 0.044863842
-0.101799 0.094631843 0.043441623
-0.101799 0.10796262 0.045162257
0.17131877 0.10636418 0.041319802
-0.101799 0.13993226 0.049000815
0.18941915 0.13220915 0.048232291
0.20534942 0.14552544 0.048410244
-0.073602259 0.18720362 0.049538523
0.060320504 0.18890665 0.045431413
0.15103038 0.18717319 0.049611911
0.18968722 0.1899133 0.043003816
0.16848187 0.19105652 0.040246744
0.23171121 0.3023248 0.049923405
0.23101303 -0.2868968 0.059001565
0.23709367 -0.24994162 0.055569377
0.22223599 -0.18555437 0.059946511
0.22223599 -0.17342392 0.057309255
0.24910748 -0.17413226 0.054082185
0.2505697 -0.16360229 0.05482211
0.22623418 -0.13536757 0.052645277
-0.086973265 -0.086890921 0.056996118
-0.078823775 -0.087760553 0.054898877
-0.0092303129 -0.086013861 0.059111279
0.011939831 -0.088445812 0.053246267
0.07391502 -0.088826336 0.052328594
0.14016353 -0.085667148 0.059947416
0.20727503 -0.085718758 0.059822954
-0.101799 -0.023732463 0.05066032
-0.101799 -0.0070752315 0.052120581
0.17176476 0.025158066 0.058672234
-0.101799 0.034775101 0.055344503
0.17495152 0.0303153 0.058282338
-0.101799 0.044754852 0.053338636
0.17110418 0.042476483 0.057331119
0.17521101 0.11481954 0.051142909
0.18466942 0.13274474 0.052660249
0.20172176 0.13442889 0.050184201
-0.053158663 0.18528992 0.054153673
0.050241377 0.18484893 0.055217147
0.166238 0.1851514 0.054487709
0.25028637 0.24887383 0.053432416
0.24220347 0.27828145 0.057190105
0.23384 0.29421818 0.051342696
0.22771835 -0.30692032 0.069004111
0.22223598 -0.28679237 0.061306871
0.22223598 -0.19178413 0.062268995
0.24469097 -0.14772154 0.064960472
0.0041475967 -0.082586393 0.067377105
0.070911385 -0.084110111 0.063702449
0.11600029 -0.081879243 0.069082484
0.1299337 -0.084606275 0.062505864
0.19032793 -0.085614771 0.060073726
0.21604545 -0.084114179 0.063692614
-0.101799 -0.07485114 0.068832323
0.20887309 -0.01100521 0.068177514
0.20172341 -0.0072357156 0.068613447
0.18402414 0.0025363325 0.062947027
0.17847306 0.010277364 0.069930024
0.17503363 0.073508926 0.065013915
0.17726353 0.10655553 0.060780473
-0.101799 0.11842877 0.060729522
-0.101799 0.14830023 0.068627179
-0.063181326 0.17885129 0.069681183
-0.10133979 0.18118766 0.064046793
-0.083392374 0.18132094 0.063725308
0.18119712 0.18160833 0.06303224
0.24879387 0.25855517 0.068642586
0.23473084 -0.26430222 0.072028711
0.24353936 -0.20337412 0.076942287
0.24410909 -0.19975591 0.076084428
0.22223601 -0.16341574 0.070824973
0.22223599 -0.15353811 0.077861466
0.24448976 -0.14884306 0.073481128
-0.10135369 -0.08074984 0.071806207
-0.069103748 -0.08149863 0.070000388
-0.051422317 -0.08066988 0.071999028
-0.041675359 -0.080706902 0.07190977
-0.014182519 -0.080119662 0.073325962
-0.033153191 -0.078935154 0.075070016
0.019135576 -0.077417813 0.077045426
0.023880582 -0.077830173 0.076508589
0.13693191 -0.078200392 0.076026596
-0.101799 -0.030041967 0.072235875
-0.101799 0.035319749 0.077678785
0.17572631 0.065107897 0.071841091
0.18972284 0.10327709 0.077530161
-0.101799 0.11978644 0.078053735
0.035462085 0.17788905 0.072001785
0.09729901 0.17609881 0.07514374
0.1059255 0.17789041 0.071998522
0.11229531 0.17746165 0.073032528
0.25011039 0.24485615 0.073899984
0.22282495 -0.3366603 0.084448799
0.23606363 -0.25036845 0.0893391
0.22223599 -0.23707554 0.08801122
0.22223599 -0.20454463 0.086770266
0.24675038 -0.18000112 0.085731991
0.22771528 -0.14162378 0.082195736
0.23750424 -0.14893878 0.089947298
0.11316803 -0.074321613 0.081076369
0.17036512 -0.072213098 0.083821446
0.19432366 -0.074641295 0.080660179
-0.101799 -0.062788203 0.085844405
0.037217192 -0.069738358 0.0870433
-0.101799 0.014444981 0.08400169
0.18993405 0.012654149 0.080507554
-0.101799 0.025972098 0.082821541
-0.101799 0.030377809 0.080441922
-0.101799 0.04000856 0.081899412
0.1784185 0.058130339 0.080220513
0.17724104 0.065634057 0.084891409
0.18712455 0.063532554 0.088512331
0.1799334 0.076605909 0.087252006
0.183911 0.097573631 0.083443835
0.20434314 0.10020795 0.085127562
-0.101799 0.11546346 0.088630646
-0.101799 0.13492222 0.080442265
-0.10160611 0.16483632 0.089806236
-0.00043260632 0.16803482 0.085642144
0.21658471 0.16590376 0.088416539
0.056122217 0.17156562 0.081045434
0.12879902 0.17070355 0.082167767
0.22280738 -0.33668 0.097811043
0.23620157 -0.24895391 0.091936111
0.22223599 -0.23230863 0.098471187
0.23974369 -0.2257998 0.098084912
0.22223599 -0.15541501 0.09569563
-0.021992944 -0.06391336 0.094626851
0.042963415 -0.064417593 0.093970388
0.081066743 -0.066641934 0.091074534
0.13156201 -0.064400822 0.093992226
-0.101799 -0.0082779266 0.099097051
0.20654966 0.047809735 0.095713474
0.20498776 0.080274515 0.092800468
-0.101799 0.10521549 0.091657989
0.21071661 0.11853532 0.093415573
-0.055412129 0.15948367 0.096774764
0.18447241 0.15732434 0.09958595
0.1041391 0.16439553 0.090380087
0.22457893 -0.3249253 0.10784122
0.22627214 -0.31423414 0.10010263
0.2284449 -0.29965499 0.10653368
0.22223598 -0.28033778 0.10087012
0.22223601 -0.22287044 0.10976669
0.22223598 -0.17099392 0.10643668
0.24708614 -0.16329427 0.10169515
0.22317517 -0.14358665 0.1017355
-0.092326902 -0.056508493 0.10426722
-0.0046729222 -0.056890279 0.10377018
0.10792474 -0.051506516 0.10818657
0.16906637 -0.051170256 0.1084443
-0.101799 -0.037782349 0.10482713
-0.101799 -0.026408473 0.10067896
-0.101799 -0.003127994 0.10205332
0.21139111 0.039095476 0.10382678
-0.101799 0.05919664 0.10529322
-0.101799 0.085511148 0.10586651
0.064747877 0.1472453 0.10932118
0.16262183 0.14949432 0.10759762
-0.05296858 0.15575539 0.10162857
0.11691554 0.15360112 0.10443316
0.17492118 0.15664849 0.10046586
0.23920479 -0.22932392 0.11835501
0.22223599 -0.21205714 0.11274783
0.24342471 -0.19436592 0.11470704
0.2459285 -0.16549599 0.11043128
0.22223598 -0.1574997 0.11860341
0.22270516 -0.14739296 0.1161233
-0.061508596 -0.043981798 0.11395408
0.029784769 -0.04128024 0.11602478
0.094436392 -0.043331686 0.11445238
0.042524662 -0.039803166 0.11715691
0.16636106 -0.036367834 0.11979002
0.17415337 -0.036985319 0.11931672
-0.101799 0.023050129 0.1150611
-0.101799 0.12443454 0.11135928
0.0019361564 0.13523349 0.11852862
0.21809134 0.13784739 0.11652508
-0.028636107 0.14166349 0.11359963
0.03303434 0.1413337 0.11385259
0.063294478 0.14242025 0.11301941
0.22223599 -0.3120181 0.12378025
0.23368998 -0.26536959 0.12105544
0.24082386 -0.2088795 0.12853315
0.22223599 -0.18193643 0.12820497
0.24257305 -0.17327102 0.1295545
0.2426818 -0.16936493 0.12978496
-0.015189901 -0.033277772 0.12215847
0.054569576 -0.035705291 0.12029783
0.16658506 -0.036010809 0.12006366
-0.070670903 -0.029930541 0.12472404
0.084124275 -0.02475372 0.12835857
0.11754077 -0.025970243 0.1277595
0.12852331 -0.024273477 0.12858978
0.17432135 -0.029609369 0.12497021
-0.101799 -0.011106323 0.12574749
-0.101799 0.073859252 0.1281721
-0.101799 0.090496227 0.12709974
0.10922105 0.11895512 0.12964021
-0.085374326 0.12442473 0.12681344
0.0035786387 0.12933812 0.12304762
0.02712889 0.12598637 0.12561654
0.088065892 0.12688369 0.12492879
0.18288499 0.12607254 0.12555049
0.2136957 0.12893638 0.1233554
0.040506177 0.13302942 0.12021845
0.10712097 0.13279675 0.12039678
0.22507292 -0.30541065 0.13365278
0.22223598 -0.22189507 0.1310508
0.23989868 -0.20435563 0.13819984
0.22223601 -0.18163159 0.13120472
0.22223599 -0.16222745 0.1337087
-0.02409219 -0.020649835 0.13008927
-0.012112197 -0.014841867 0.13249265
0.18191829 -0.013573006 0.13301772
0.20943612 -0.018464433 0.1309936
0.21223313 -0.016631572 0.13175206
-0.1004075 -0.003118135 0.137344
-0.026429867 -0.0064468179 0.13596657
0.035206936 -0.0073921042 0.13557541
-0.0034416616 0.0017689401 0.13936631
0.019049138 0.0017060726 0.1393403
-0.101799 0.024079246 0.13185373
-0.101799 0.08867465 0.13096492
0.030628949 0.099193417 0.13781774
0.2148513 0.096106023 0.13909532
-0.044674002 0.10112734 0.13701747
0.037580274 0.10615409 0.13493736
0.045769718 0.10214376 0.13659686
-0.085575767 0.11784163 0.130101
-0.04437425 0.11530091 0.13115236
-0.023178477 0.11566746 0.13100067
-0.003295783 0.11275771 0.13220474
0.053092264 0.11332249 0.13197103
0.088609062 0.11543316 0.13109761
0.21101519 0.11174426 0.13262412
0.22532585 -0.3200407 0.14018044
0.2361767 -0.24490273 0.14711836
0.23923475 -0.20388153 0.14215071
0.22223599 -0.18139525 0.14861883
0.22223599 -0.16744708 0.1443246
-0.040346399 0.0049354797 0.14067665
-0.033798225 0.0033074063 0.14000294
-0.020682361 0.0071565099 0.14159572
0.001970941 0.0092513999 0.1424626
0.026089437 0.0075825634 0.14177203
0.1455044 0.0065029836 0.14132528
-0.08740785 0.019462714 0.14407107
-0.050228983 0.018750267 0.14397737
-0.029093999 0.018836936 0.14398877
-0.019867044 0.0163735 0.14366482
0.12761377 0.017158512 0.14376806
-0.082047373 0.027267296 0.14509737
0.034190811 0.02721577 0.14509059
0.13212381 0.020098217 0.14415464
-0.101799 0.032329313 0.14581263
-0.047950082 0.032662809 0.14580691
-0.038333569 0.039955996 0.14676598
0.059818555 0.037722554 0.14647228
-0.073044471 0.042980965 0.14716376
-0.075204596 0.054268725 0.14715986
-0.049134202 0.05535432 0.14701712
-0.033382773 0.055233426 0.14703301
0.06993822 0.058131695 0.14665186
0.094201423 0.057628095 0.1467181
0.11750519 0.05471018 0.14710182
-0.0628637 0.0648432 0.1457693
-0.045506708 0.069453955 0.14516297
-0.032174997 0.069535904 0.1451522
0.026325129 0.0605423 0.14633487
0.061186932 0.060023218 0.14640313
0.14665706 0.067642763 0.14540115
0.17803705 0.060494743 0.14634112
-0.082723819 0.073259234 0.14466259
-0.059045549 0.079455078 0.14384781
-0.04933488 0.071067281 0.14495082
-0.0055605266 0.07866507 0.14395168
0.03965614 0.077176012 0.1441475
0.10789753 0.07848493 0.14397539
0.15449634 0.079210438 0.14387998
-0.081372149 0.089224979 0.14194274
-0.031957541 0.089474402 0.14183953
-0.015964516 0.082085222 0.14350194
-4.1256659e-05 0.08312133 0.14336568
0.010216549 0.086206585 0.14295997
0.047304768 0.081579261 0.14356847
0.16402923 0.081131056 0.14362741
0.17350666 0.087031156 0.14285056
-0.079531595 0.090925455 0.14123908
0.18569848 0.090802141 0.1412901
0.20973191 0.09081848 0.14128335
0.22223599 -0.28725272 0.15713701
0.23129098 -0.28105175 0.1560438
0.23261932 -0.27236775 0.15909289
0.23627305 -0.21469501 0.15692633
0.22223599 -0.17138839 0.15639694
0.22346149 -0.32268864 0.16160879
0.22223599 -0.31478819 0.16135888
0.23008487 -0.28893483 0.16560459
0.22223598 -0.25610203 0.16814643
0.23342615 -0.25661844 0.16394353
0.23434806 -0.24763316 0.16082193
0.22223599 -0.22929516 0.16197649
0.23610005 -0.19617838 0.16056836
0.22223601 -0.23652168 0.17588446
0.22223599 -0.30481985 0.18252666
0.22864413 -0.2938194 0.18298751
0.22223599 -0.28899562 0.18020996
0.22223599 -0.27772748 0.18540898
0.22223598 -0.26222992 0.18837205
0.23002079 -0.25436264 0.18279225
0.22223599 -0.24455309 0.18157563
0.22548212 -0.23380235 0.18572867
0.23094597 -0.23111525 0.18024823
0.22973104 -0.21376139 0.18633069
0.23144524 -0.18851998 0.18062773
0.22778109 -0.17838776 0.18331587
0.22223599 -0.31410989 0.19480753
0.22698636 -0.27088168 0.19461516
0.22653608 -0.24782138 0.19667137
0.22401674 -0.21595076 0.19711792
0.22223599 -0.30958968 0.20026289
0.22223598 -0.27893209 0.20327623
0.22223599 -0.26392579 0.20342329
0.22394018 -0.19902077 0.20507325
