# .PCD v0.7 - Point Cloud Data file format
VERSION 0.7
FIELDS x y z
SIZE 4 4 4
TYPE F F F
COUNT 1 1 1
WIDTH 990
HEIGHT 1
VIEWPOINT 0 0 0 1 0 0 0
POINTS 990
DATA ascii
-0.075811625 -0.35135198 -0.23082799
0.024869204 -0.35479 -0.23054418
-0.11257138 -0.34079456 -0.23082802
-0.1846469 -0.33867893 -0.23082799
-0.13734552 -0.3324396 -0.23082799
-0.1163592 -0.33797258 -0.230828
-0.10010175 -0.32096577 -0.230828
-0.05502744 -0.32561868 -0.230828
0.17193057 -0.32092574 -0.23082802
-0.21977359 -0.31410819 -0.23082802
-0.0042830487 -0.31123659 -0.230828
0.14326134 -0.30440301 -0.230828
0.047075659 -0.29885599 -0.23082802
-0.11087356 -0.23966438 -0.230828
-0.10181961 -0.2348856 -0.23082799
0.023945017 -0.22508144 -0.230828
0.20821846 -0.1904467 -0.23082799
-0.10821025 -0.18204668 -0.230828
0.19184692 -0.16449127 -0.23082802
-0.11358943 -0.13885856 -0.23082802
0.17597102 -0.11666955 -0.230828
-0.23660657 -0.087553151 -0.230828
-0.09353818 -0.072657295 -0.23082802
-0.11488131 0.012276545 -0.230828
-0.097929001 0.075987898 -0.23082802
0.029867943 0.15680394 -0.230828
0.20701903 0.15462221 -0.230828
-0.11036275 0.16283588 -0.230828
-0.2289867 0.18793468 -0.230828
0.18793669 0.19278535 -0.23082799
-0.10337143 0.20718384 -0.230828
0.192624 0.21453188 -0.230828
-0.2625218 0.22310005 -0.230828
-0.1074142 0.23870294 -0.23082802
0.025704913 0.24128309 -0.23082802
-0.23644552 0.26376668 -0.23082799
-0.11887567 0.26749918 -0.23082802
-0.24674854 0.27533954 -0.23082799
-0.17337602 0.27890566 -0.23063776
0.061204791 0.27332973 -0.230828
-0.26616201 0.30139977 -0.23067328
-0.11737148 0.31772551 -0.23082799
-0.03582795 0.31300122 -0.230828
-0.17273851 0.32164639 -0.23082799
0.072877616 -0.29403895 -0.22869
-0.011832309 -0.28400886 -0.22869
0.10207644 -0.26985228 -0.22869
0.089346461 -0.23251787 -0.22869
0.069764674 -0.2144441 -0.22869
-0.06004446 -0.15843295 -0.22869
0.12272236 -0.14056461 -0.22869
0.13237476 -0.14891776 -0.22869
-0.064368606 -0.13966295 -0.22869
0.14813258 -0.1256039 -0.22869
-0.16836163 -0.097925857 -0.22869
-0.04527697 -0.096086636 -0.22869
-0.061222345 -0.077355504 -0.22869
0.075131379 -0.064802647 -0.22869
0.13008346 -0.062608413 -0.22869
0.053396147 -0.057891961 -0.22869
0.13933019 -0.040166616 -0.22869
-0.20356447 -0.024048045 -0.22869
-0.123713 -0.022588354 -0.22869
-0.20507647 -0.015371338 -0.22869
0.073774457 -0.016981438 -0.22869
0.15325309 -0.01223506 -0.22869
-0.046522863 -0.0046291798 -0.22869
-0.17860314 0.017346285 -0.22869
-0.13060981 0.010950886 -0.22869
-0.12141655 0.018107399 -0.22869
-0.051524665 0.055097587 -0.22869
0.048202049 0.066104636 -0.22869
0.081953526 0.064144589 -0.22869
-0.115897 0.097844236 -0.22995707
0.11238196 0.11672118 -0.22869
0.079014719 0.12210697 -0.22869
-0.16354214 0.14330155 -0.22869
-0.01200651 0.14011937 -0.22869
-0.13057196 0.15725671 -0.22869
0.066457912 0.15819082 -0.22869
0.099500924 0.16924007 -0.22869
-0.0033204723 0.17073338 -0.22869
0.0051660505 0.17889453 -0.22869
0.088799313 0.18737292 -0.22869
-0.1210776 0.20336762 -0.22869
-0.012368279 0.20897365 -0.22869001
-0.16490856 0.21927828 -0.22869
-0.16113144 0.22136569 -0.22869
-0.1652419 0.23738441 -0.22869
-0.028303752 0.23720562 -0.22869
0.068697691 0.23133567 -0.22868998
-0.21180081 0.24185351 -0.22869
-0.16243471 0.24042553 -0.22869
-0.10865176 0.30135801 -0.22814414
-0.092839204 0.30218005 -0.22655299
0.019671462 0.3058241 -0.22655299
0.06958881 0.3038595 -0.22655299
0.11387092 0.30135801 -0.22075811
0.17687236 0.30690968 -0.22655298
0.18276727 0.30135801 -0.2215711
-0.22494233 0.31983918 -0.22655299
-0.0044656247 0.3134279 -0.22655299
0.02305151 0.31178135 -0.22655299
0.11111766 0.32699591 -0.22664203
0.12035549 -0.35479 -0.21522902
0.18820029 -0.35479 -0.21485557
0.21715119 -0.14339322 -0.21722549
0.20284799 -0.12110502 -0.21678282
-0.26616198 -0.10530189 -0.21847686
0.22824179 -0.083325416 -0.21241793
0.22691949 -0.0027951412 -0.21914952
-0.26616201 0.083126605 -0.21097873
0.22761817 0.13205057 -0.21564785
0.22833332 0.18132147 -0.21192145
-0.26616201 0.19362041 -0.21438231
0.10840105 0.32700601 -0.21497589
0.022954799 -0.35479 -0.20363937
0.032010451 -0.35479 -0.20873621
0.20244569 0.32700601 -0.20270546
-0.24911717 -0.35479 -0.1912365
-0.10678878 -0.35479 -0.19778401
0.23187646 -0.26770103 -0.19237716
0.202848 -0.23279342 -0.19216992
0.23194645 -0.18668143 -0.19205062
0.20284799 0.082387269 -0.19741197
-0.26616201 0.25439262 -0.19278252
-0.21336281 0.30135801 -0.19220987
0.12934998 0.32053727 -0.1914773
0.18606643 0.32178223 -0.19050631
-0.052013114 -0.35479 -0.18832931
0.010068886 -0.35478997 -0.18099064
0.049342044 -0.35479 -0.18108276
0.202848 -0.17309356 -0.18533334
0.202848 -0.11117515 -0.18295184
0.21646947 0.061786018 -0.18002331
0.202848 0.24545565 -0.18645893
-0.23429912 0.30135801 -0.18334791
-0.084550574 0.30135801 -0.18144767
-0.0050475374 -0.27979296 -0.17639424
0.12078744 -0.22154894 -0.179533
-0.047470365 -0.20791063 -0.179533
0.074534118 -0.1963117 -0.179533
0.20135927 -0.19902715 -0.179533
-0.085428745 -0.18873955 -0.179533
0.083510585 -0.18487933 -0.179533
-0.057323944 -0.13896397 -0.179533
0.12206538 -0.10606968 -0.179533
0.13359872 -0.10402641 -0.179533
-0.089220703 -0.09772855 -0.179533
-0.15493856 -0.087998211 -0.17673859
0.0029665157 -0.077650771 -0.179533
-0.11165045 -0.053054258 -0.179533
0.10689458 -0.059525996 -0.179533
0.202848 -0.040674601 -0.17488372
-0.07832545 -0.035125073 -0.179533
0.15556078 -0.032398202 -0.179533
0.21503788 -0.034831002 -0.17450611
0.034109384 -0.023287319 -0.17082097
-0.033537656 -0.019513162 -0.17169234
0.056269169 -0.011366218 -0.179533
0.12626007 -0.011184834 -0.17361519
0.12198821 -0.004289411 -0.179533
-0.086896516 0.0067526884 -0.17348325
0.13729219 0.0070182825 -0.17348769
0.16095176 0.0095589161 -0.179533
-0.14175057 0.011944301 -0.179533
-0.096969917 0.013520025 -0.17359625
0.046995252 0.010276623 -0.17492944
0.202848 0.017460421 -0.17618485
-0.26616201 0.024834536 -0.17891228
-0.11218243 0.025210755 -0.1751793
0.17208306 0.029904136 -0.17384638
0.065867372 0.039231092 -0.179533
0.10544098 0.034846522 -0.17287794
-0.10356043 0.045232706 -0.17225656
-0.15573032 0.059986591 -0.17653944
-0.035914905 0.058609296 -0.179533
0.030546099 0.067367598 -0.179533
0.24887122 0.062895276 -0.17575188
0.05382226 0.085229948 -0.179533
-0.14537261 0.093706653 -0.17914452
0.057269908 0.13300106 -0.179533
-0.029687822 0.14248852 -0.179533
-0.067179963 0.15136275 -0.179533
-0.26616201 0.1600911 -0.17020045
0.084901556 0.16157144 -0.179533
0.18412286 0.16393435 -0.179533
0.12670286 0.19652107 -0.179533
0.059082225 0.20669179 -0.179533
0.072844543 0.20261309 -0.179533
-0.089902803 0.21186027 -0.179533
0.020371009 0.22095945 -0.17781761
-0.055846114 0.23309493 -0.17370962
0.021526322 0.23459715 -0.17223182
0.15158546 -0.29807228 -0.16213182
0.19218406 -0.29080895 -0.16949826
0.202848 -0.17989781 -0.16563512
-0.16852006 -0.11505082 -0.16887037
-0.26616201 -0.10343812 -0.16675606
-0.019722991 -0.045828376 -0.16328676
0.17684434 -0.046728969 -0.16286613
-0.13588241 -0.031168902 -0.16900128
0.068656556 -0.03682927 -0.1676944
0.10322952 -0.033110105 -0.16855308
-0.014254384 0.061816428 -0.16900718
0.094641611 0.078122169 -0.16298378
-0.13554898 0.081575036 -0.16150947
-0.06654828 0.084335327 -0.16033089
0.011813298 0.08151672 -0.16002578
0.22338501 0.092852138 -0.16463178
0.23931871 0.10168213 -0.1638812
-0.078193493 0.24391989 -0.16306072
-0.053725567 0.24520949 -0.1600384
0.021036167 0.24521866 -0.16000468
-0.26616201 0.30838111 -0.16238362
-0.15786442 0.32700598 -0.16334262
-0.0030502025 -0.30036378 -0.15371683
0.19489157 -0.30135727 -0.15006854
-0.17681502 -0.27446324 -0.15091997
-0.17722158 -0.18508041 -0.15596765
0.18240823 -0.071166568 -0.15298088
-0.097254261 -0.067788184 -0.15455881
0.10190712 -0.063814804 -0.15488619
0.14295571 -0.058389336 -0.15894866
0.13403782 -0.01829665 -0.15114965
0.22338501 0.05052818 -0.15238532
-0.26616201 0.073246963 -0.15714
-0.26616201 0.09496294 -0.15527275
0.034223795 0.10140914 -0.15084344
0.18244718 0.1018396 -0.15054038
0.22239 0.11968351 -0.15714179
0.23698543 0.22787341 -0.15820828
-0.16907965 0.23377255 -0.15947834
-0.1470281 0.24691042 -0.15298855
-0.1024773 0.30135801 -0.15739046
0.23300776 0.30802426 -0.15263629
0.040001001 -0.35479 -0.14379379
-0.050089575 -0.30264601 -0.14355257
-0.17913124 -0.15775342 -0.14927678
-0.12419927 -0.080477312 -0.14551
-0.0014708899 -0.085714072 -0.14328952
0.15603417 -0.080824763 -0.1469816
0.22239 -0.074818768 -0.14954101
-0.26616201 0.030944616 -0.14812784
0.23645388 0.04214498 -0.14788413
0.24139002 0.051459733 -0.14119288
0.22338501 0.085859768 -0.1456783
0.20833297 0.10832705 -0.14508265
-0.029405078 0.11304393 -0.1426522
-0.0008384278 0.1117183 -0.14528072
0.071215004 0.11013224 -0.14470211
0.21565476 0.13870379 -0.14611699
-0.26616201 0.19601892 -0.14468005
0.2385702 0.20248738 -0.14870425
0.202848 0.27468961 -0.14282596
-0.024559785 0.30135801 -0.14651762
-0.010136731 0.32273099 -0.14605109
0.11032549 0.32273099 -0.1486609
-0.089931399 -0.30264601 -0.13815996
0.24061611 -0.18310142 -0.13254137
-0.062524185 -0.092498004 -0.13643265
0.23100916 -0.092916884 -0.13991623
0.25353917 -0.067193314 -0.13826771
-0.058682784 -0.020824034 -0.13852453
0.23696104 0.02005307 -0.13311134
0.23652083 0.040072326 -0.13115139
-0.171571 0.056502745 -0.13539171
0.24777199 0.063222028 -0.13605349
-0.034512982 0.1244131 -0.13634215
-0.26616201 0.18537134 -0.13772252
0.021680152 0.24921399 -0.13902706
0.083005697 0.24921399 -0.13912342
0.202848 0.29416949 -0.13493179
-0.17464894 0.32273099 -0.1301145
-0.021700978 0.32273096 -0.13685337
0.08918938 -0.30264601 -0.12630719
-0.18025599 -0.26372883 -0.12843767
0.052598413 -0.10824413 -0.12285249
-0.26616201 -0.098289311 -0.12785703
0.23417865 -0.053510763 -0.12830889
0.011859056 -0.016989831 -0.12179301
0.12101719 -0.011283761 -0.1281088
0.2055714 -0.00082302897 -0.12577267
0.22016595 0.025554702 -0.12814197
0.19165123 0.068661503 -0.1240579
0.22575456 0.067669019 -0.12091212
-0.18025599 0.18484642 -0.12701231
0.23947421 0.27603504 -0.12851846
-0.1736224 -0.35478997 -0.11020601
-0.13517278 -0.35479 -0.11065694
-0.11540225 -0.35479 -0.11445465
0.026902109 -0.35479003 -0.11050452
-0.030478694 -0.30264604 -0.1193766
0.202848 -0.28639221 -0.11861875
0.24251595 -0.18765131 -0.11531311
-0.1136908 -0.11211421 -0.11839081
0.042758606 -0.11516567 -0.1148729
0.16635218 -0.11836143 -0.11330055
0.22338501 -0.11555904 -0.11393013
0.191394 -0.051201396 -0.11771258
-0.26616201 -0.014156744 -0.11304122
-0.075516269 -0.015829723 -0.11673059
-0.079781219 -0.0077459915 -0.11267199
0.011133337 -0.0089985877 -0.11813761
-0.26616201 0.078257695 -0.11929439
-0.26616201 0.08001592 -0.11643758
-0.16017586 0.11316238 -0.11873177
0.14909129 0.1425138 -0.1187664
0.21284074 0.17459235 -0.11088767
0.24291986 0.22695935 -0.11119857
0.093980223 0.24921399 -0.11578006
0.12043698 0.32273096 -0.11273883
0.21028803 0.32739687 -0.1168299
-0.21662104 -0.35479 -0.10507423
-0.12513667 -0.35479003 -0.1068699
-0.028551321 -0.35479 -0.10984893
0.053839587 -0.35479 -0.10479529
0.1697437 -0.35479 -0.10253219
0.24359655 -0.32356566 -0.10354865
0.040950023 -0.30264601 -0.10444293
0.19980356 -0.30264601 -0.10048452
0.023360867 -0.12252326 -0.10850292
0.15732488 -0.12695348 -0.10128316
0.17488787 -0.11948328 -0.10989529
0.23848802 -0.06413196 -0.10651071
0.191394 -0.046499841 -0.10255743
-0.087197222 -0.0093842447 -0.10370441
0.1007082 -0.0069551542 -0.10922123
-0.171571 0.021995204 -0.10849314
0.24777201 0.067023642 -0.10459152
-0.16962099 0.076313026 -0.10103427
-0.171571 0.15101835 -0.10170098
0.061445273 0.15546831 -0.10156943
0.24353909 0.20147428 -0.10495243
-0.081554204 0.24921399 -0.10072145
0.043326046 0.24921399 -0.10411257
0.11101609 0.24921399 -0.10794071
-0.19515078 0.30135801 -0.10002796
-0.26616201 0.31827831 -0.10568547
-0.062058538 0.32273099 -0.10519169
0.17317185 0.32273099 -0.10663694
0.19467735 0.32273099 -0.10148406
-0.26616201 -0.24231574 -0.096858226
-0.26616201 -0.1945585 -0.098900482
0.15707281 -0.13362177 -0.092686556
0.22338501 -0.12068972 -0.096279509
-0.16962101 -0.079520479 -0.094766781
0.21770015 -0.059426144 -0.099031538
0.24777199 -0.047726646 -0.099879771
-0.16962101 0.055926174 -0.094699048
-0.26616201 0.15539762 -0.093988672
-0.050026596 0.15871079 -0.098838642
0.039317649 0.16035122 -0.093397975
0.24603473 0.26429939 -0.097686574
-0.26616201 0.2791602 -0.092876345
0.24033076 0.29741991 -0.09926185
0.10911474 0.30135801 -0.099341996
-0.12427056 -0.35479 -0.081422314
0.17774746 -0.35479 -0.084949687
0.11504096 -0.30264601 -0.089182578
0.24777198 -0.053578351 -0.082483031
-0.16962101 0.041249972 -0.081962518
-0.18025601 0.18148579 -0.082685493
-0.071355261 0.24921399 -0.086189866
-0.021500478 0.24921399 -0.080700606
0.099885151 0.24921399 -0.082063526
0.15710728 0.24921399 -0.088040799
-0.15336345 0.30135801 -0.083458968
-0.12909399 -0.30264601 -0.07758116
-0.18025599 -0.2263528 -0.071961299
0.040325612 -0.14369345 -0.071626835
-0.171571 -0.04544295 -0.079631977
-0.171571 0.056031499 -0.075184003
0.19719148 0.13347675 -0.071486302
-0.17157102 0.16678025 -0.07475017
-0.088054501 0.17042062 -0.079241998
-0.03699794 0.17044197 -0.079206258
0.080483519 0.17344719 -0.074139267
-0.26616201 0.19693033 -0.07855539
0.21148048 0.19602053 -0.076014765
0.23659478 0.19423565 -0.07980682
-0.26616201 0.21425283 -0.076117478
0.051657684 0.24921399 -0.074138395
-0.16019718 0.32273099 -0.077264681
-0.18025599 -0.2490848 -0.060789466
-0.18025599 -0.18334886 -0.063477322
0.23040606 -0.11176249 -0.068484843
0.24777199 -0.095687762 -0.069253966
-0.26616201 -0.081436947 -0.061835356
0.24777198 -0.057690397 -0.063841306
0.24777201 -0.015515152 -0.063858986
-0.171571 0.083303414 -0.060176227
0.2326712 0.16012603 -0.068243042
-0.11469112 0.17565541 -0.06768465
0.0820719 0.1762203 -0.066033475
0.20659229 0.18130651 -0.066037506
0.051360484 0.24921399 -0.067456007
0.23203172 0.24467935 -0.063540883
0.058170285 0.30135801 -0.066613972
0.22423607 0.31868881 -0.066907272
-0.26616201 -0.25353807 -0.056203194
0.202848 -0.25396192 -0.053634297
-0.18025599 -0.21143539 -0.057682928
-0.26616201 -0.19515672 -0.055768095
-0.15311262 -0.15187588 -0.052245215
0.21678334 -0.1570231 -0.051884986
-0.081478223 -0.14930347 -0.055935979
0.12507232 -0.14993902 -0.058585912
0.22851275 -0.11843935 -0.054104105
0.23582456 -0.11905122 -0.052870076
0.24222647 -0.1162575 -0.050812189
-0.26616201 -0.10758081 -0.052759573
-0.18025599 0.016717009 -0.055292159
0.2434478 0.29594389 -0.054958306
-0.11727811 0.30135801 -0.052208938
0.17572568 0.30135801 -0.051190592
0.17367783 -0.35479003 -0.04502625
0.21669145 -0.18591437 -0.042054653
0.053964872 -0.15303174 -0.048461225
0.25444055 -0.13330999 -0.046979517
-0.171571 -0.065018371 -0.048565045
0.21744899 -0.061312687 -0.044451293
-0.26616201 0.2379519 -0.045555688
0.18244 0.24921399 -0.041162476
0.11689098 0.30135798 -0.040480278
0.24284561 0.30372623 -0.049048744
-0.26616201 -0.35343432 -0.03173776
-0.19254062 -0.35479 -0.037440926
-0.1772085 -0.2787382 -0.031835575
-0.18025599 -0.26779565 -0.039254118
-0.18025601 -0.21740337 -0.039370924
0.202848 -0.16652572 -0.035766467
-0.030663241 -0.15637204 -0.031191275
0.024213901 -0.15758972 -0.03312121
-0.18025599 -0.080989763 -0.03278771
0.191394 -0.050239354 -0.037957065
0.0072707143 0.18532063 -0.039419267
0.25200507 0.19675827 -0.036370479
-0.09891966 0.24921399 -0.036050521
-0.082390867 0.24921399 -0.032715708
-0.26616201 0.28681394 -0.037829842
-0.091286719 0.30135801 -0.03942699
0.011504305 0.32273099 -0.030527689
0.11500087 -0.35479 -0.021593332
-0.10679425 -0.30264601 -0.021327451
0.21251936 -0.18680553 -0.028878605
0.027900375 -0.15687147 -0.02551418
0.10039902 -0.15839297 -0.023989029
0.25219104 -0.13066751 -0.022401616
-0.17157102 -0.10108545 -0.022677574
-0.18025599 -0.090858154 -0.029698268
-0.18025599 -0.039765239 -0.021712055
-0.18025599 0.00063853711 -0.025540996
-0.18025599 0.050538532 -0.026542982
-0.12344202 0.18764123 -0.020327576
0.20714419 0.21115822 -0.025047973
-0.1028171 0.24921399 -0.025161855
0.14671811 0.24921399 -0.024577972
-0.17434224 0.30135801 -0.02037036
-0.02614831 -0.35479 -0.01318327
-0.26616201 -0.31135169 -0.018787205
-0.11285445 -0.30264601 -0.019611605
0.202848 -0.28651401 -0.011115544
0.202848 -0.25851142 -0.012521883
0.202848 -0.2047158 -0.016790243
-0.059344508 -0.15771028 -0.015977219
0.071877331 -0.15799537 -0.012738591
-0.16962099 -0.12448619 -0.010000603
0.191394 -0.040853396 -0.013821479
-0.26616201 0.0068626702 -0.019930556
-0.18025599 0.010787651 -0.012961116
-0.16962101 0.033219371 -0.010753065
-0.18025599 0.096107543 -0.015906107
-0.18025601 0.10033516 -0.016431261
0.19547522 0.1550405 -0.013721965
0.23119012 0.17620876 -0.015894283
0.12835923 0.24921399 -0.012991384
0.14262246 0.24921399 -0.012371331
0.16918139 0.24921399 -0.017511234
0.12139702 -0.35479 -0.0073217675
0.23140955 -0.30103457 -3.46343e-07
0.03100271 -0.1604564 -0.0005334937
0.14845276 -0.16001213 -0.0055808248
0.23143387 -0.12888899 -0.0052223648
-0.17157102 -0.11865423 -0.0027281865
-0.18025599 0.15202135 -0.0033226646
0.2214964 0.21293005 -0.0031732311
-0.17677523 0.22684839 -0.0062818341
-0.11393699 0.24921399 -0.0062124655
0.202848 0.25216365 -0.0014588982
0.065928325 0.30135801 -0.0073449984
0.17611447 0.30135801 -0.0098353401
0.077320948 0.32273099 -0.0052666366
0.14386074 0.32273099 -0.0069286115
-0.20327589 -0.35479 0.00029566884
0.071937084 -0.35479003 0.0017300993
0.24844517 -0.27146381 0.00028003927
0.20284802 -0.22443566 0.0091697033
-0.18025599 -0.16315429 0.0029157326
0.21238665 -0.12887195 0.0077337818
0.24777198 -0.022846395 0.0096093491
-0.16962101 -0.005468166 0.0065364558
-0.26616201 0.038318142 0.0046202466
-0.16962101 0.066980362 0.0069191828
-0.171571 0.14149667 0.0065502077
-0.1287628 0.18732753 0.0089003919
0.1519165 0.18921511 0.0032216045
0.029838692 0.30135801 0.0028043166
-0.26181999 0.3203572 0.0087332726
0.10548414 0.32273099 0.007081937
-0.25428641 -0.35479 0.017575629
-0.21386465 -0.35479 0.017195687
0.1218029 -0.35479 0.010888912
0.24832159 -0.25045651 0.01392322
-0.26616201 -0.21001852 0.01341749
0.22841749 -0.12782459 0.018009039
0.20157206 -0.032432236 0.010191651
-0.18025599 0.04238449 0.010602713
-0.06942229 0.18808421 0.01608132
-0.18213433 0.30135801 0.012612106
0.1278542 0.30135801 0.01750198
0.23155531 0.31463864 0.010950945
-0.21813177 0.32273099 0.014943602
-0.26616201 -0.33428621 0.028435484
0.091675863 -0.30264601 0.024982519
-0.26616201 -0.20717829 0.029062264
0.20284799 -0.15833659 0.022804908
-0.171571 -0.14047641 0.023149632
-0.16962101 -0.12072651 0.024321038
0.24777201 0.023645304 0.02234941
-0.26616201 0.05771102 0.025486305
-0.036911748 0.11224461 0.027838985
-0.013390863 0.11215972 0.028116835
-0.26616201 0.17691022 0.020981152
-0.055972055 0.18579274 0.026350548
-0.26616201 0.21021919 0.026561689
0.24026799 0.21143702 0.02322612
-0.047339808 0.24921399 0.028625149
0.16119221 0.24921399 0.022514075
0.24560095 0.28674924 0.021764517
-0.21099067 0.30135801 0.022068307
-0.055675879 -0.35479 0.038975373
0.23226455 -0.18615688 0.039422411
-0.09912207 -0.1558295 0.032052912
-0.14499807 -0.14954486 0.035032917
-0.18025599 -0.12025021 0.033994526
0.24308616 -0.12491742 0.033968739
0.19139402 -0.11005241 0.038661897
-0.26616201 -0.053588986 0.036576308
-0.18025599 -0.041789457 0.0301692
-0.046264358 0.11116239 0.031380571
-0.26616201 0.12265185 0.032441147
-0.171571 0.12735695 0.032073829
-0.023533195 0.12250546 0.036899425
0.071950674 0.12005966 0.036146689
0.12065591 0.12138781 0.036228362
-0.01271452 0.13055439 0.039376609
-0.096774779 0.18460687 0.03528304
-0.026762269 0.1867722 0.031000426
-0.18025598 0.20562407 0.037395868
-0.26616201 0.25292325 0.03225581
-0.097490072 0.30135801 0.034871168
-0.14101313 0.32273099 0.037146721
0.10268426 0.32273099 0.034446649
0.14568239 0.32273096 0.036563735
-0.16249812 -0.35479 0.046844546
0.006068049 -0.30264598 0.042207286
0.23579575 -0.18605807 0.040778227
-0.08463949 -0.15296236 0.044994764
-0.0024755262 -0.15273508 0.049929112
0.14851844 -0.1544663 0.040598948
0.21642208 -0.15869325 0.04597019
0.22800143 -0.099671766 0.043813672
0.191394 -0.050194804 0.047080733
0.24777199 0.097018242 0.042562049
0.023389883 0.14263292 0.043093964
0.11844364 0.14766391 0.044642329
-0.067130432 0.15228163 0.046063509
-0.039761223 0.17335315 0.045229908
-0.17106095 0.18305719 0.045090936
0.24557091 0.28206646 0.040216237
0.202848 -0.35129815 0.056933567
0.202848 -0.33657026 0.054660894
-0.26616201 -0.30873221 0.055702973
0.18435553 -0.15263937 0.050208867
0.21030462 -0.13765852 0.054634891
-0.26616201 0.092463195 0.055751696
-0.10658365 0.17272198 0.050129555
0.13427328 0.17931588 0.057338595
-0.07768967 0.18002319 0.055023111
-0.17354693 0.30135801 0.055530488
0.20284802 0.3193416 0.055344749
-0.26120958 0.32700601 0.05144085
-0.23480877 -0.35479 0.063918047
-0.094600052 -0.35479 0.068227857
-0.011107072 -0.30264601 0.061072871
0.1562648 -0.30264601 0.067833006
-0.26616201 -0.25398839 0.062106434
0.24671754 -0.17638284 0.062103264
-0.012630153 -0.14703029 0.066601738
0.20284799 -0.14151111 0.066371351
-0.16962101 -0.10596365 0.065590285
0.24777201 -0.098615587 0.064991273
-0.171571 -0.0076432377 0.06475763
-0.26616201 0.051793087 0.060782973
-0.16962101 0.067219973 0.066303894
0.24777198 0.1552631 0.066993006
-0.13686733 0.1784064 0.060315888
-0.12292845 0.30135801 0.067230724
-0.051666919 0.30135801 0.064399906
-0.04810255 0.30135801 0.060961016
-0.23297623 0.31508571 0.065252587
0.037520759 0.32273099 0.06942232
-0.11829543 -0.30264601 0.079518847
0.039057832 -0.30264601 0.07896997
0.2460061 -0.24658379 0.073556602
0.2234472 -0.14932264 0.072847605
0.24694711 -0.1438008 0.07633277
-0.26616201 -0.065756515 0.076065943
-0.171571 0.093426704 0.074527137
0.20891583 0.12882268 0.077579588
0.25022814 0.15502198 0.078783438
0.059199758 0.17341325 0.073173732
0.12884277 0.17073862 0.078007758
0.021885827 0.24921399 0.070779249
0.081936479 0.24921399 0.075394914
-0.26616201 0.28565338 0.074157126
-0.24364015 0.30135801 0.071430691
0.078867793 0.30135801 0.078305058
0.24031451 0.31125867 0.07893572
-0.19957347 0.32273099 0.078365952
0.18411379 0.32273099 0.070373818
-0.16519326 -0.35479 0.089050479
0.092172131 -0.35479 0.082273617
-0.061290495 -0.30264601 0.082099676
-0.26616201 -0.1733385 0.087373286
0.15503228 -0.13815856 0.082013205
-0.171571 -0.12732033 0.086382605
0.20673032 -0.12076621 0.088821262
0.21641333 -0.12347527 0.084666409
0.24777199 -0.093514517 0.085404038
-0.18025601 -0.080529973 0.083959155
0.016933929 -0.080492258 0.083989426
0.11208768 -0.08501491 0.088215873
0.12133797 -0.081865549 0.085272774
0.24777199 0.061240539 0.081631683
0.2080413 0.11889234 0.088859916
-0.12309552 0.16691424 0.082061529
-0.26616201 0.19615686 0.085538298
-0.08271157 0.24921399 0.082097545
0.059884273 0.24921399 0.085501552
0.097475149 0.24921399 0.080407433
0.13310282 0.24921399 0.086599737
-0.18262213 0.30135804 0.081062593
-0.15347967 0.30135801 0.088917315
-0.10517879 0.30135801 0.082770973
0.078457318 0.32273099 0.083055831
0.11879846 0.32273096 0.086127616
-0.26616201 -0.31496128 0.090546049
0.202848 -0.22128613 0.098595552
0.23999615 -0.17908612 0.09469077
-0.079754695 -0.1313128 0.093470052
0.045537021 -0.13131164 0.093471982
-0.067926884 -0.12794957 0.099098675
-0.045682702 -0.12957151 0.096384227
-0.0028946176 -0.12957643 0.099071503
0.11317912 -0.12967728 0.098902732
-0.064288549 -0.092884429 0.095569998
0.0046129599 -0.093577728 0.096217893
0.065839484 -0.090944596 0.09375722
0.19182874 -0.092216775 0.092707664
-0.0074988492 -0.085572422 0.098295808
-0.18025599 0.030985385 0.099335834
0.20566584 0.14496045 0.091557339
0.24404845 0.19020087 0.099376008
0.202848 0.20615937 0.090652399
0.1465034 0.24921399 0.094307832
-0.26616201 0.25803125 0.095026515
0.17089494 0.30135801 0.097711027
0.19759852 -0.35479 0.1040009
-0.099601991 -0.12899637 0.10004231
-0.16784859 -0.088159814 0.10533174
0.23893817 -0.072515979 0.10090362
0.24777199 0.0277752 0.10578671
0.10306492 0.15029788 0.10779722
-0.18025599 0.21440449 0.10162389
-0.15521981 0.24630132 0.10433635
0.1743954 0.24921399 0.10252157
-0.21039048 0.30562061 0.10896547
-0.26616201 0.31155926 0.10959456
-0.21636431 0.32700604 0.10683206
0.202848 -0.34397697 0.11607908
0.094062373 -0.30264601 0.11208376
0.20153208 -0.30264601 0.1196126
-0.15161744 -0.11674361 0.11528998
-0.13781372 -0.11626406 0.11377232
-0.17157102 -0.028143451 0.11694046
0.24777199 0.036091752 0.11264475
-0.043333441 0.14616627 0.11467248
-0.18025598 0.16359681 0.11256044
0.0052899914 0.24921399 0.11506813
0.0059345327 0.30135801 0.11793825
0.024757193 0.32273099 0.11010782
0.13859931 0.32273099 0.11405116
-0.21398342 -0.35479 0.12565982
0.19834673 -0.30264601 0.12665936
0.24198598 -0.21576133 0.12029017
-0.098012507 -0.1026959 0.12839991
-0.171571 -0.082244858 0.12291077
0.19601163 0.051453114 0.12540683
-0.11496432 0.13381197 0.12886441
-0.099450186 0.13583501 0.12447023
-0.015943334 0.13503765 0.12538944
0.022618204 0.13567168 0.12677023
0.22338501 0.13637213 0.12670183
0.24153201 0.17990655 0.12458229
-0.26181999 0.30924934 0.12322035
-0.25860652 0.30135801 0.12360276
-0.26181999 0.31216463 0.1252985
0.16861817 0.32273099 0.12516582
-0.1248414 -0.30264604 0.137576
0.24036974 -0.2191578 0.13456677
0.20284799 -0.18744883 0.13343054
-0.18025599 -0.11856297 0.13527052
0.20284802 -0.11391639 0.13279504
-0.019591972 -0.10194585 0.13124336
0.24048516 -0.10959965 0.13368905
0.0010021552 -0.094228953 0.13717857
0.065565243 -0.097896554 0.13459627
0.19978274 -0.09167017 0.13728647
0.200528 -0.095033519 0.13491854
0.24126887 -0.037124917 0.13645248
-0.26616201 -0.029752538 0.13795467
0.23626642 0.0041772099 0.13006504
0.24777198 0.07698264 0.13752106
0.21739556 0.084887803 0.13680065
-0.18025601 0.092135951 0.13871165
-0.26616201 0.1077195 0.13260698
-0.171571 0.10580493 0.13825917
-0.17154814 0.12836099 0.13298051
0.03629468 0.12833841 0.13126263
0.12084497 0.1289276 0.1308177
0.14073569 0.13209958 0.13015746
-0.18025599 0.16337667 0.13411935
-0.1768257 0.22666863 0.13612005
-0.12000474 0.24921399 0.13366297
0.14008115 0.24921399 0.13947047
0.2370362 0.29567418 0.13296306
0.025312088 0.32273099 0.1357453
-0.10733584 -0.30264601 0.14470194
-0.092003748 -0.30237928 0.14631544
-0.049588844 -0.3021521 0.14714979
-0.26616201 -0.28649056 0.14569946
0.18098514 -0.082747571 0.14356832
-0.17979227 0.02645386 0.14696077
0.24099715 0.040217623 0.14194091
-0.171571 0.058156624 0.14229295
-0.14210255 0.10761298 0.14864764
0.042961497 0.10742803 0.14878729
-0.13435683 0.11772656 0.14101072
0.20284802 0.13818008 0.14216553
0.202848 0.15737259 0.14550592
-0.17964269 0.1706834 0.14748481
0.23958211 0.17331542 0.14102739
0.23844166 0.20877975 0.14971577
-0.17750734 0.30135801 0.14997095
0.202848 -0.33142295 0.15167217
0.23634192 -0.33509201 0.15679583
-0.07492125 -0.29896706 0.15884599
0.23815024 -0.15703431 0.15182978
0.20284799 -0.13415833 0.15657091
-0.26616201 -0.078877032 0.15209404
-0.020824552 -0.070446789 0.15387946
0.2307121 -0.07666678 0.15541908
-0.055682436 -0.064050041 0.15510298
0.01613728 -0.069230527 0.15289089
0.021871738 -0.064120561 0.15507287
0.17764942 -0.063416995 0.15537331
0.19245428 -0.066220067 0.15568435
0.202848 -0.054253422 0.15995575
0.22239 -0.027930766 0.15934604
-0.034140617 0.086288609 0.15946013
0.18929325 0.086131707 0.15876874
-0.03082644 0.09528394 0.15372968
0.17100871 0.090494871 0.15749547
0.18121281 0.097852483 0.15405887
0.21184106 0.22360605 0.15339944
0.079003885 0.24568631 0.15828779
0.097462162 0.24728256 0.15242723
0.19776283 0.30135801 0.15391015
-0.076575063 0.32273102 0.15418877
0.21625026 -0.16361892 0.16473916
-0.26616201 -0.07490325 0.16235062
0.024312362 -0.04926119 0.1614179
-0.063885957 -0.034827571 0.16720009
-0.17053378 -0.0068468302 0.16697991
0.16807386 0.049723543 0.16998857
0.13263141 0.058720659 0.16791125
-0.15311384 0.060243048 0.16898273
-0.060253419 0.078878812 0.16139144
0.0025874525 0.083224386 0.16089138
-0.17196077 0.18366084 0.16564022
0.21421568 0.22152326 0.16025989
0.033015601 0.24392027 0.16306038
-0.26616201 0.25466037 0.16445965
0.20284802 0.27510047 0.16104546
-0.19838303 0.30135801 0.16354696
0.0079578571 0.32273102 0.16258197
0.20168862 -0.35479 0.17449982
-0.05758889 -0.2864821 0.17375469
0.0064359456 -0.28628284 0.1739507
0.16366549 -0.28879952 0.17147499
0.12505496 -0.27111033 0.17868185
-0.056239013 -0.26287165 0.17953201
0.12961374 -0.26758251 0.17953202
0.13930134 -0.23098613 0.17953201
0.11197665 -0.22415048 0.17953201
-0.14881451 -0.20629987 0.17827815
0.022010889 -0.19681013 0.17953201
-0.060691662 -0.17191648 0.17953201
0.082490064 -0.17241859 0.17953201
-0.088050455 -0.14592603 0.17953201
0.041162558 -0.1107962 0.17953201
0.10707177 -0.11379463 0.17953199
-0.26616201 -0.092576139 0.17737073
0.084265366 -0.093707152 0.17953199
0.17393297 -0.072933055 0.17953201
-0.16580418 -0.041184574 0.17142005
0.23351663 -0.031892654 0.17206362
-0.068309188 -0.026121166 0.17953201
0.10179758 -0.026509639 0.17953201
0.13669208 -0.021878246 0.17953201
0.052874994 -0.0025790334 0.17953201
0.12660015 0.016005183 0.1735874
-0.15234447 0.024085552 0.17739052
-0.11607173 0.026209427 0.173417
-0.025205363 0.04447867 0.17262203
0.052235406 0.041048806 0.17341383
0.0091125704 0.063550241 0.17953201
0.016046487 0.068043396 0.17953201
0.20050254 0.060032316 0.17953201
-0.080966622 0.073603213 0.17953201
0.10337722 0.071704194 0.17953202
-0.05443906 0.080316544 0.17953201
-0.16534862 0.096165903 0.17184773
-0.03985301 0.10246692 0.17953201
0.12484073 0.10622762 0.17953201
0.056855347 0.11998098 0.17953201
-0.12177612 0.13768762 0.17953201
7.7623874e-05 0.1342954 0.17953201
-0.087891616 0.15128134 0.17953201
0.18915378 0.16590428 0.17953201
0.19214621 0.16292731 0.17953201
0.12128855 0.1716491 0.17953201
-0.010877833 0.18505016 0.17953201
-0.075570457 0.19302937 0.17953202
-0.26616201 0.21137893 0.17074956
0.086118534 0.22517709 0.17670564
0.01008717 0.23392248 0.17289552
0.092679277 0.23196059 0.17482549
0.23253454 0.28898567 0.17585762
0.032506179 0.30135801 0.17512512
-0.03137337 0.32273096 0.1795022
-0.18742354 -0.35479 0.1824073
-0.11586064 -0.35479 0.18781194
-0.26616201 -0.27749318 0.18089297
0.202848 -0.23563586 0.18871038
0.20284799 -0.050610445 0.18034247
0.23134254 0.035271943 0.1835098
0.20284802 0.059589028 0.1881946
-0.26616201 0.10952977 0.18216506
-0.26181999 0.30303919 0.18213594
-0.093996294 0.30370709 0.1888041
0.09066318 0.30135804 0.18339083
-0.11486134 0.31122121 0.18246406
-0.26616201 -0.005260691 0.19855705
0.202848 0.15376204 0.19719347
-0.11010009 0.30135801 0.19756031
-0.091114089 0.30135801 0.19177407
-0.12730521 0.32700601 0.19230409
0.06530723 0.32273099 0.19151309
0.20284799 -0.1847184 0.20645738
0.202848 0.050199363 0.20498325
0.22976777 0.061168242 0.20426793
0.202848 0.13165373 0.20848538
0.23008615 0.24269044 0.20243806
0.202848 0.26726753 0.20967315
0.202848 0.30650192 0.20689325
-0.13804723 -0.35478997 0.21754867
0.21707967 -0.34266204 0.21123978
-0.26616201 0.15940437 0.214311
0.202848 0.26474878 0.21704729
-0.016882475 0.30135801 0.21606734
0.0075486749 -0.35479 0.22214583
-0.067914233 -0.29186583 0.22869
-0.0067244302 -0.29255143 0.22869
-0.17861471 -0.28334045 0.22869
0.061070107 -0.26479515 0.22869
0.14648622 -0.2625407 0.22869
0.22511715 -0.26032975 0.22778609
-0.010087821 -0.24339542 0.22868998
-0.0088550495 -0.23338453 0.22869
0.0838788 -0.2202016 0.22869
0.15107119 -0.2278246 0.22869
0.057445534 -0.21250653 0.22869
-0.14034966 -0.18254495 0.22869
-0.13518734 -0.18854129 0.22869
-0.086765692 -0.18596739 0.22869
0.10015377 -0.18565787 0.22869
-0.022694994 -0.17060412 0.22869
0.019179031 -0.17683528 0.22869
0.07232713 -0.17744207 0.22869001
0.010485137 -0.16042575 0.22869
0.10442173 -0.16616972 0.22869
-0.045791522 -0.13767968 0.22869
0.12806621 -0.11166251 0.22869
0.20284799 -0.10030226 0.22848143
-0.22199041 -0.089845859 0.22869
-0.19174273 -0.086665593 0.22869
-0.0695889 -0.057788499 0.22869
0.051660523 -0.055543862 0.22869
0.11721911 -0.050650984 0.22869
-0.18358843 -0.042541798 0.22869
-0.11888488 -0.044304892 0.22869
-0.043066315 0.018661268 0.22869
0.10976644 0.025580384 0.22869
-0.0024294045 0.037977312 0.22869
0.016274214 0.036359966 0.22869
0.1039267 0.044371396 0.22869
0.087916061 0.060222887 0.22869
0.15648611 0.076460809 0.22869
-0.17392783 0.081033401 0.22869
0.014890566 0.082392156 0.22869
0.202848 0.088018276 0.22845906
-0.071664974 0.12835182 0.22869
-0.15131539 0.14487286 0.22869
-0.18000798 0.18471572 0.22869
-0.22111645 0.19789419 0.22869
-0.26616201 0.2335564 0.22963332
-0.14688352 0.23227657 0.22869
0.068570249 0.23911962 0.22869
-0.055212151 0.24213222 0.22869
-0.042043678 0.2436631 0.22869
-0.20922579 0.3047483 0.22655299
-0.10127002 0.30135801 0.22752976
0.13271245 0.32529584 0.22995794
0.14319742 0.32655859 0.22655298
0.19414237 0.32700601 0.2237369
-0.17625362 -0.34284544 0.230828
-0.12041072 -0.3401728 0.230828
-0.027418271 -0.33932605 0.230828
0.0070708096 -0.32906419 0.230828
-0.23106834 -0.31443328 0.23082802
0.10895926 -0.31852016 0.23082802
-0.22514331 -0.27418315 0.230828
-0.11706831 -0.27205586 0.23075587
0.022372056 -0.25886819 0.230828
-0.25530225 -0.23051029 0.230828
0.21122241 -0.23326607 0.23082802
0.1915907 -0.20754607 0.23082802
0.16139893 -0.16300969 0.230828
-0.22977206 -0.1543645 0.230828
-0.096387893 -0.15324958 0.230828
-0.093833685 -0.10494922 0.23082799
-0.11485459 -0.051494919 0.23082799
-0.24759668 -0.0027477592 0.230828
0.18186639 0.036644325 0.23082802
0.048012428 0.058621205 0.23082802
-0.25033498 0.085948452 0.230828
0.157313 0.091462381 0.23056273
-0.22598241 0.13686199 0.230828
-0.24401906 0.17783639 0.230828
-0.089017786 0.19638115 0.230828
0.025443282 0.1972353 0.230828
-0.25188479 0.23267627 0.23082799
0.16634247 0.25443265 0.23082802
0.037741788 0.26789242 0.23082799
0.064188287 0.26359427 0.230828
-0.19301358 0.27921665 0.230828
0.038750738 0.27050346 0.230828
0.17034535 0.27341577 0.23082799
0.19544351 0.274351 0.230828
-0.061766915 0.28726947 0.230828
0.021209594 0.28805184 0.230828
0.048135094 0.28745717 0.23082802
0.12469577 0.28815699 0.230828
0.1964405 0.28844833 0.23082799
-0.00019387901 0.29829031 0.230828
-0.18112703 0.30383202 0.230828
-0.086544342 0.31761023 0.23082802
