# .PCD v0.7 - Point Cloud Data file format
VERSION 0.7
FIELDS x y z
SIZE 4 4 4
TYPE F F F
COUNT 1 1 1
WIDTH 966
HEIGHT 1
VIEWPOINT 0 0 0 1 0 0 0
POINTS 966
DATA ascii
-0.189604 -0.31373963 -0.25273201
-0.22990091 -0.30815071 -0.25273201
-0.0054657906 -0.30520767 -0.25273201
0.020660326 -0.30728731 -0.25273201
0.20481153 -0.30047882 -0.25273201
-0.19731402 -0.29292208 -0.25273201
-0.14290525 -0.2960791 -0.25273201
-0.047899187 -0.29876041 -0.25273201
0.095458195 -0.29393333 -0.25273201
0.2400703 -0.29000571 -0.25273201
-0.022594616 -0.28883016 -0.25273201
0.046052877 -0.28520072 -0.25273201
-0.098742075 -0.27118999 -0.25273201
-0.14327028 -0.26986459 -0.25273201
-0.030134559 -0.26357958 -0.25273201
-0.11644567 -0.25560808 -0.25273201
-0.03602276 -0.25736272 -0.25273201
-0.021511205 -0.25141826 -0.25273201
0.037815072 -0.25570932 -0.25273201
-0.29431131 -0.23904373 -0.25273201
0.10473141 -0.23930049 -0.25273201
0.17860727 -0.23648603 -0.25273201
0.22118445 -0.23809069 -0.25273201
-0.15103312 -0.22987203 -0.25273201
0.024770826 -0.22319114 -0.25273201
0.18461345 -0.22523043 -0.25273201
-0.24797516 -0.21919261 -0.25273201
-0.046871554 -0.21412416 -0.25273201
0.016096339 -0.21521479 -0.25273201
-0.23661181 -0.20937078 -0.25273201
0.024983637 -0.20923954 -0.25273201
-0.2808637 -0.19012074 -0.25273201
-0.081834301 -0.1999383 -0.25273201
0.12779136 -0.19412692 -0.25273201
0.21848655 -0.19079763 -0.25273201
0.22002786 -0.19234572 -0.25273201
0.035720419 -0.18955401 -0.25273201
0.2111735 -0.18409047 -0.25273201
0.26364401 -0.18486959 -0.25055704
-0.24550375 -0.17124376 -0.25273201
-0.23346618 -0.17102033 -0.25273201
-0.13957056 -0.17772797 -0.25273201
-0.01972881 -0.16048944 -0.25273201
-0.18743646 -0.15641847 -0.25273201
-0.085862167 -0.15039432 -0.25273201
0.10742715 -0.15060174 -0.25273201
0.11824761 -0.15119758 -0.25273201
-0.28943348 -0.14857543 -0.25273201
-0.25713253 -0.14503358 -0.25273198
-0.064849392 -0.14009441 -0.25273201
0.12644379 -0.14457296 -0.25273201
-0.091090426 -0.13697439 -0.25273201
-0.19904017 -0.12339073 -0.25273201
-0.13974969 -0.12047435 -0.25273201
-0.051679201 -0.12713018 -0.25273201
-0.20494725 -0.11801253 -0.25273198
-0.19855614 -0.099150129 -0.25273201
-0.14605403 -0.090827718 -0.25273201
0.044081051 -0.092369579 -0.25273201
0.26168978 -0.098189622 -0.25273201
-0.25830233 -0.086991102 -0.25273201
-0.23956671 -0.088215515 -0.25273201
-0.19092813 -0.08829537 -0.25273201
0.0082515627 -0.085109659 -0.25273201
-0.17206517 -0.075117737 -0.25273201
-0.078008033 -0.071054086 -0.25273201
-0.18073055 -0.062373467 -0.25273201
-0.094961017 -0.06319505 -0.25273201
0.030731402 -0.064337701 -0.25273201
0.077078067 -0.069377013 -0.25273201
-0.17475887 -0.053294577 -0.25273201
-0.15899757 -0.055685397 -0.25273201
-0.11883456 -0.054116618 -0.25273201
-0.044669725 -0.053044647 -0.25273201
0.171222 -0.056325115 -0.25273201
-0.27547157 -0.042657301 -0.25273201
0.024393493 -0.048275173 -0.25273201
0.20202509 -0.047992714 -0.25273201
0.068115935 -0.035153486 -0.25273201
-0.28340396 -0.024281263 -0.25273201
-0.23332456 -0.023402959 -0.25273201
-0.10148382 -0.022455871 -0.25273201
0.24642134 -0.022291966 -0.25273201
-0.17527938 -0.014065862 -0.25273201
-0.065786988 -0.011929989 -0.25273201
0.2356005 -0.01725582 -0.25273201
0.25600055 -0.015642781 -0.25273201
-0.22069648 -0.00040239096 -0.25273201
-0.21097365 -0.0048553422 -0.25273201
-0.087594181 -0.0077274069 -0.25273201
0.0089552356 -0.0052400362 -0.25273201
0.045330804 -0.0038303733 -0.25273201
0.093692571 -0.0057154279 -0.25273204
-0.061720937 0.0018382445 -0.25273201
0.18633595 0.0083936229 -0.25273201
-0.17656201 0.017234273 -0.25273201
-0.054891657 0.017987326 -0.25273201
-0.033878468 0.014053338 -0.25273201
-0.26090586 0.022202268 -0.25273204
0.050532795 0.035504125 -0.25273201
0.18342382 0.039304558 -0.25273201
-0.12314268 0.044674251 -0.25273201
-0.1124053 0.043342963 -0.25273201
0.11324847 0.044096276 -0.25273201
-0.28961721 0.05436562 -0.25273201
-0.20789362 0.050956309 -0.25273201
-0.091954343 0.05522494 -0.25273201
0.038285863 0.052641228 -0.25273201
0.049685482 0.050297432 -0.25273201
0.11230394 0.057184901 -0.25273201
0.20450968 0.050025512 -0.25273201
0.25584191 0.057860151 -0.25273201
-0.24714823 0.065237358 -0.25273201
-0.010968793 0.067904823 -0.25273201
0.18226878 0.06274581 -0.25273201
-0.29569399 0.073022932 -0.25139552
-0.083437733 0.075338431 -0.25273201
0.046817489 0.071464732 -0.25273201
-0.26575929 0.08198908 -0.25273201
-0.082227729 0.088050947 -0.25273201
0.16495548 0.08058852 -0.25273201
0.26343495 0.084817655 -0.25273201
-0.07196255 0.095609084 -0.25273201
0.068681434 0.09228529 -0.25273201
0.19018136 0.099484861 -0.25273201
-0.29569399 0.10881494 -0.25144994
0.047259789 0.10268009 -0.25273201
-0.16370276 0.11197266 -0.25273201
-0.1525986 0.11315126 -0.25273201
-0.12647527 0.11081403 -0.25273201
-0.012784183 0.11276682 -0.25273201
0.010168932 0.11836804 -0.25273201
0.12709156 0.11475042 -0.25273201
-0.26262879 0.12843454 -0.25273201
-0.23955423 0.13225566 -0.25273201
-0.090793893 0.1339165 -0.25273201
0.032853283 0.13286501 -0.25273201
0.068444818 0.13455589 -0.25273201
0.13367666 0.13790481 -0.25273201
-0.20179106 0.14277136 -0.25273198
-0.18533191 0.14998803 -0.25273201
-0.23205766 0.15012553 -0.25273201
-0.20419176 0.1528554 -0.25273201
-0.11085041 0.15789573 -0.25273201
-0.10622093 0.15385219 -0.25273201
-0.031197675 0.15023778 -0.25273201
0.014717596 0.15081821 -0.25273201
0.2158599 0.15458609 -0.25273201
0.082468785 0.1688776 -0.25273201
-0.29476917 0.17231059 -0.25273201
-0.22129324 0.17268884 -0.25273201
-0.073293172 0.17650825 -0.25273201
0.015843684 0.17865002 -0.25273201
-0.12191118 0.18713006 -0.25273201
0.029352408 0.18435313 -0.25273201
-0.25686988 0.19763863 -0.25273201
0.060178101 0.1980231 -0.25273201
-0.26249617 0.20399114 -0.25273201
-0.20991318 0.2011611 -0.25273201
-0.12797822 0.20721978 -0.25273201
-0.093831092 0.2083938 -0.25273201
-0.1894657 0.22028862 -0.25273201
-0.1184929 0.22580694 -0.25273201
-0.19474223 0.25807306 -0.25273201
-0.27536643 0.26026881 -0.25273201
-0.21575546 0.26063153 -0.25273201
-0.27822521 0.27279121 -0.25273201
-0.22079505 0.27869108 -0.25273201
-0.11438085 0.28248823 -0.25273201
-0.1840474 0.30357823 -0.25273201
-0.29531318 0.314152 -0.25256258
-0.16655397 0.314152 -0.2508513
-0.19322774 -0.314152 -0.24396263
0.26364401 -0.26680186 -0.24273901
0.26364401 -0.14123797 -0.24168158
-0.29569399 0.16356254 -0.24735849
-0.29569399 0.18436949 -0.24254882
0.17755565 0.200232 -0.24170837
0.26364401 -0.25215322 -0.23486063
0.26364401 -0.0020991117 -0.23685384
0.26364401 0.14199537 -0.23729195
0.1090513 0.200232 -0.23750612
-0.12282439 -0.314152 -0.22612359
-0.29569399 -0.19328432 -0.22719795
0.26364401 -0.19509271 -0.22999793
0.26364401 -0.12073994 -0.22539291
0.26364401 -0.055158503 -0.22214237
0.26364401 0.11454754 -0.22628695
0.26364401 0.12289332 -0.22099891
-0.29569399 0.20329976 -0.22675097
-0.13962072 0.314152 -0.22708175
-0.27529606 -0.314152 -0.21811117
0.0056390464 -0.314152 -0.21041724
0.025398195 -0.314152 -0.21355933
0.20642422 -0.314152 -0.21400099
-0.29569399 -0.18167171 -0.21416405
0.26364401 -0.027438223 -0.21369909
-0.29569399 0.11218838 -0.21767077
-0.29569399 0.19132383 -0.21112111
0.071802571 0.200232 -0.21699533
0.15016142 0.200232 -0.21342665
-0.078696676 0.24844705 -0.21724118
-0.29569399 0.28626105 -0.21876195
-0.17736499 0.314152 -0.21527001
-0.22302942 -0.314152 -0.2045614
-0.19646978 -0.314152 -0.2025042
-0.16608372 -0.314152 -0.20473346
-0.11393546 -0.314152 -0.20424925
0.064732812 -0.314152 -0.20022371
0.25268894 -0.314152 -0.2007134
0.26364401 -0.28252611 -0.20473802
-0.29569399 -0.088663012 -0.20937541
0.061079644 0.200232 -0.20544687
-0.29569399 0.27198756 -0.2087585
0.0040526688 -0.314152 -0.19456461
0.22039554 -0.314152 -0.19605875
0.26364401 -0.26621905 -0.19629693
0.0732283 0.200232 -0.19086125
0.13973364 0.200232 -0.19849354
-0.070982032 0.22551312 -0.19944458
-0.29569399 0.24370751 -0.19208787
-0.081901707 0.25797468 -0.19884542
-0.13306868 0.314152 -0.19222683
-0.12516427 0.314152 -0.1960713
-0.083669573 -0.314152 -0.18309233
0.11540532 -0.314152 -0.18560091
0.14813797 -0.314152 -0.18261579
0.26252481 -0.314152 -0.18727852
0.26364401 -0.2880418 -0.180198
-0.29569399 -0.25698009 -0.18241675
-0.29569399 -0.22611886 -0.18829557
-0.29569399 -0.074041001 -0.18146262
0.26364401 -0.05990462 -0.18528375
0.26364401 -0.046993643 -0.18758802
0.26364401 0.011266731 -0.18959597
-0.29569399 0.073099129 -0.18515292
-0.29569399 0.11724715 -0.18343261
-0.049227946 0.200232 -0.18261427
0.21094854 0.200232 -0.18831325
-0.082181782 0.25987285 -0.18382455
-0.29569399 -0.31146944 -0.17847136
-0.27069378 -0.314152 -0.17345238
0.08813259 -0.314152 -0.1798766
0.1961107 -0.314152 -0.17959152
0.26364401 0.023877591 -0.17410767
0.26364401 0.044811152 -0.17769635
-0.29569399 0.088328011 -0.17294815
-0.29569399 0.17400484 -0.17237529
-0.29569399 0.19449434 -0.17753008
0.10685904 0.200232 -0.1777937
0.24854854 0.200232 -0.1756493
-0.29569399 0.24509564 -0.17938375
-0.093072832 0.29118323 -0.17978308
-0.23165204 0.314152 -0.17779273
-0.27670604 -0.314152 -0.16360383
0.18650419 -0.314152 -0.16731697
-0.29569399 -0.21513896 -0.16679037
0.26364401 -0.0012749359 -0.16661581
0.26364401 0.031183414 -0.16605173
0.096515633 0.200232 -0.16676712
-0.2644088 -0.314152 -0.15650272
-0.18988225 -0.314152 -0.15991428
0.041727275 -0.314152 -0.15983553
0.074980766 -0.314152 -0.1597285
0.094542392 -0.314152 -0.15560956
0.23604423 -0.314152 -0.15652166
-0.29569399 -0.21870315 -0.15766141
-0.29569399 -0.16235958 -0.15411276
-0.29569399 -0.098959468 -0.15726633
0.26364401 -0.086817279 -0.15373665
0.26364401 -0.058631048 -0.15535542
-0.29569399 -0.03316585 -0.15884885
0.0038270121 0.200232 -0.15318346
0.11684322 0.200232 -0.15614471
-0.23897122 0.314152 -0.1529481
-0.27929723 -0.314152 -0.14537314
-0.066588968 -0.314152 -0.14645061
-0.0069115758 -0.314152 -0.14048848
0.0094792396 -0.314152 -0.14842501
0.16234654 -0.314152 -0.14766246
0.26364401 -0.23146072 -0.14192536
-0.29569399 -0.047436982 -0.14192723
-0.29569399 0.012958728 -0.14657959
0.26364401 0.066455916 -0.14193927
-0.29569399 0.13575886 -0.14496452
-0.29569399 0.19649172 -0.14880462
-0.0074524828 0.200232 -0.14143053
0.0092180669 0.200232 -0.14396429
-0.29569399 0.25047001 -0.14896432
-0.072223887 0.26193774 -0.14681233
-0.07613118 0.27355269 -0.14759052
-0.1340218 -0.314152 -0.13146856
0.15224002 -0.314152 -0.13808668
-0.29569399 -0.064544402 -0.13896003
0.26364401 0.046113338 -0.1377189
0.26364401 0.059995402 -0.13594276
0.26364401 0.088101521 -0.13404697
-0.051261976 0.200232 -0.13400586
0.0023198351 0.200232 -0.13692503
0.037110124 0.200232 -0.13639367
-0.096889302 0.30252883 -0.13837489
-0.27890575 0.314152 -0.13923988
-0.18822087 0.314152 -0.13435365
-0.12874319 0.314152 -0.13162729
-0.18648009 -0.314152 -0.12729242
-0.15550403 -0.314152 -0.12458271
-0.12247427 -0.314152 -0.12239499
0.1122372 -0.314152 -0.12857684
0.14034832 -0.314152 -0.12213153
0.20763358 -0.314152 -0.12499423
0.26364401 -0.29996222 -0.1243732
0.26364401 -0.16280733 -0.12468103
-0.29569399 0.037528664 -0.12014475
0.26364401 0.051665738 -0.12417465
0.26364401 0.062369414 -0.12614897
0.26364401 0.097275302 -0.12932274
-0.19414559 0.314152 -0.12091147
-0.14867756 0.314152 -0.12793498
-0.27023751 -0.314152 -0.1151114
-0.12842481 -0.314152 -0.11264455
0.10973545 -0.314152 -0.11794297
0.16330542 -0.314152 -0.11646275
-0.29569399 -0.25744712 -0.11301935
-0.29569399 -0.16856857 -0.11761445
-0.29569399 -0.13216585 -0.11671908
-0.29569399 0.10064945 -0.11715111
0.0061416067 0.200232 -0.11085987
0.049667127 0.200232 -0.11527213
0.051471744 0.200232 -0.11771646
0.24218982 0.200232 -0.11358096
-0.20226049 0.314152 -0.1157143
-0.19382165 0.314152 -0.11999434
-0.14705181 -0.314152 -0.10235017
-0.080186777 -0.314152 -0.10720814
0.26364401 -0.26669228 -0.10781492
0.26364401 -0.041170638 -0.10140733
0.26364401 0.033153996 -0.10224105
-0.29569399 0.14486852 -0.10287855
-0.096759953 0.30214429 -0.10661919
-0.25339758 -0.314152 -0.098013207
-0.2045092 -0.314152 -0.096485198
-0.29569399 -0.19376779 -0.091444969
-0.29569399 -0.023703374 -0.093864612
-0.29569399 0.17086475 -0.097212046
-0.027238572 0.200232 -0.094651073
0.14511795 0.200232 -0.099853061
-0.067269437 0.21447676 -0.098313123
-0.2811954 0.314152 -0.090639703
-0.25766748 -0.314152 -0.085256256
-0.10731553 -0.314152 -0.087746382
0.098201469 -0.314152 -0.082048997
-0.29569399 -0.25463176 -0.084769361
0.26364401 -0.23109773 -0.080600217
-0.29569399 -0.21354583 -0.086979933
-0.29569399 -0.19907832 -0.086916059
-0.29569399 -0.031099997 -0.082323201
-0.29569399 0.18099086 -0.086900122
0.0023113173 0.200232 -0.081566028
-0.29569399 0.27732453 -0.081510156
-0.26449561 0.314152 -0.087208107
-0.28961834 -0.314152 -0.0765481
-0.24843758 -0.314152 -0.07618925
0.158169 -0.314152 -0.073253602
-0.29569399 -0.20931879 -0.073169082
0.26364401 -0.19119775 -0.072615378
-0.29569399 0.062981278 -0.075944416
-0.29569399 0.098349795 -0.078306958
0.26364401 0.15675761 -0.079061061
0.061960064 0.200232 -0.070405982
-0.072663404 0.23051099 -0.075957894
-0.15276581 0.314152 -0.072211556
-0.29569399 -0.27650771 -0.063273095
0.26364401 -0.051440604 -0.060454074
0.26364401 0.033866137 -0.063749045
0.26364401 0.076924324 -0.069838956
0.26364401 0.15921499 -0.065972894
-0.29569399 0.20965162 -0.068354234
0.092483923 0.200232 -0.069213472
0.22139828 0.200232 -0.062690042
-0.27892783 -0.314152 -0.057358064
-0.13615349 -0.314152 -0.057069987
0.26364401 -0.29554787 -0.05852849
0.26364401 -0.10355668 -0.057030909
0.26364401 -0.06370347 -0.050946463
0.26364401 -0.02738747 -0.056261409
0.26364401 0.034126319 -0.051981732
0.29359525 0.123283 -0.050415915
0.037116781 0.200232 -0.053870026
0.098070994 0.200232 -0.055121951
0.20584947 0.200232 -0.056890987
0.26313603 0.200232 -0.057319991
-0.29569399 0.27990142 -0.059276469
-0.14810219 0.314152 -0.059109703
0.11201356 -0.314152 -0.044206604
0.26364401 -0.20633331 -0.047722697
0.26364401 -0.136685 -0.046173178
-0.29569399 -0.090896957 -0.048102476
-0.29569399 -0.01493331 -0.040235519
0.26364401 0.020745447 -0.040688314
0.26364401 0.18608257 -0.04130356
0.081147239 0.200232 -0.040900119
0.16530098 0.200232 -0.041152284
0.22506464 0.200232 -0.043755211
0.24602908 0.200232 -0.047824383
-0.29418129 -0.314152 -0.037266221
-0.29569399 -0.30100578 -0.034388609
0.26364401 -0.22115915 -0.036450595
-0.29569399 -0.14915085 -0.039369285
0.26364401 -0.073118567 -0.03482401
-0.29569399 0.025846213 -0.039942622
0.27023837 0.123283 -0.035571478
-0.051285662 0.200232 -0.03233096
0.05430375 0.200232 -0.034764588
0.10589264 0.200232 -0.039812513
-0.29569399 0.22583143 -0.036348596
-0.21170819 0.314152 -0.037026957
-0.25656462 -0.314152 -0.028992891
-0.19844145 -0.314152 -0.023175895
0.19570881 -0.314152 -0.026436232
-0.29569399 -0.033663332 -0.023157172
-0.29569399 -0.0071295295 -0.020733465
-0.0077449027 0.200232 -0.026210435
0.12923911 0.200232 -0.028666764
-0.06635192 0.21174926 -0.028231755
-0.29569399 0.26406559 -0.020398177
-0.29569399 0.29383639 -0.023472458
-0.11125644 0.314152 -0.022626445
-0.056891136 -0.314152 -0.011414744
0.007969752 -0.314152 -0.017672256
0.011568331 -0.314152 -0.018297596
0.073937692 -0.314152 -0.013845481
0.082887329 -0.314152 -0.012776673
0.17417195 -0.314152 -0.010005273
0.20983134 -0.314152 -0.01746469
0.26364401 -0.21275809 -0.0149654
-0.29569399 -0.053816557 -0.01102037
0.26364401 0.059607778 -0.01140609
-0.29569399 0.11052311 -0.018476456
0.26364401 0.14486553 -0.010451458
0.036264885 0.200232 -0.016749959
-0.10008971 0.31204334 -0.018001184
0.013005823 -0.314152 -0.008254379
-0.29569399 -0.062797651 -0.00098529458
0.26364401 0.066458382 -0.0058407141
0.29569399 0.10251815 -0.0024886373
0.28027511 0.123283 -0.00041808723
-0.29569399 0.19554774 -0.0019739047
0.26364401 0.19685575 -0.001771912
-0.29569399 0.21359611 -0.0059574917
-0.13356923 0.314152 -0.0033836588
0.26364401 -0.2501092 0.0084494799
-0.29569399 -0.14273858 0.0095375143
0.26364401 -0.09176074 0.0082848445
0.26364398 0.074533671 0.008431688
-0.29569399 0.13309121 0.0073853247
-0.29569399 0.18430655 0.0098980218
-0.29569399 0.2434715 0.0032900423
-0.16534293 0.314152 0.0008091405
-0.22780138 -0.314152 0.011648141
-0.060965903 -0.314152 0.015370629
0.030818317 -0.314152 0.018188719
0.084969729 -0.314152 0.01294706
-0.29569399 -0.23338786 0.011870719
0.26364401 -0.18040863 0.013312727
0.26364401 -0.17406632 0.01492691
0.26364401 -0.15719698 0.015801549
0.26364401 -0.090229914 0.017921563
-0.29569399 0.12024361 0.019529998
0.1249432 0.200232 0.013674461
-0.29569399 0.30856317 0.01082816
-0.24682051 0.314152 0.016989775
-0.27938515 -0.314152 0.021923592
-0.20542958 -0.314152 0.024909861
-0.078804269 -0.314152 0.020270327
0.061150022 -0.314152 0.028708823
0.1067524 -0.314152 0.023911219
0.12705161 -0.314152 0.028945863
0.14801036 -0.314152 0.025168531
0.23260492 -0.314152 0.029379569
0.26364401 -0.2221022 0.029378913
0.26364401 -0.205478 0.022177227
-0.29569399 -0.073160082 0.02908789
-0.29569399 -0.059119448 0.020398177
0.26364401 0.047472399 0.029627807
-0.029575989 0.200232 0.021322913
-0.017983841 0.200232 0.02553194
-0.083513051 0.2627635 0.021258846
-0.14398906 0.314152 0.020766478
-0.26193962 -0.314152 0.03217341
-0.25806579 -0.314152 0.033724643
0.19986263 -0.314152 0.039820641
0.26364401 -0.27065825 0.030731604
-0.29569399 -0.26570225 0.03954421
0.26364401 -0.17891032 0.032145523
0.26364401 -0.056626953 0.039285012
0.29569399 0.12135382 0.035367887
-0.29569399 0.1674673 0.030258354
-0.29569399 0.19299136 0.037651606
-0.054005124 0.200232 0.037164204
0.054645136 0.200232 0.030311884
0.24732545 0.200232 0.03040383
-0.26868093 0.314152 0.034179069
-0.21078594 0.314152 0.032171562
-0.19907579 -0.314152 0.043988734
-0.14426589 -0.314152 0.046152346
-0.04063959 -0.314152 0.04855828
0.26364401 -0.31407022 0.049875759
0.26364401 -0.10579894 0.049922142
-0.29569399 -0.064314604 0.040690653
-0.29569399 -0.031765692 0.046537496
0.26364401 0.050803535 0.04254448
0.26364401 0.12752123 0.040126316
0.16450648 0.200232 0.043095879
-0.26056081 -0.314152 0.056284852
-0.1562576 -0.314152 0.053377196
-0.11790982 -0.314152 0.051254481
-0.10093299 -0.314152 0.058651816
0.26364401 -0.29568699 0.059239715
-0.29569399 -0.2259187 0.05316411
0.26364401 -0.057177134 0.053587444
-0.29569399 0.011432379 0.055310428
-0.29569399 0.19701883 0.057410061
-0.058797419 0.200232 0.0576289
0.23552522 0.200232 0.054385178
-0.2601909 0.314152 0.05337669
-0.19460383 0.314152 0.05922091
-0.14571427 0.314152 0.058609728
-0.28584898 -0.314152 0.062653281
-0.079946987 -0.314152 0.06239868
-0.02222164 -0.314152 0.068649888
0.17919844 -0.314152 0.067667276
-0.29569399 -0.2061456 0.067587957
-0.29569399 -0.079081312 0.064005882
0.26364401 -0.0028452445 0.063148417
-0.29569399 0.14384137 0.063604943
0.26364401 0.17409706 0.062100358
0.13390341 0.200232 0.06721741
0.1571371 0.200232 0.061397597
-0.069258124 0.22038856 0.068753205
-0.29569399 0.23812342 0.064799942
-0.29569399 0.3019796 0.06840305
-0.24231195 0.314152 0.06731841
0.0095344186 -0.314152 0.079158813
0.026074931 -0.314152 0.077749357
0.239088 -0.314152 0.07752189
-0.29569399 -0.26980421 0.076584451
0.26364401 -0.26934415 0.075461082
0.26364401 -0.24115211 0.072187431
0.26364401 -0.19602907 0.078501254
-0.29569399 -0.12199331 0.07450407
0.26364401 -0.06648092 0.071712397
-0.29569399 0.23272112 0.077317439
-0.088171601 0.27661189 0.07527753
-0.2752898 0.314152 0.07983496
-0.20025221 0.314152 0.074417248
-0.062695667 -0.314152 0.080864459
-0.29569399 -0.30650038 0.086853124
-0.29569399 -0.29637402 0.088545665
0.26364401 -0.17793734 0.087806545
0.26364401 -0.066129409 0.081490055
-0.036353726 0.200232 0.080834284
0.011774529 0.200232 0.081338629
-0.29569399 0.24118172 0.082380444
-0.29569399 0.29252169 0.089324415
-0.15058132 0.314152 0.084616281
-0.1005044 0.31327617 0.089798041
-0.035993058 -0.314152 0.092956871
-0.29569399 -0.27185649 0.0931307
0.26364401 -0.23595175 0.098509267
0.26364401 -0.21912217 0.097468168
-0.29569399 -0.19855586 0.091525368
0.26364401 -0.19574468 0.098029882
0.26364401 -0.15843669 0.093460232
0.26364401 -0.1496619 0.091231018
-0.29569399 0.032888427 0.096773759
0.26364401 0.13219066 0.096748337
0.062442802 0.200232 0.09801887
0.1728766 0.200232 0.090904981
0.19277745 0.200232 0.098197408
-0.21767412 0.314152 0.09359695
-0.27519736 -0.314152 0.1020194
-0.2539497 -0.314152 0.10919754
-0.10505566 -0.314152 0.10504003
-0.29569399 -0.18996549 0.10916749
-0.29569399 -0.094908103 0.10419384
0.26364401 -0.085193433 0.10653675
0.26364401 0.070221096 0.10886697
0.26364401 0.1122698 0.10826418
0.26364401 0.18424885 0.10040282
-0.29569399 0.20337357 0.10283688
-0.21072127 -0.314152 0.11748645
-0.13612485 -0.314152 0.11953463
0.070147023 -0.314152 0.11167436
-0.29569399 -0.19182096 0.11699536
0.26364401 -0.12352026 0.11323427
0.26364401 -0.017108727 0.11766064
0.097311884 0.200232 0.11482202
-0.20695017 -0.314152 0.12974682
-0.065023467 -0.314152 0.12022462
0.044990942 -0.314152 0.12875922
0.055730946 -0.314152 0.12684692
0.096192129 -0.314152 0.12241499
-0.29569399 -0.18552482 0.12004536
0.26364401 -0.15871844 0.12979916
0.26364401 -0.055242576 0.12878901
0.26364401 -0.017849509 0.12051366
0.26364404 0.10021821 0.12484893
-0.29569399 0.19743942 0.12965
0.10775533 0.200232 0.12308156
0.23127709 0.200232 0.12445178
-0.29569399 0.29188809 0.12763375
-0.18749858 -0.314152 0.13098885
-0.028651386 -0.314152 0.13178392
0.23823929 -0.314152 0.13831937
0.26364401 -0.26824352 0.13601758
0.26364401 -0.11537696 0.1332054
-0.29569399 0.015506525 0.13417318
-0.29569399 0.032490462 0.13312387
0.26364401 0.091070816 0.139553
-0.29569399 0.13669416 0.13808316
0.051265106 0.200232 0.13110799
0.13736962 0.200232 0.13884002
-0.29569399 0.27945119 0.13636355
-0.071659036 0.27374971 0.1374045
-0.27649477 0.314152 0.13238986
-0.24471372 -0.314152 0.14306912
-0.29569399 -0.28323448 0.14404652
0.26364401 -0.16286679 0.14644989
-0.29569399 -0.15124378 0.14099512
0.26364401 -0.032931976 0.14682284
0.26364401 0.02004436 0.14898126
0.26364401 0.058157474 0.14503798
0.26364401 0.076348819 0.14213446
0.26364401 0.13560499 0.14693561
-0.29569399 0.16632199 0.14019227
0.072009817 0.200232 0.14868289
0.20615116 0.200232 0.1427635
-0.29569399 0.29690561 0.14163655
-0.13786516 -0.314152 0.1582624
-0.12806678 -0.314152 0.15966927
-0.29569399 -0.24180272 0.15401658
0.26364401 -0.22947389 0.15906909
0.26364401 -0.19906312 0.1592562
-0.29569399 -0.16489992 0.15236625
-0.29569399 -0.08051841 0.15249136
0.26364401 0.16053557 0.15718162
-0.29569399 0.17374644 0.15271255
-0.29569399 0.19121973 0.15227684
0.1845172 0.200232 0.15164381
-0.29569399 0.21617614 0.15051427
-0.06714496 0.21410671 0.15054497
-0.29569399 0.24966222 0.15583518
-0.07243108 0.27604476 0.15472504
-0.24058984 0.314152 0.15627468
0.26364401 -0.26300651 0.16243958
0.26364401 -0.25980037 0.16150615
-0.29569399 -0.22577879 0.16846442
0.26364401 -0.11653642 0.16079457
-0.29569399 0.00045764074 0.16544539
-0.29569399 0.16143531 0.16381598
0.17180206 0.200232 0.16414325
-0.29569399 0.21961789 0.16469893
-0.29569399 0.26659811 0.16357803
-0.26214397 0.314152 0.16574709
-0.16560957 0.314152 0.16979244
-0.25670916 -0.314152 0.17141511
-0.16015884 -0.314152 0.17145321
-0.070696458 -0.314152 0.17730705
0.22102392 -0.314152 0.17997384
-0.29569399 -0.21581078 0.17018127
0.26364401 -0.21164465 0.17574367
0.26364401 -0.10723829 0.17951995
0.26364401 -0.091538921 0.17086782
0.26364401 -0.082842879 0.17274264
-0.052448098 0.200232 0.17815387
-0.037121218 0.200232 0.17203906
-0.0034321845 0.200232 0.1714159
-0.25247812 0.314152 0.17772765
-0.18128063 -0.314152 0.18959835
-0.136067 -0.314152 0.182661
-0.057628572 -0.314152 0.1811624
0.17492446 -0.314152 0.18783996
0.20653215 -0.314152 0.18583409
0.23711157 -0.314152 0.1859486
0.26364401 -0.17330152 0.1832293
-0.29569399 -0.038225751 0.18446907
0.26364401 -0.022003688 0.1888876
-0.29569399 0.024201971 0.18840161
0.26364401 0.11319332 0.18816186
-0.29569399 0.14796884 0.18893829
0.26364401 0.18603909 0.18558589
-0.29569399 0.20890567 0.1804378
0.2473163 0.200232 0.18234164
-0.066123895 0.21107139 0.18819138
-0.099156104 0.30926782 0.18252696
-0.20243117 -0.314152 0.19837749
0.016006798 -0.314152 0.19201741
0.028631464 -0.314152 0.1956245
0.17949341 -0.314152 0.19220087
-0.29569399 -0.20861644 0.19020081
0.26364401 -0.1786564 0.19714577
0.26364401 -0.094598338 0.19260518
0.26364401 -0.031026026 0.19358665
0.14475571 0.200232 0.19983074
0.19201352 0.200232 0.19260591
-0.070302069 0.22349191 0.1998053
-0.29569399 0.24448881 0.19224685
-0.29569399 0.27796179 0.19314928
-0.19435637 0.314152 0.19873568
-0.12637708 -0.314152 0.20708814
0.26364401 -0.26943353 0.20820557
0.26364401 -0.18363613 0.20244645
0.26364401 -0.1625482 0.20770359
0.26364401 -0.14474528 0.20135829
0.26364401 0.079008356 0.20020232
0.26364401 0.13887581 0.2018048
0.12336721 0.200232 0.20009768
0.16261865 0.200232 0.20209797
0.18132071 0.200232 0.20920929
-0.093336999 0.29196817 0.20132989
-0.19380337 0.314152 0.20757166
-0.019318223 -0.314152 0.21055035
0.26364401 -0.29906219 0.21932802
-0.29569399 -0.25178578 0.21249741
-0.29569399 -0.18987264 0.21663541
-0.29569399 -0.1468308 0.21893251
0.0366477 0.200232 0.21200275
-0.25874072 0.314152 0.21550475
-0.27086037 -0.314152 0.2295416
0.10733827 -0.314152 0.2265453
0.22514457 -0.314152 0.22251555
0.26364401 -0.27392399 0.22415471
0.26364401 -0.26789078 0.22186671
0.26364401 -0.15641144 0.22149193
0.26364401 0.079790562 0.22610183
-0.018222217 0.200232 0.22289319
0.044895217 0.200232 0.22825941
0.068684608 0.200232 0.22600272
0.1284021 0.200232 0.22833386
-0.29569399 0.27881974 0.22393766
-0.27319893 -0.314152 0.2368523
0.025376901 -0.314152 0.23886576
0.043383263 -0.314152 0.23909804
-0.29569399 -0.26287824 0.23510966
0.26364401 -0.26783791 0.23070389
-0.29569399 -0.17857014 0.23023453
0.26364401 -0.17646268 0.23588791
-0.29569399 -0.060023479 0.23511764
-0.29569399 0.015763551 0.2382367
-0.29569399 0.11161605 0.23242515
0.12345399 0.200232 0.23948461
0.16878639 0.200232 0.23303136
0.24123324 0.200232 0.23243317
-0.076905623 0.2431228 0.23460416
-0.25440609 0.314152 0.23124936
-0.24325605 -0.314152 0.24888238
0.19607188 -0.314152 0.24585606
0.26364401 -0.2119416 0.2474356
0.26364401 -0.092770718 0.24416271
-0.29569399 0.087259367 0.24808297
-0.29569399 0.10241793 0.24840201
0.26364401 0.14012884 0.24619316
-0.011749621 0.200232 0.24432456
0.2446848 0.200232 0.24837759
-0.068491645 0.21811017 0.24052818
-0.29131544 0.314152 0.24931227
-0.15921673 0.314152 0.24113129
-0.2452701 -0.314152 0.25116882
-0.053592101 -0.314152 0.25072899
0.038446531 -0.314152 0.25036338
-0.22175783 -0.30437949 0.25273201
-0.073219307 -0.30535311 0.25273201
-0.055260524 -0.30300373 0.25273201
-0.10421565 -0.2953766 0.25273201
-0.24086325 -0.28043488 0.25273201
-0.19875729 -0.28273919 0.25273201
-0.1357671 -0.28611267 0.25273201
0.0092824819 -0.28882822 0.25273201
0.16983604 -0.28665224 0.25273201
0.2186632 -0.28012159 0.25273201
-0.13939784 -0.27332869 0.25273201
-0.088006675 -0.27315623 0.25273201
0.092193604 -0.27928507 0.25273201
0.23401399 -0.27194363 0.25273201
-0.23268156 -0.26507899 0.25273201
-0.22943045 -0.26970664 0.25273201
-0.21741408 -0.26380175 0.25273201
0.049058601 -0.26749411 0.25273201
0.11059721 -0.2668156 0.25273201
0.16253978 -0.26562008 0.25273198
-0.29464236 -0.25094804 0.25273201
-0.1383227 -0.25856051 0.25273201
-0.11536331 -0.25390819 0.25273201
0.25388628 -0.25709277 0.25273201
-0.19284883 -0.24887519 0.25273201
-0.18122031 -0.24515606 0.25273201
0.07612364 -0.24075601 0.25273201
0.14163215 -0.24036215 0.25273201
0.1560093 -0.24394768 0.25273201
-0.23362489 -0.23652972 0.25273201
-0.015562426 -0.23481084 0.25273201
0.21640085 -0.22362062 0.25273201
-0.20958979 -0.21256739 0.25273201
0.20909084 -0.21680379 0.25273201
0.22550134 -0.21441728 0.25273201
0.23237616 -0.21643184 0.25273198
-0.28359669 -0.20348145 0.25273201
-0.2608307 -0.20126539 0.25273201
-0.24933895 -0.20494586 0.25273201
-0.25240362 -0.1943087 0.25273204
-0.2076281 -0.19771585 0.25273201
-0.00085366517 -0.19145432 0.25273201
-0.27785772 -0.18316263 0.25273201
-0.099177368 -0.18919691 0.25273201
-0.0052441731 -0.18039069 0.25273201
0.10025264 -0.18326579 0.25273201
0.13814998 -0.18241411 0.25273201
0.16386902 -0.18693911 0.25273201
-0.19119194 -0.17290658 0.25273201
-0.098049328 -0.16146657 0.25273201
-0.0059304014 -0.16171207 0.25273201
0.10361876 -0.1633139 0.25273201
0.13462836 -0.16744475 0.25273201
0.18216792 -0.16232504 0.25273201
0.2062611 -0.16413175 0.25273201
0.24850211 -0.15680423 0.25273201
-0.29283217 -0.14566153 0.25273201
-0.22372197 -0.14989227 0.25273201
-0.041879348 -0.14453934 0.25273201
0.029659297 -0.14146638 0.25273201
0.13251592 -0.14221285 0.25273201
0.040988207 -0.13263534 0.25273201
-0.19459543 -0.12209493 0.25273201
0.18382047 -0.12855932 0.25273201
0.24571726 -0.12709154 0.25273201
-0.29452956 -0.11355697 0.25273201
-0.16079699 -0.1164512 0.25273201
-0.13148192 -0.11240141 0.25273201
-0.06330283 -0.11133456 0.25273201
-0.026109643 -0.11680672 0.25273201
-0.23229729 -0.107672 0.25273201
0.15206322 -0.10892799 0.25273201
-0.11136512 -0.098204628 0.25273201
-0.078833319 -0.099146187 0.25273201
0.025505656 -0.092868656 0.25273201
0.16205919 -0.09590821 0.25273201
0.24535346 -0.099808887 0.25273201
-0.20477439 -0.084609613 0.25273201
-0.0074869245 -0.083373033 0.25273201
-0.23499317 -0.075373463 0.25273201
-0.20227051 -0.072192468 0.25273201
-0.19408803 -0.070722051 0.25273201
-0.05231487 -0.071456969 0.25273201
0.029202752 -0.073108368 0.25273201
0.25312468 -0.072699875 0.25273201
-0.23126325 -0.067799114 0.25273201
-0.0041125533 -0.058760554 0.25273201
0.0072075073 -0.056677118 0.25273201
-0.29569399 -0.041077498 0.25148872
-0.26515895 -0.040812574 0.25273201
-0.091012955 -0.046226941 0.25273201
-0.060145646 -0.042560123 0.25273201
0.014092954 -0.044139482 0.25273201
0.082047552 -0.0419636 0.25273201
0.12375624 -0.046414688 0.25273201
0.24257612 -0.043225124 0.25273201
-0.26435646 -0.036208972 0.25273201
-0.23934984 -0.027222067 0.25273201
-0.18550882 -0.026577706 0.25273201
-0.017742209 -0.029694103 0.25273201
0.21154 -0.024811 0.25273201
0.22973722 -0.021067776 0.25273201
-0.23007393 -0.011320144 0.25273201
-0.12364056 -0.015558347 0.25273201
-0.099714987 -0.010752462 0.25273201
-0.077164203 -0.012165256 0.25273201
0.048138507 -0.013751903 0.25273201
-0.27703935 -0.00067387521 0.25273201
-0.22251156 -0.0089873746 0.25273201
0.010818347 -0.0049528256 0.25273201
0.16624634 -0.002543062 0.25273201
-0.15254664 0.0088903308 0.25273201
0.22015335 0.0098988786 0.25273201
-0.13648392 0.017758973 0.25273201
0.032474242 0.010300636 0.25273201
0.16497175 0.011087101 0.25273201
0.21154374 0.013614573 0.25273201
0.22900745 0.015790693 0.25273201
-0.1884896 0.027075522 0.25273201
-0.090995729 0.022520453 0.25273201
-0.062474057 0.026461642 0.25273201
0.15034114 0.028902765 0.25273201
0.18345615 0.029519867 0.25273201
0.24577761 0.027945906 0.25273201
0.26328841 0.024557874 0.25273201
-0.081932463 0.03960114 0.25273201
0.066247329 0.037634972 0.25273201
0.1610287 0.03462328 0.25273201
-0.20558605 0.043729398 0.25273201
-0.19628608 0.045054235 0.25273201
0.047883309 0.042611483 0.25273201
0.20869216 0.043686055 0.25273201
-0.275601 0.053598598 0.25273201
-0.15803829 0.067420132 0.25273201
0.0096278414 0.065400712 0.25273201
0.060546048 0.061379842 0.25273201
0.21123452 0.077384256 0.25273201
-0.017088519 0.087136045 0.25273201
-0.1108254 0.091569938 0.25273201
-0.095210016 0.094356604 0.25273201
-0.069252059 0.090827696 0.25273201
0.16506508 0.09277603 0.25273201
0.0717998 0.10405678 0.25273201
-0.088505849 0.11720017 0.25273201
-0.037852734 0.1148993 0.25273201
0.0086249337 0.11980359 0.25273201
0.12426767 0.11919522 0.25273201
0.13464031 0.11549332 0.25273201
-0.2572192 0.12843621 0.25273201
-0.10535009 0.12883259 0.25273201
0.016524564 0.1334286 0.25273201
-0.27338743 0.14695895 0.25273201
-0.28252801 0.15772443 0.25273201
-0.20962897 0.15225908 0.25273201
-0.011753159 0.15907414 0.25273201
0.046565346 0.15206912 0.25273201
0.22958286 0.15954652 0.25273201
0.25460526 0.15961996 0.25273201
-0.24940807 0.16477242 0.25273201
0.069201827 0.16480762 0.25273201
0.10687168 0.16384481 0.25273201
0.15303555 0.16786249 0.25273201
0.2008822 0.16521117 0.25273201
-0.27624223 0.17164338 0.25273201
-0.21472661 0.17140576 0.25273201
-0.17404099 0.17363086 0.25273201
-0.07525029 0.17292386 0.25273201
-0.17616265 0.1852752 0.25273201
-0.1437268 0.18724522 0.25273201
0.027832655 0.18448147 0.25273201
0.14814351 0.1895887 0.25273201
0.24637857 0.18226016 0.25273201
-0.29113334 0.19520165 0.25273201
-0.084135234 0.19686036 0.25273201
0.069447875 0.19050153 0.25273201
-0.29480875 0.20251468 0.25273201
-0.25403762 0.20059916 0.25273201
-0.088135198 0.20937708 0.25273201
0.14462467 0.200232 0.25263944
-0.17183201 0.22490162 0.25273201
-0.099623561 0.22949173 0.25273201
-0.2926659 0.23193182 0.25273201
-0.27497807 0.23705325 0.25273201
-0.26956707 0.23798293 0.25273201
-0.28417876 0.24186967 0.25273201
-0.1412286 0.24567664 0.25273201
-0.098528847 0.24092798 0.25273201
-0.15568678 0.25808507 0.25273201
-0.1499097 0.25658232 0.25273201
-0.13669175 0.25473002 0.25273201
-0.10163991 0.25230217 0.25273201
-0.23629759 0.26664919 0.25273201
-0.13619414 0.26774576 0.25273201
-0.18085074 0.27148235 0.25273201
-0.15666775 0.282121 0.25273201
-0.23040231 0.31054011 0.25273201
