# .PCD v0.7 - Point Cloud Data file format
VERSION 0.7
FIELDS x y z
SIZE 4 4 4
TYPE F F F
COUNT 1 1 1
WIDTH 983
HEIGHT 1
VIEWPOINT 0 0 0 1 0 0 0
POINTS 983
DATA ascii
-0.040874749 -0.28697401 -0.28038174
0.28093815 -0.28404886 -0.28154901
0.12258576 -0.27705109 -0.28154901
-0.16480926 -0.26859835 -0.28154901
0.20213518 -0.26131254 -0.28154901
-0.1732575 -0.25513083 -0.28154901
-0.12770322 -0.25936541 -0.28154898
0.1976659 -0.25696355 -0.28154901
-0.068094425 -0.24358846 -0.28154904
0.027748056 -0.24456605 -0.28154901
0.075039528 -0.24944885 -0.28154901
0.15950501 -0.23778407 -0.28154901
0.018625952 -0.22148643 -0.28154901
0.09996663 -0.22281736 -0.28154901
0.183807 -0.22946332 -0.28154901
0.26091668 -0.22172943 -0.28154901
-0.17196876 -0.21602979 -0.28154901
-0.086802579 -0.21682811 -0.28154898
0.11559577 -0.21242006 -0.28154901
0.12239481 -0.21271896 -0.28154901
0.16972591 -0.21624415 -0.28154901
-0.27732122 -0.20210506 -0.28154901
-0.11834654 -0.20329253 -0.28154901
-0.09992069 -0.20446707 -0.28154901
-0.027514085 -0.19810897 -0.28154901
-0.20221084 -0.18403664 -0.28154901
-0.17787781 -0.1751533 -0.28154901
-0.044935942 -0.17130452 -0.28154901
0.14629492 -0.17636339 -0.28154901
-0.21359496 -0.16915274 -0.28154901
-0.011002153 -0.15085426 -0.28154901
0.092966191 -0.15258776 -0.28154901
-0.28933194 -0.14757285 -0.28154901
0.19315447 -0.14784667 -0.28154901
-0.14954503 -0.13444847 -0.28154901
-0.0047834441 -0.1318104 -0.28154901
0.084100075 -0.13908264 -0.28154901
-0.13058527 -0.12166364 -0.28154901
-0.027431421 -0.12837632 -0.28154901
0.04972456 -0.12611593 -0.28154901
0.06980405 -0.12144993 -0.28154901
0.23604032 -0.12079869 -0.28154901
0.27830881 -0.12554248 -0.28154901
0.014940925 -0.11645096 -0.28154901
0.19886017 -0.11739471 -0.28154901
-0.14858621 -0.10002985 -0.28154901
0.065867953 -0.10611629 -0.28154901
-0.21479926 -0.095432289 -0.28154898
-0.15428929 -0.098312683 -0.28154901
-0.053422146 -0.098354183 -0.28154901
0.19067763 -0.098163642 -0.28154901
-0.17450413 -0.083976239 -0.28154901
-0.057612665 -0.085326597 -0.28154901
0.22506446 -0.081196845 -0.28154901
0.26983699 -0.086072251 -0.28154904
-0.2453137 -0.06590455 -0.28154901
-0.20926988 -0.06263189 -0.28154901
0.21273552 -0.066172533 -0.28154901
-0.26521248 -0.053097013 -0.28154901
-0.20407709 -0.042436801 -0.28154901
-0.11651848 -0.044205315 -0.28154901
-0.11010984 -0.03909494 -0.28154901
0.042048462 -0.039551124 -0.28154901
0.18794535 -0.034944214 -0.28154901
0.24765936 -0.035994276 -0.28154901
-0.17687565 -0.024469957 -0.28154901
-0.15056716 -0.02917644 -0.28154901
0.057501469 -0.012226798 -0.28154901
0.19067591 -0.00067484006 -0.28154901
0.22684917 -0.0039875582 -0.28154901
0.28547564 -0.0079897717 -0.28154901
-0.14890665 0.0067366902 -0.28154901
-0.094653532 0.003801398 -0.28154901
0.023364903 0.008716803 -0.28154901
0.051265039 0.012899743 -0.28154901
0.28479558 0.017179206 -0.28154901
-0.11669876 0.022548907 -0.28154901
0.26613566 0.025231637 -0.28154901
-0.020737134 0.032840811 -0.28154904
-0.0021365657 0.036397532 -0.28154904
0.079574905 0.039644912 -0.28154901
0.13174683 0.032698072 -0.28154901
0.29234216 0.031446412 -0.28154901
-0.096115053 0.048307955 -0.28154901
0.14048964 0.041690797 -0.28154901
-0.21912028 0.05390583 -0.28154901
-0.18022735 0.051515557 -0.28154901
0.17550734 0.053413831 -0.28154901
0.056598973 0.064546935 -0.28154901
-0.093787216 0.079653844 -0.28154901
-0.0051054768 0.077271394 -0.28154901
0.15173712 0.077782758 -0.28154901
0.14940692 0.08923512 -0.28154901
-0.14716119 0.099909365 -0.28154901
-0.2563678 0.10636404 -0.28154901
0.07223691 0.10599898 -0.28154901
-0.27768126 0.11125192 -0.28154901
-0.19670157 0.11967748 -0.28154901
-0.016195111 0.11903565 -0.28154901
0.005967184 0.11443891 -0.28154901
0.12803312 0.11992273 -0.28154901
-0.19134274 0.12229268 -0.28154901
-0.12758663 0.12716387 -0.28154901
0.081660047 0.12274505 -0.28154901
-0.25902745 0.13356736 -0.28154901
-0.011294943 0.13147275 -0.28154901
0.21967003 0.13077688 -0.28154901
0.23725779 0.13161588 -0.28154901
-0.24450718 0.14670706 -0.28154901
-0.15207119 0.18380415 -0.28154904
-0.16520302 0.19315171 -0.28154901
-0.14543936 0.20753084 -0.28154901
-0.297281 0.21836352 -0.28015703
-0.20552012 0.21369281 -0.28154901
-0.16347219 0.21946238 -0.28154901
-0.18022409 0.23800877 -0.28154904
-0.18388039 0.2667793 -0.28154901
-0.17830336 0.27175635 -0.28154901
0.2109036 -0.28697401 -0.2701346
-0.297281 -0.16912548 -0.27053732
0.297281 -0.065377787 -0.27654022
-0.29728103 -0.049662337 -0.27543136
-0.297281 0.10607897 -0.27873755
-0.297281 0.1853897 -0.27941158
-0.297281 0.21321805 -0.27423769
-0.297281 0.23135675 -0.27900988
-0.16156985 0.28697401 -0.27793291
0.036621764 -0.28697401 -0.26389444
0.060860701 -0.28697401 -0.26923934
-0.297281 -0.24919142 -0.26396284
-0.297281 -0.23775238 -0.26108479
-0.297281 0.021850705 -0.26729104
0.1001976 0.145386 -0.2638849
-0.1130019 0.26470596 -0.26173085
-0.2737698 0.28697401 -0.26664183
-0.25823647 0.28697401 -0.26497856
0.079637103 -0.28697401 -0.25230762
0.18290432 -0.28697401 -0.25310352
0.297281 -0.2771098 -0.25655258
-0.297281 -0.074896015 -0.25141305
0.29728103 -0.010999784 -0.25190663
-0.048570532 0.145386 -0.25917023
0.14973734 0.145386 -0.25513658
-0.13437691 0.27068684 -0.25790802
-0.12541784 0.27676415 -0.2509793
-0.23128077 0.28697401 -0.25854167
-0.2158597 0.28697401 -0.25578529
-0.20415387 0.28697401 -0.2592757
-0.16466022 -0.28697401 -0.24546561
-0.12846817 -0.28697401 -0.24172506
-0.024195865 -0.28697401 -0.24414691
0.11661332 -0.28697401 -0.24725494
0.29728097 -0.27837527 -0.24376044
0.29728103 -0.16585796 -0.24854355
-0.297281 -0.11755261 -0.24975994
-0.297281 0.079465307 -0.24390599
0.297281 0.096442595 -0.24988355
0.297281 0.10000499 -0.24298063
-0.13575691 0.145386 -0.24994308
0.14918169 0.145386 -0.24568641
-0.12954044 0.22662559 -0.24277695
-0.24329948 0.28697401 -0.2430456
-0.21180588 -0.28697401 -0.23893462
-0.18104911 -0.28697401 -0.23519354
-0.032823548 -0.28697401 -0.23900506
0.17976372 -0.28697401 -0.23291329
0.22654381 -0.28697401 -0.23795471
0.297281 -0.27587339 -0.2384018
-0.29728103 -0.17480688 -0.23153067
0.29728097 -0.1227084 -0.23666063
-0.297281 -0.11760281 -0.23458296
-0.297281 -0.0084783584 -0.23303473
-0.297281 0.03820084 -0.23650765
0.22032931 0.145386 -0.23375063
-0.29728103 0.20325328 -0.23848356
0.025668383 -0.28697401 -0.22739093
0.297281 -0.242036 -0.22447599
-0.29728103 -0.089302078 -0.22769015
0.297281 0.0041425377 -0.22807758
0.297281 0.018125225 -0.22375205
-0.297281 0.19125763 -0.22206964
-0.28971142 0.28697401 -0.22180933
-0.13213453 -0.28697401 -0.21790576
0.23297019 -0.28697401 -0.21499343
-0.297281 -0.26700038 -0.21841371
-0.29728103 -0.16475408 -0.21846591
-0.297281 -0.12937281 -0.21168385
-0.297281 0.021378309 -0.2187603
0.297281 0.045710742 -0.21911551
-0.143975 0.14973727 -0.21145953
-0.12708011 0.145386 -0.21101518
0.016808942 0.145386 -0.21524003
-0.297281 0.156225 -0.21890287
0.297281 -0.25766504 -0.203438
0.297281 -0.21362481 -0.20038646
0.297281 -0.078073598 -0.20396888
0.297281 -0.060694512 -0.20856908
-0.297281 -0.019093186 -0.20588496
-0.297281 0.00036758184 -0.20604733
0.297281 0.12719816 -0.20274286
-0.20944649 0.28697401 -0.20002815
-0.072383523 -0.28697401 -0.19436711
-0.041780636 -0.28697401 -0.19157156
0.085621864 -0.10955299 -0.19225615
0.062947221 -0.098781861 -0.19325294
-0.297281 -0.046547972 -0.19315842
0.297281 0.005032368 -0.19682573
0.094391644 0.025478611 -0.19113205
0.082508221 0.052117009 -0.19265527
0.297281 0.058247592 -0.19322976
0.087892726 0.081877396 -0.19196509
0.082755812 0.10495164 -0.19262354
0.051855568 0.12976834 -0.19175407
-0.061340205 0.145386 -0.19268978
0.12499761 0.145386 -0.19864063
0.26924425 0.145386 -0.19202325
-0.143975 0.241164 -0.19602928
-0.297281 0.25409588 -0.19737203
-0.26989797 0.28697401 -0.19801709
-0.20422103 -0.28697401 -0.18958567
-0.11095057 -0.28697401 -0.18228018
-0.297281 -0.26157197 -0.18696603
0.29728097 -0.20117305 -0.18789378
-0.29728097 -0.1304199 -0.18701485
0.034153581 -0.12947725 -0.18936191
0.03085833 -0.10630234 -0.18891661
0.13650812 -0.064642057 -0.18176934
0.11338989 -0.0569828 -0.18869683
0.012736158 -0.042912122 -0.18497963
0.0079546999 -0.024519565 -0.18297996
0.12330403 -0.0058083329 -0.18718629
0.0050891973 0.0071729086 -0.18178156
0.033733744 0.014802504 -0.18930517
0.1033172 0.012101725 -0.18998796
0.297281 0.085758068 -0.18639477
-0.297281 0.090572424 -0.18375815
0.29728103 0.096859053 -0.18396066
-0.297281 0.11271593 -0.18424547
-0.1416875 0.25478292 -0.18267034
-0.20059852 -0.28697401 -0.17863867
0.092340447 -0.28697401 -0.1783316
0.1950749 -0.28697401 -0.17209184
0.034774866 -0.143758 -0.17100081
-0.297281 -0.13701223 -0.17044504
0.14786519 -0.11882749 -0.17711015
0.14743963 -0.075208999 -0.17728473
-0.0048117936 -0.03834996 -0.17764083
0.00024638273 -0.038233764 -0.17975621
-0.297281 0.080656737 -0.17607887
0.297281 0.12075592 -0.17801246
-0.0076253908 0.13113156 -0.17646414
-0.12757993 0.145386 -0.17683591
-0.085607335 0.145386 -0.17304122
0.28103405 0.145386 -0.17145345
-0.297281 0.26471993 -0.1770249
-0.18593946 -0.28697401 -0.1657716
-0.083584517 -0.28697401 -0.16804224
0.297281 -0.23675926 -0.16220745
0.1702095 -0.091407515 -0.16794349
-0.029094908 -0.024592735 -0.16748525
0.17121795 -0.0056479946 -0.16752099
-0.297281 0.012849003 -0.16032493
-0.025317438 0.12551627 -0.16906506
0.1021079 0.145386 -0.16471024
0.23702979 0.145386 -0.16400246
-0.12875772 0.27898309 -0.16644546
-0.29728103 0.28061152 -0.16962534
-0.2668547 0.28697401 -0.16793519
0.06107815 -0.28697401 -0.15480453
-0.00074565038 -0.143758 -0.15447928
-0.04472113 -0.070769005 -0.15594709
0.19101137 -0.020783925 -0.15244024
0.1887334 0.058193699 -0.15417582
0.297281 0.059272368 -0.1538316
-0.297281 0.068619139 -0.15708911
-0.04280591 0.08532396 -0.15742706
0.18923134 0.13240293 -0.15379643
-0.052676044 0.145386 -0.15465908
0.11675119 0.145386 -0.15505622
0.20751189 0.145386 -0.15723541
-0.28352463 0.28697401 -0.15347192
-0.20178907 -0.28697401 -0.1451107
-0.11966093 -0.28697401 -0.1498803
-0.071823135 -0.28697401 -0.14409852
-0.069173463 -0.28697401 -0.14079744
0.25725687 -0.28697401 -0.14165571
0.028224986 -0.143758 -0.14058104
0.052205198 -0.143758 -0.14444639
0.10413046 -0.143758 -0.14870046
0.297281 -0.083309628 -0.14645885
-0.055557005 -0.063282326 -0.14757378
0.297281 -0.052604891 -0.14906093
-0.297281 0.00027456135 -0.14550677
-0.06298314 0.057500113 -0.14183532
-0.053843737 0.075231075 -0.14889769
-0.064402491 0.13090962 -0.14073853
-0.10901291 0.145386 -0.14149885
-0.057483792 0.145386 -0.14768267
0.026391435 0.145386 -0.14477028
-0.18151954 -0.28697401 -0.13033539
-0.17556152 -0.28697401 -0.13373315
-0.15029123 -0.28697401 -0.13950394
0.14558463 -0.28697401 -0.13191913
-0.29728097 -0.26503518 -0.13554755
0.14908321 -0.143758 -0.13536796
0.21130946 -0.09772639 -0.13697493
0.297281 -0.072594166 -0.13878787
-0.297281 -0.041767146 -0.13498767
0.20889935 0.055815499 -0.13881123
0.297281 0.10209075 -0.13924634
-0.14245021 0.145386 -0.13207632
-0.143975 0.20594904 -0.13067448
-0.27198941 0.28697401 -0.13195044
-0.26462874 0.28697401 -0.13537851
-0.18382594 0.28697401 -0.13550615
0.11252715 -0.28697401 -0.12531219
0.079882808 -0.143758 -0.12331405
-0.081257604 -0.12733334 -0.12287606
0.297281 0.070467144 -0.12311985
0.297281 0.12181783 -0.12054704
-0.1321387 0.145386 -0.12711574
0.28429455 0.145386 -0.12108685
-0.297281 0.19174844 -0.12598184
-0.297281 0.22608849 -0.12847847
-0.13942504 0.25976372 -0.12612644
-0.297281 0.27046466 -0.12773316
-0.28593221 0.28697401 -0.12974709
-0.13708858 -0.28697401 -0.11460894
0.098094538 -0.143758 -0.1121161
-0.297281 -0.10122726 -0.11119276
-0.088853478 -0.0080888197 -0.11290649
0.2314546 -0.009094147 -0.11185778
-0.087893337 0.10796148 -0.11416666
0.27072728 0.145386 -0.11699905
-0.143975 0.18193124 -0.11814247
-0.17224437 0.28697401 -0.11890625
-0.095506206 -0.28697401 -0.1021033
0.297281 -0.22289628 -0.103556
0.059967607 -0.143758 -0.10637119
0.23551831 -0.062430296 -0.10659924
0.297281 -0.01135666 -0.10003242
-0.297281 0.024445198 -0.10485096
0.297281 0.056630336 -0.10000609
-0.12250099 0.145386 -0.10087386
-0.092365861 0.14009455 -0.10829647
-0.143975 0.21494484 -0.10551921
-0.297281 0.23349483 -0.10109573
-0.23401003 0.28697401 -0.10684112
-0.17218044 0.28697401 -0.10196128
-0.29004025 -0.28697401 -0.096756287
-0.10297123 -0.28697401 -0.098950289
0.054373473 -0.28697401 -0.096104234
0.14702426 -0.28697401 -0.090921402
0.20207772 -0.28697401 -0.096897565
-0.297281 -0.26292956 -0.091404386
-0.043643221 -0.143758 -0.098415717
-0.10442408 -0.05187213 -0.092242703
-0.29728097 -0.041909613 -0.09680815
0.297281 -0.0040200809 -0.091788895
-0.09897691 0.064514637 -0.099619478
0.10167775 0.145386 -0.097953655
0.044889461 -0.28697401 -0.080925047
0.22085416 -0.28697401 -0.085606605
0.297281 -0.28627738 -0.088142946
-0.07342805 -0.143758 -0.08053375
-0.10773289 -0.13017827 -0.084177136
-0.10547661 -0.095791936 -0.089677028
-0.10845779 -0.066873595 -0.082410112
-0.297281 0.0065556727 -0.086054318
-0.10580875 0.0095876008 -0.088867426
-0.297281 0.020513147 -0.0860333
0.297281 0.063855372 -0.08160612
0.297281 0.12960455 -0.088783473
-0.13486196 0.145386 -0.08492177
0.030764613 0.145386 -0.087972976
0.057607777 0.145386 -0.083971635
0.19081151 0.145386 -0.083024137
-0.041541927 -0.28697401 -0.079176709
0.25234374 -0.08426585 -0.07711114
-0.297281 -0.072677873 -0.070874169
-0.297281 -0.050447308 -0.076439768
0.25384641 -0.021963803 -0.07351806
0.297281 -0.014724165 -0.078203529
0.297281 0.019305354 -0.072465584
-0.297281 0.034316652 -0.073746085
0.25222632 0.037798751 -0.077391848
-0.11312534 0.087579519 -0.071032435
0.25190926 0.081847548 -0.078150012
-0.297281 0.12512442 -0.075570032
0.25293326 0.12308902 -0.075701527
-0.12354042 0.145386 -0.079003431
-0.08086437 0.145386 -0.075878359
-0.143975 0.25073248 -0.077121735
-0.23804808 0.28697401 -0.078638509
-0.069101378 -0.28697401 -0.066933423
0.11818121 -0.143758 -0.067580052
0.25662819 -0.13280745 -0.06686651
-0.11494885 0.093415253 -0.066587433
-0.11629481 0.12441114 -0.06330651
-0.12123678 0.145386 -0.062678017
0.019017642 0.145386 -0.068212815
-0.13345847 0.193725 -0.063184358
0.19077229 -0.28697401 -0.050288737
0.26258034 -0.14373012 -0.05263428
-0.297281 -0.01617568 -0.051311031
-0.12074448 -0.0079490691 -0.052459948
0.297281 0.007961452 -0.057098635
-0.297281 0.010897905 -0.050096512
-0.043372013 0.145386 -0.054166704
0.011772104 0.145386 -0.054128639
-0.21370354 -0.28697401 -0.040493146
0.10994894 -0.143758 -0.043109968
0.147405 -0.143758 -0.041274343
-0.12329292 -0.080608681 -0.046247847
0.297281 0.028177895 -0.049247131
-0.297281 0.085513733 -0.041529864
0.297281 0.13622709 -0.047595635
-0.12419126 0.145386 -0.044133462
-0.143975 0.18799838 -0.045619167
-0.12592317 0.19372499 -0.047585592
-0.15579672 0.28697401 -0.044053122
0.097964548 -0.28697401 -0.032679886
0.12343697 -0.28697401 -0.037931286
0.13599402 -0.143758 -0.030876495
0.15219098 -0.143758 -0.038285181
0.16958687 -0.143758 -0.035994813
0.24968834 -0.143758 -0.036245637
-0.297281 -0.038935523 -0.036814433
0.26648459 -0.021581717 -0.03905233
-0.12527698 -0.010353986 -0.035725851
-0.12542018 0.13782676 -0.034608841
-0.14210354 0.145386 -0.032477982
0.21937449 0.145386 -0.030773338
0.28332362 0.145386 -0.032366209
-0.297281 0.19559979 -0.031053917
-0.29728103 0.26931906 -0.036222689
-0.071739271 -0.28697401 -0.028285321
-0.05594454 -0.28697401 -0.022724018
0.12669924 -0.28697401 -0.028212398
-0.297281 -0.27943665 -0.020383941
-0.12602231 -0.14116091 -0.029911269
-0.035321344 -0.143758 -0.029867638
0.297281 -0.12614475 -0.025818452
0.297281 -0.10916617 -0.021690264
-0.297281 -0.099727698 -0.029450551
0.096315116 -0.099438503 -0.024331
0.082348712 -0.075799607 -0.028154796
-0.297281 0.048455656 -0.028837293
0.06137304 0.091788217 -0.023588045
0.15344217 0.145386 -0.026005572
-0.297281 0.19126184 -0.022705376
0.093645014 -0.28697401 -0.017661482
0.11609133 -0.28697401 -0.016342323
0.19807768 -0.28697401 -0.012441576
-0.297281 -0.19998583 -0.014233489
0.297281 -0.16153532 -0.013897248
-0.11078952 -0.143758 -0.016887566
-0.086145818 -0.143758 -0.017932333
-0.049956977 -0.143758 -0.012220414
-0.011017952 -0.143758 -0.012708852
-0.12786466 -0.13416848 -0.015538242
-0.12803042 -0.12523435 -0.014245147
-0.297281 -0.10316995 -0.011146091
0.11114367 -0.082891911 -0.010761373
-0.297281 -0.075049214 -0.019456051
0.26989919 -0.079454884 -0.013780979
0.047788255 -0.04707532 -0.010039342
0.27018696 -0.0092646331 -0.011651002
-0.297281 0.024887815 -0.015508316
0.111679 0.02538304 -0.010063608
0.22356008 0.14538598 -0.013413602
-0.11344957 0.19616324 -0.014592006
-0.25414532 0.28697401 -0.018581767
-0.143975 0.28557581 -0.01332511
0.12600274 -0.28697401 -0.0019882247
0.18838716 -0.28697401 -0.0063048303
-0.074054077 -0.143758 -0.00020793942
-0.065766372 -0.143758 -7.1038492e-05
0.031395599 -0.143758 -0.0071246526
0.297281 -0.14514165 -0.00041014329
0.11551654 -0.1139535 -6.6303437e-05
0.11311422 -0.087408438 -0.0066084065
-0.12949163 0.012116872 -0.0028455877
0.046327963 0.014541198 -0.006513847
0.27121636 0.08655078 -0.0040323325
-0.143975 0.16462833 -0.0027781576
-0.111426 0.19523652 -0.0037876256
-0.297281 0.26384282 -0.0066137873
-0.23039627 -0.28697401 0.0036651865
-0.22843391 -0.28697401 0.0094310865
-0.059425205 -0.28697401 0.0010976493
0.0586707 -0.28697401 0.0028417818
0.15951589 -0.28697401 0.00055044889
0.11660426 -0.06402839 0.0085865483
0.27229196 0.0069555752 0.0039283251
0.27231508 0.043133195 0.0040993365
-0.297281 0.071584694 0.0070579052
0.297281 0.116585 0.0085954592
0.052296661 0.145386 0.0075068818
0.27520442 0.14538598 0.00054819928
-0.111426 0.20735648 0.0063623488
-0.14199097 0.25122899 0.0083944649
-0.05092641 -0.28697401 0.012276947
0.25571957 -0.28697401 0.019409359
-0.297281 -0.27051479 0.014127582
0.297281 -0.26538298 0.017123222
-0.297281 -0.16864005 0.014423314
0.26542142 -0.143758 0.014191537
0.297281 -0.1332375 0.012976266
-0.12955892 -0.091253191 0.018293744
-0.13005248 -0.068725057 0.01464142
0.297281 -0.069280565 0.01199251
-0.297281 0.086496338 0.012180634
0.11605308 0.08269196 0.012772773
0.0018666387 0.145386 0.014025409
0.26682663 0.145386 0.018460903
-0.29173833 0.28697401 0.017871901
-0.20000379 0.28697401 0.011040725
-0.22616476 -0.28697401 0.027413629
-0.031855494 -0.28697401 0.025797606
0.29728103 -0.25578523 0.02258159
-0.297281 -0.21825409 0.020262642
0.297281 -0.16187428 0.027750134
-0.0022820905 -0.143758 0.020618087
-0.297281 -0.13383877 0.026637625
0.050061356 -0.12526911 0.029790075
0.11003615 -0.099927537 0.028986838
0.27032754 -0.079462379 0.025319828
0.297281 -0.071031779 0.023388665
0.27043575 -0.030204624 0.024476042
0.11021716 0.0078203753 0.028750917
0.297281 0.056002893 0.028038301
-0.13774577 0.145386 0.02376995
-0.037826031 0.145386 0.023831857
0.09630318 0.14538601 0.02713185
-0.27720863 0.28697401 0.023209408
-0.23586859 0.28697401 0.023801409
-0.28484076 -0.28697401 0.038309671
0.048720665 -0.28697401 0.035490423
0.08390151 -0.28697401 0.031161278
0.26165831 -0.28697401 0.036750048
-0.074605808 -0.143758 0.032401741
-0.031818993 -0.143758 0.034630429
0.12763131 -0.143758 0.031748012
0.297281 -0.12656653 0.036705937
0.26891983 -0.066287406 0.036302075
-0.297281 0.0015102923 0.032729477
0.10409405 0.012308547 0.03580356
-0.12693679 0.074562661 0.037697524
-0.12710634 0.10437927 0.036442839
0.061801881 0.145386 0.037515178
-0.143975 0.2778793 0.039613176
-0.23751453 0.28697401 0.036026046
-0.2090897 -0.28697401 0.042968653
-0.18262708 -0.28697401 0.041944712
0.0244582 -0.28697401 0.044496953
0.297281 -0.1831052 0.049004421
-0.12182429 -0.143758 0.044769976
-0.10689474 -0.143758 0.042778045
-0.030759392 -0.143758 0.041795012
-0.12538062 -0.1011984 0.049213193
-0.12554958 -0.080806866 0.047962762
0.076818362 -0.047963314 0.044894848
0.079368576 0.033585835 0.045230519
-0.297281 0.0587717 0.047070727
0.098047957 0.073679015 0.040394809
-0.12572882 0.10818729 0.046636473
-0.12629884 0.13920608 0.042418309
0.26910591 0.145386 0.043337002
-0.21698429 0.28697401 0.044823259
-0.18423523 0.28697401 0.043858252
0.030059777 -0.28697401 0.051843792
0.21378611 -0.28697401 0.059225991
-0.297281 -0.25709426 0.054094993
0.297281 -0.22732314 0.051414721
0.10383275 -0.143758 0.056279041
0.12903877 -0.143758 0.054037742
0.26638731 -0.04013209 0.056059524
0.26664588 0.01749143 0.054042228
-0.12507981 0.039543338 0.051439159
-0.12479085 0.088391982 0.053577475
0.26708162 0.094626069 0.050642848
0.26654273 0.10279663 0.054846969
-0.297281 0.12301143 0.05081892
0.063085683 0.145386 0.056361124
0.10795064 0.145386 0.053688925
-0.143975 0.16564684 0.051723141
-0.297281 -0.28171277 0.069513485
0.055758525 -0.28697401 0.063538589
0.078281768 -0.28697401 0.068534911
0.17737141 -0.28697401 0.069986999
0.297281 -0.27151054 0.065339401
0.047145061 -0.143758 0.069167554
0.10405791 -0.143758 0.063129187
0.297281 -0.14609595 0.062702551
0.297281 -0.13199596 0.069797143
-0.12156808 -0.11327257 0.065945879
-0.12315615 0.055872936 0.062148683
-0.12257867 0.14490561 0.063529484
-0.11998957 0.14536834 0.069720261
-0.297281 0.28029156 0.064078458
-0.28576228 -0.28697401 0.076202489
-0.2253354 -0.28697401 0.072188549
-0.13611662 -0.28697401 0.070857301
0.297281 -0.21194491 0.072162122
0.071295038 -0.143758 0.07578779
0.297281 -0.075583927 0.076477483
-0.297281 -0.0098159611 0.075382821
0.066907242 0.145386 0.07629253
0.11180371 0.145386 0.071474701
-0.12047769 0.25122899 0.077464677
-0.027133493 -0.28697401 0.08173766
-0.019504052 -0.28697401 0.086137101
0.05959896 -0.28697401 0.084603734
0.11544186 -0.28697401 0.08299917
0.18633191 -0.28697401 0.087641284
0.297281 -0.26315936 0.085058451
-0.297281 -0.17086315 0.088184655
-0.056649752 -0.143758 0.085780539
0.031543843 -0.143758 0.080078267
0.040936865 -0.143758 0.082975224
0.24439776 -0.143758 0.087123416
-0.11184091 -0.045497853 0.089204431
-0.11412006 -0.037183117 0.083754756
0.297281 0.12640457 0.08636108
-0.297281 0.13513669 0.085373849
0.22644204 0.145386 0.085213661
-0.143975 0.1922816 0.087079436
-0.111426 0.19965127 0.081517644
-0.14252943 0.25122899 0.080650352
-0.24095717 -0.28697401 0.094434917
-0.037428986 -0.28697401 0.091651194
-0.029429823 -0.28697401 0.091709852
0.11961448 -0.28697401 0.09604238
0.20527168 -0.28697401 0.093582973
-0.297281 -0.20699227 0.099052921
0.10115887 -0.143758 0.098155104
0.12452906 -0.143758 0.099058956
0.25001854 -0.10424162 0.098076552
0.297281 -0.10686974 0.090084791
0.29728103 -0.081865199 0.095749944
0.297281 0.11599208 0.094977342
0.27290821 0.145386 0.094502896
-0.143975 0.16599162 0.098167434
-0.13534968 0.193725 0.097305045
-0.031122208 -0.28697401 0.10780809
-0.022430412 -0.28697401 0.10456723
-0.297281 -0.15495689 0.1077646
0.11445089 -0.143758 0.10811461
0.24841528 -0.07009609 0.10198477
-0.10645229 -0.030304007 0.10208914
-0.1055879 0.12262907 0.10415594
0.26426131 0.145386 0.10418013
-0.24996983 0.28697401 0.10282844
-0.21617234 0.28697401 0.10828811
0.17134926 -0.28697401 0.1182709
0.23460852 -0.28697401 0.11824846
-0.297281 -0.25905854 0.1170169
0.297281 -0.17390218 0.11365184
-0.297281 -0.16207631 0.11697229
-0.095255822 -0.1248239 0.11977974
0.24338311 0.043835841 0.1113082
0.24173997 0.1343208 0.11346477
-0.0026578531 0.145386 0.11298129
0.037460674 0.14538598 0.11386015
0.15707627 0.14538601 0.11271494
0.22258483 0.145386 0.11658701
0.28304574 0.145386 0.11763759
-0.12922956 0.193725 0.11385838
-0.17481622 0.28697401 0.11160179
-0.24362138 -0.28697401 0.12590605
0.297281 -0.24797328 0.12974207
0.297281 -0.19646633 0.12164848
-0.297281 -0.0053138994 0.12250791
0.23404329 0.0084363399 0.12356633
0.23392406 0.015232102 0.12372278
-0.14066055 0.14538601 0.12369317
0.11427998 0.145386 0.1200102
-0.143975 0.16959767 0.12031189
-0.29539979 0.28697401 0.1292918
-0.20856091 -0.28697401 0.13906404
0.035513252 -0.28697401 0.1338439
0.26944107 -0.28697401 0.13928017
-0.297281 -0.27448082 0.13316421
-0.297281 -0.20073879 0.13393287
-0.053858466 -0.143758 0.13011742
0.069577321 -0.143758 0.13806722
0.034095466 0.145386 0.13198619
0.10843597 0.145386 0.13211536
-0.27621272 -0.28697401 0.14218679
-0.18411765 -0.28697401 0.14604078
0.297281 -0.27011803 0.14778644
0.297281 -0.26647171 0.14592445
-0.038981151 -0.143758 0.14935724
0.19199139 -0.143758 0.14318208
0.21530306 -0.11314062 0.14816198
-0.297281 -0.078159861 0.1434406
-0.076983735 -0.073658109 0.14342555
0.21479864 -0.070434138 0.14882404
-0.078123331 0.094127618 0.1419508
-0.14123882 0.145386 0.14796242
-0.1077856 0.145386 0.14831798
0.027293123 0.145386 0.14619976
0.24317941 -0.28697401 0.15197772
0.059702624 -0.143758 0.15506053
0.14781561 -0.143758 0.15735286
0.297281 -0.079238117 0.15521139
0.297281 -0.063933596 0.15166607
-0.069255784 -0.053173065 0.15232691
-0.297281 -0.034357987 0.15008737
0.20431626 -0.030854221 0.15731721
0.21052626 -0.020530429 0.15251829
0.20455316 0.07874357 0.15713413
-0.071284294 0.08721526 0.15078136
0.21261473 0.10904745 0.15090437
0.297281 0.12574852 0.15409082
0.13971666 0.145386 0.15463109
0.22760107 0.145386 0.1579915
-0.29702753 0.28697401 0.15442804
-0.24359149 -0.28697401 0.16194218
0.01226281 -0.28697401 0.16329288
0.26802385 -0.28697401 0.16047096
0.29560652 -0.28697401 0.1610104
0.297281 -0.21291868 0.16003798
0.04916919 -0.143758 0.16385111
0.297281 -0.14296505 0.16748449
0.1998945 -0.12280663 0.16073421
-0.049754024 -0.05788216 0.16718559
-0.297281 -0.011239082 0.16517904
0.19456586 0.0097476691 0.16485204
-0.04683708 0.054585189 0.16940805
-0.057500068 0.083258875 0.16128378
-0.054737948 0.096863061 0.16338828
0.016395425 0.145386 0.1664377
0.20447215 0.145386 0.16554873
-0.031384736 -0.28697401 0.17696109
0.27610075 -0.28697401 0.17059438
0.29728103 -0.23232868 0.17016748
-0.297281 -0.17290843 0.17137477
0.297281 -0.16497464 0.17630778
0.004382696 -0.143758 0.17285518
0.16370091 -0.143758 0.17111506
-0.297281 -0.0651884 0.17657202
0.17737961 -0.068608359 0.17813309
0.297281 -0.025007948 0.17928129
0.1862869 -0.006253574 0.17124978
-0.297281 0.0022413582 0.17525363
0.17764959 0.1356294 0.17792445
0.0098127583 0.145386 0.17462884
0.031540122 0.145386 0.17101908
-0.297281 0.26581717 0.17803392
-0.28932875 0.28697401 0.17706801
-0.26820335 0.28697401 0.17437625
-0.27600893 -0.28697401 0.18133877
-0.15276571 -0.28697401 0.1824946
-0.013821738 -0.1253003 0.18907836
0.297281 -0.12799028 0.18221346
-0.017329978 -0.072849967 0.18763921
-0.297281 0.015575238 0.18226728
0.29728103 0.038458545 0.18110332
-0.030579861 0.10778759 0.18179469
-0.026755886 0.10629413 0.18377247
0.297281 0.13126507 0.18230741
0.06677568 0.145386 0.18496223
0.097327709 0.145386 0.18984662
0.27697515 0.145386 0.18958271
-0.14397502 0.21751235 0.18151249
0.18404932 -0.28697401 0.19777238
0.297281 -0.2475525 0.19096021
0.297281 -0.18220735 0.19100262
0.0049574403 -0.11628164 0.19678199
0.14987689 -0.11567847 0.19140607
0.297281 -0.096377648 0.19952521
0.13343079 -0.075263217 0.19828437
0.01064498 -0.011097215 0.19911517
-0.0021332214 -0.005081784 0.19387326
-0.297281 0.0067646652 0.1914289
0.1382228 0.0016781557 0.19628021
0.15023759 0.0073444592 0.19125521
0.13519274 0.031137751 0.19754747
0.00013770355 0.040215749 0.19480485
0.13782988 0.040411729 0.19644453
0.13881931 0.10594624 0.19603071
0.002370758 0.11166618 0.19572091
-0.10611251 0.145386 0.19288744
-0.14462955 0.28697401 0.19882101
-0.070064768 -0.28697401 0.20215335
0.21990661 -0.28697401 0.20594455
-0.297281 -0.20443505 0.20180392
0.297281 -0.16360292 0.20517284
0.297281 -0.10295296 0.2018189
0.023417091 -0.079829946 0.2031998
0.045689307 -0.076317146 0.2060547
0.297281 -0.069273643 0.20118888
0.044709355 -0.052139524 0.20592909
0.076553039 -0.05253398 0.20870063
0.029360548 -0.035781503 0.20396166
0.028814368 -0.020606849 0.20389165
0.076004393 -0.029429853 0.20877476
0.090823509 0.041839167 0.20677248
0.046390686 0.051932264 0.2061446
0.085467122 0.069879338 0.20749621
0.090287812 0.099992335 0.20684485
-0.297281 0.12225298 0.20925784
0.11319038 0.145386 0.20581466
0.23809555 0.145386 0.20770957
-0.29728097 0.1606247 0.20049481
-0.26303431 -0.28697401 0.21517254
-0.14002241 -0.28697401 0.21048138
-0.297281 -0.24125962 0.21121673
-0.297281 -0.093541957 0.21615164
-0.297281 -0.019021988 0.21792999
-0.143975 0.15390959 0.21833368
-0.29728103 0.21811336 0.21841528
-0.25279251 0.28697401 0.2149861
-0.2084818 0.28697401 0.21473242
0.038327783 -0.28697401 0.22949801
0.297281 -0.27847299 0.22565524
0.297281 -0.0034958795 0.22909474
0.297281 0.0048893318 0.22753817
0.29728103 0.028799444 0.2290985
0.297281 0.056279931 0.22622776
-0.099186361 0.145386 0.22792034
-0.018555619 0.145386 0.22603203
0.048155144 0.145386 0.22120479
-0.29728103 0.24641822 0.22925693
-0.297281 0.28447005 0.22227557
-0.14437175 0.28697401 0.22649744
0.297281 -0.26676425 0.23559648
-0.297281 -0.18574078 0.2389303
-0.297281 -0.051275991 0.23455773
0.297281 0.069290809 0.23398827
-0.068267263 0.145386 0.23312561
0.010916099 0.145386 0.2378433
0.10570619 0.145386 0.23671573
0.1596944 0.145386 0.23491588
-0.13500148 0.21396516 0.23608333
-0.143975 0.23014565 0.23643796
0.13894548 -0.28697401 0.24389565
0.297281 -0.17365932 0.24314992
0.297281 -0.10096284 0.24741428
0.297281 0.017129362 0.2466796
0.10293327 0.145386 0.24585953
-0.143975 0.16784923 0.24138115
-0.297281 0.21315855 0.24788722
-0.143975 0.22871768 0.24605329
0.19238186 -0.28697401 0.25260559
0.297281 -0.28633359 0.25571439
-0.297281 -0.15483908 0.25044948
-0.297281 0.067307703 0.25085297
-0.143975 0.23422164 0.251701
-0.297281 0.25632903 0.25070953
-0.25347072 0.28697401 0.25859797
0.297281 -0.26958567 0.26385868
-0.297281 -0.16082653 0.26609248
0.297281 -0.14301257 0.26630533
0.29728097 -0.082338721 0.26033947
-0.297281 0.081667699 0.26216352
-0.11579572 0.145386 0.26515988
-0.297281 -0.23700804 0.2798076
0.297281 -0.099832833 0.27931759
-0.297281 0.053204782 0.27891031
0.033329554 0.145386 0.27313566
0.21975234 0.145386 0.27147767
-0.143975 0.21492657 0.27326214
-0.143975 0.25714096 0.27474093
-0.26307565 0.28697401 0.27288377
-0.21361685 -0.28697401 0.28099138
0.24154082 -0.28260282 0.28154901
-0.23132782 -0.27696139 0.28154901
-0.22545353 -0.27916646 0.28154901
-0.063149452 -0.27149281 0.28154901
-0.021068007 -0.27712736 0.28154904
-0.081063069 -0.26857901 0.28154901
-0.046834536 -0.26841596 0.28154901
-0.184329 -0.25488943 0.28154898
-0.25794619 -0.24081831 0.28154901
0.077280283 -0.24234737 0.28154901
-0.18475893 -0.23099589 0.28154898
0.1633788 -0.2322769 0.28154901
-0.27635148 -0.22389187 0.28154901
-0.12387679 -0.22809225 0.28154901
0.13272676 -0.22994098 0.28154901
0.198145 -0.22525515 0.28154901
-0.26907766 -0.21114229 0.28154901
-0.23657255 -0.21101229 0.28154901
-0.21867134 -0.21074751 0.28154901
-0.20783105 -0.21824165 0.28154901
-0.034048975 -0.21803337 0.28154901
0.099959664 -0.20469165 0.28154901
0.11264926 -0.19083279 0.28154901
0.25706318 -0.19317141 0.28154901
0.26616091 -0.19848755 0.28154901
-0.24118431 -0.18322892 0.28154898
0.062899016 -0.18703228 0.28154901
0.10585853 -0.18167835 0.28154901
0.11909757 -0.18130244 0.28154901
0.15083405 -0.17770687 0.28154901
-0.24993983 -0.15608285 0.28154901
-0.141716 -0.15952289 0.28154901
0.046765812 -0.15871525 0.28154901
-0.076274723 -0.14403309 0.28154901
0.013421535 -0.14963898 0.28154904
-0.11928394 -0.13900067 0.28154901
0.10834246 -0.13070753 0.28154901
0.27233988 -0.13419762 0.28154904
-0.24256618 -0.12992962 0.28154901
-0.12293147 -0.12276889 0.28154901
-0.091598652 -0.12680484 0.28154901
-0.25697929 -0.11104529 0.28154901
-0.14599331 -0.11931483 0.28154901
-0.037611425 -0.11621732 0.28154901
0.066101037 -0.11020883 0.28154901
0.2425487 -0.090779036 0.28154901
-0.044751167 -0.08828342 0.28154901
0.28441513 -0.089546852 0.28154901
0.14434963 -0.070436463 0.28154901
0.25389814 -0.078589305 0.28154901
-0.24335046 -0.0667836 0.28154901
0.046355698 -0.066785708 0.28154901
0.05353035 -0.064893216 0.28154901
0.10889189 -0.061030146 0.28154901
0.19945762 -0.062991038 0.28154901
-0.22948304 -0.045215841 0.28154901
-0.097678564 -0.04687757 0.28154901
-0.041505795 -0.042615432 0.28154901
-0.082035065 -0.032598503 0.28154901
-0.0074900687 -0.032921053 0.28154901
0.01481888 -0.030904641 0.28154901
0.17142114 -0.021977909 0.28154901
0.28405437 -0.0217315 0.28154901
-0.15545821 -0.015567593 0.28154901
-0.14267004 -0.011062413 0.28154901
0.26000091 -0.0056238193 0.28154901
0.2948845 -0.0036585105 0.28137001
-0.030859023 0.0093727559 0.28154901
0.010707524 0.0039959336 0.28154901
0.14867118 0.0042618327 0.28154901
-0.095628023 0.015721351 0.28154901
0.22534625 0.011736779 0.28154901
-0.025505811 0.020066604 0.28154901
0.12726957 0.020908892 0.28154901
-0.023544922 0.034639131 0.28154901
0.16062973 0.0338993 0.28154901
0.19605514 0.037254829 0.28154901
0.21112327 0.038088437 0.28154901
0.10696582 0.04402592 0.28154901
-0.2871106 0.058688231 0.28154901
0.015578307 0.051072642 0.28154901
0.056532972 0.05616466 0.28154901
0.1165424 0.054475807 0.28154901
0.12009803 0.059135694 0.28154901
0.28434575 0.053554166 0.28154901
-0.010572478 0.062310133 0.28154901
0.0048594922 0.06583336 0.28154901
0.031092823 0.06592492 0.28154901
-0.046380639 0.072873823 0.28154901
-0.030479286 0.079487681 0.28154901
-0.15284894 0.085324332 0.28154901
0.060813934 0.095631219 0.28154901
0.012943991 0.10047185 0.28154901
0.05956246 0.1091911 0.28154901
0.23324336 0.10487423 0.28154898
0.010134839 0.11804727 0.28154901
-0.2500945 0.12659538 0.28154901
-0.084392406 0.12248243 0.28154901
-0.22851959 0.13340437 0.28154901
-0.16622081 0.1386788 0.28154901
0.054324985 0.13124767 0.28154901
0.16358277 0.13157552 0.28154901
0.21644643 0.1378849 0.28154901
0.29548466 0.13204005 0.28154901
-0.1896044 0.16766885 0.28154901
-0.26794308 0.17772835 0.28154901
-0.19778481 0.19315843 0.28154901
-0.22549483 0.2039239 0.28154901
-0.29609135 0.21265239 0.28154901
-0.2859852 0.21110661 0.28154901
-0.18752581 0.21891837 0.28154901
-0.24055892 0.22231567 0.28154901
-0.25830829 0.23071107 0.28154901
-0.16788109 0.25834131 0.28154901
-0.23527372 0.28203997 0.28154901
