# .PCD v0.7 - Point Cloud Data file format
VERSION 0.7
FIELDS x y z
SIZE 4 4 4
TYPE F F F
COUNT 1 1 1
WIDTH 987
HEIGHT 1
VIEWPOINT 0 0 0 1 0 0 0
POINTS 987
DATA ascii
-0.057645589 -0.35742801 -0.25692618
-8.5033476e-05 -0.35742801 -0.2526181
0.19421522 -0.35742798 -0.25544116
0.054766424 -0.34982222 -0.25753799
0.20793299 -0.34293729 -0.25533882
-0.20242053 -0.33151677 -0.25753799
0.14796183 -0.33928138 -0.25753799
-0.20603421 -0.32460296 -0.25753799
-0.16677004 -0.31000665 -0.25753799
-0.013403714 -0.31796968 -0.25753799
0.14527267 -0.31973469 -0.25753799
0.16199526 -0.3104558 -0.25753799
-0.17482652 -0.29528704 -0.25753799
-0.23647299 -0.27020606 -0.25626472
0.037296895 -0.27109951 -0.25753799
-0.00075608306 -0.26941395 -0.25753799
0.18754391 -0.26226139 -0.25753799
0.015380837 -0.25344035 -0.25753799
-0.17745106 -0.2498142 -0.25753799
-0.17941964 -0.23137832 -0.25753799
-0.17241821 -0.22193721 -0.25753799
-0.073763333 -0.21339089 -0.25753799
0.008972846 -0.21612903 -0.25753799
0.15810561 -0.21458061 -0.25753799
0.089024566 -0.20251246 -0.25753799
0.13643885 -0.20948383 -0.25753799
0.20081444 -0.1953779 -0.25753799
0.20946953 -0.17899911 -0.25753799
-0.23647299 -0.16104126 -0.25177291
0.088124506 -0.15714903 -0.25753799
0.14723495 -0.15466353 -0.25753799
0.21972719 -0.15122655 -0.25753799
-0.13778803 -0.14848603 -0.25753799
0.10089593 -0.14427318 -0.25753799
0.18868713 -0.14150271 -0.25753799
0.081736922 -0.13715965 -0.25753799
0.12795925 -0.13070226 -0.25753799
0.22696 -0.13929121 -0.25490594
-0.12985769 -0.12714201 -0.25753799
0.024405088 -0.12779304 -0.25753799
0.15375607 -0.12510242 -0.25753799
0.11994608 -0.1190282 -0.25753799
0.21962908 -0.11150889 -0.25753799
0.026307326 -0.10557453 -0.25753799
0.075425863 -0.1012532 -0.25753799
0.1663346 -0.10306689 -0.25753799
0.0076308474 -0.096413195 -0.25753799
0.22055157 -0.091811448 -0.25753799
-0.17524551 -0.072863415 -0.25753799
-0.0030367039 -0.074604176 -0.25753799
0.035215862 -0.064203255 -0.25753799
-0.039510909 -0.054918259 -0.25753799
-0.0040289015 -0.051653445 -0.25753799
-0.18626386 -0.045929112 -0.25753799
-0.034646343 -0.046721786 -0.25753799
0.014016993 -0.03304626 -0.25753799
0.040815018 -0.039647922 -0.25753799
0.12729895 -0.039988682 -0.25753799
0.0035517551 -0.026962455 -0.25753799
0.22696 -0.023540288 -0.25698751
-0.10425668 -0.015876561 -0.25753799
-0.030261587 -0.014100315 -0.25753799
0.17809416 -0.013169035 -0.25753799
0.090150788 -0.0045768097 -0.25753799
-0.0070127174 0.013824686 -0.25753799
0.0018173263 0.017621625 -0.25753799
-0.12380361 0.022029892 -0.25753799
0.01851782 0.022588933 -0.25753799
-0.039760664 0.034653544 -0.25753799
-0.095998056 0.056697492 -0.25753799
0.17355143 0.063232489 -0.25753799
0.10536405 0.08460509 -0.25753799
0.12258699 0.08000005 -0.25753799
0.22696 0.086148232 -0.25390014
-0.045781288 0.094748639 -0.25753799
0.16610014 0.097862795 -0.25753799
0.22696 0.098635837 -0.25600868
-0.21307875 0.10405487 -0.25753799
-0.099604316 0.10985196 -0.25753799
0.067739271 0.11889187 -0.25753799
-0.19427247 0.13326484 -0.25753802
-0.016819991 0.1330092 -0.25753799
-0.10662161 0.14260437 -0.25753799
-0.076537475 0.14263809 -0.25753799
-0.045998316 0.14505044 -0.25753799
0.023538098 0.14410257 -0.25753799
0.20001902 0.14382525 -0.25753799
-0.1154764 0.15711711 -0.25753799
-0.057721231 0.1532544 -0.25753799
-0.19231251 0.16938168 -0.25753799
-0.1735369 0.16735661 -0.25753799
-0.023550078 0.16694388 -0.25753799
-0.11936532 0.17948365 -0.25753799
0.061330549 0.18546134 -0.25753799
0.021639016 0.19853112 -0.25753799
0.083314218 0.19855548 -0.25753799
0.21794792 0.19310355 -0.25753799
-0.19412121 0.20583391 -0.25753799
-0.15186782 0.20012891 -0.25753799
-0.035698116 0.20450169 -0.25753799
-0.019770756 0.20997737 -0.25753799
0.04995741 0.20395856 -0.25753799
0.21067137 0.20606758 -0.25753799
0.20160443 0.21794489 -0.25753799
-0.18096563 0.22352272 -0.25753799
-0.1284973 0.22654431 -0.25753799
0.10808188 0.23026492 -0.25753799
0.17224328 0.23902377 -0.25753799
-0.1051762 0.24311548 -0.25753799
0.12476841 0.24417576 -0.25753799
0.15241432 0.24404527 -0.25753799
-0.12723649 0.25833911 -0.25753799
-0.10681616 0.27384618 -0.25753799
-0.041920722 0.27017581 -0.25753799
0.17712243 0.27587125 -0.25753799
0.019497611 0.28340945 -0.25753799
0.063019618 0.28651479 -0.25753799
0.15495946 0.28363308 -0.25753799
-0.23509863 0.29328933 -0.25753799
-0.043252833 0.29832155 -0.25753799
0.10831995 0.29341394 -0.25753799
0.050396308 0.30584109 -0.25753799
0.06400498 0.3096717 -0.25753799
0.096468963 0.32550317 -0.25753799
-0.21843274 0.33806869 -0.25753799
-0.14386569 0.34673706 -0.25753799
0.029024594 0.34052336 -0.25753799
0.22696 0.34860823 -0.25045669
-0.19317107 0.35273483 -0.25753799
-0.035957687 0.35498607 -0.25753799
0.040375255 0.35742801 -0.25587565
0.054651029 0.35742801 -0.25601462
0.080518305 0.35742801 -0.25321785
0.22696 0.35091779 -0.25143394
-0.23647299 -0.0091145933 -0.24449596
-0.23647299 0.14545327 -0.24296382
0.22696 0.29543179 -0.24407455
-0.23647301 0.33269534 -0.24145158
0.1107716 0.35742801 -0.24658717
0.13449855 0.35742801 -0.24352509
-0.12853515 -0.35742801 -0.23083085
0.20793299 -0.34107333 -0.23219219
0.20793299 -0.25916141 -0.23582976
0.22696 -0.22533929 -0.2372254
0.030941576 0.056123842 -0.23139971
0.22696 0.095999889 -0.23854823
0.22696 0.24153815 -0.23490408
-0.23647299 0.32210156 -0.23881902
0.19506173 0.35742798 -0.23633157
-0.14552119 -0.35742801 -0.2212117
-0.079440102 -0.35742801 -0.22842436
0.22491395 -0.25879499 -0.22704346
-0.23647299 -0.1083101 -0.22118221
-0.23647299 -0.051186547 -0.22310525
-0.23647299 -0.046654403 -0.22667764
0.10542923 0.0080039371 -0.22200979
0.10352893 0.019245494 -0.224388
0.21409348 0.042376738 -0.22415321
-0.23647299 0.069721393 -0.22550274
0.1033247 0.090495735 -0.22629273
-0.23647299 0.13154122 -0.22997209
-0.23647299 0.1798327 -0.22286463
-0.09618742 0.35742801 -0.22550432
-0.0074850693 0.35742801 -0.22793418
-0.23647299 -0.32401359 -0.21550439
-0.23647299 -0.19293654 -0.21066916
0.097190306 -0.0012894366 -0.21840304
0.20571558 -0.0014002118 -0.21513653
0.21809217 -0.0080915792 -0.2119963
0.22696 0.045459691 -0.21736026
0.15948904 0.12925309 -0.2149781
0.005220226 0.13335139 -0.21785797
0.088596679 0.13782524 -0.21352986
0.0043697953 0.35742801 -0.21455422
-0.23532294 -0.35742804 -0.20584838
-0.022282474 -0.35742801 -0.20689741
0.20962603 -0.34865159 -0.20405206
-0.23647299 -0.31057021 -0.20704617
0.21883498 -0.30091381 -0.20874402
0.22696 -0.23552576 -0.20487358
-0.23647299 -0.11504962 -0.20023444
0.22696 -0.088922486 -0.20062971
0.063365214 -0.025669586 -0.20930398
0.21256244 -0.019546621 -0.20741333
-0.23647299 0.053083763 -0.20010401
0.14351715 0.14253804 -0.20994684
-0.0065805926 0.15589727 -0.20293024
0.14109999 0.15694694 -0.20404752
0.10434435 0.16022047 -0.20378187
0.22696 0.26043075 -0.20129654
-0.050053921 0.35742801 -0.20460345
0.19164762 0.35742801 -0.20647505
-0.034811832 -0.35742801 -0.19364926
0.071871981 -0.35742801 -0.19168699
-0.23647299 -0.29566085 -0.19651806
-0.23647299 -0.28922972 -0.19951189
0.0077658007 -0.045988005 -0.19923158
0.11745341 -0.043705411 -0.19772831
0.19143796 -0.040746305 -0.19780403
-0.23647299 0.10867807 -0.19132853
0.15452184 0.16597772 -0.19807726
0.22696 0.16125895 -0.19177729
0.22696 0.27996725 -0.19830331
-0.23647299 0.30013478 -0.19822693
0.22696 0.32548282 -0.19127196
0.15890756 0.35742801 -0.1902616
-0.17628878 -0.35742801 -0.18646494
0.16629252 -0.35742801 -0.18278718
-0.23647299 -0.34384683 -0.18945262
0.20793299 -0.3448543 -0.18536949
0.20793299 -0.33233672 -0.18520539
-0.23647299 -0.28745461 -0.18545258
0.080771536 -0.062779911 -0.18417408
-0.0071855304 0.017133083 -0.18256035
-0.23647299 0.095391966 -0.18847524
0.22696 0.25594017 -0.18081765
-0.23647299 0.33466077 -0.18747318
-0.23647299 0.34293735 -0.18270823
-0.14857335 0.35742801 -0.18991551
0.13783163 0.35742801 -0.18309286
0.20793301 -0.32238925 -0.17159699
0.20793301 -0.30693224 -0.17506227
-0.23647299 -0.12323185 -0.17636831
-0.23647299 -0.11437634 -0.17929019
-0.23647299 0.17018813 -0.17668551
0.13566665 0.19786383 -0.17415838
0.013005055 0.35742801 -0.1748755
0.045797549 0.35742801 -0.17053175
0.087967277 0.35742801 -0.17517695
0.16332874 -0.35742801 -0.16011885
-0.23647299 -0.31377262 -0.16827215
-0.23647299 -0.2667107 -0.16283123
-0.23647299 -0.20754011 -0.16694309
0.23647299 -0.052931912 -0.16924788
-0.23647299 -0.016861036 -0.16853267
0.23647299 -0.0014298521 -0.16724169
-0.23647299 0.0080040097 -0.16320199
-0.23647299 0.011337452 -0.16808695
-0.23647299 0.033436403 -0.16106254
0.13373916 0.19670483 -0.16357073
0.021836525 0.20956548 -0.16187903
0.047469318 0.20784897 -0.16522717
0.10300221 0.20635745 -0.16714972
0.15966716 0.20447594 -0.16997221
0.19947866 0.20302396 -0.1675874
-0.23647299 0.21847153 -0.16899566
0.22696 0.24667428 -0.16113445
0.22696 0.30503234 -0.16154775
-0.12282332 0.35742801 -0.16912611
-0.045353614 0.35742801 -0.164542
0.18765947 0.35742801 -0.16873403
0.17755842 -0.35742801 -0.15139148
0.20793299 -0.28275171 -0.15845212
0.22616719 -0.26290479 -0.15944409
0.22696 -0.25230145 -0.15057042
0.22696 -0.2396464 -0.15805361
0.23479503 -0.10141915 -0.15440318
-0.00018100487 -0.095224723 -0.15218271
-0.0052671372 -0.089640513 -0.15961441
0.23647299 -0.086119786 -0.15017727
-0.23647299 0.007641077 -0.15884848
0.22860038 0.15977782 -0.15484205
0.047277436 0.18886387 -0.15221041
0.1516739 0.19315094 -0.15837425
0.0483438 0.21294776 -0.15299618
0.06634035 0.21164909 -0.15557063
0.082431637 0.21728031 -0.15247361
0.17182371 0.21104638 -0.15794864
0.22696 0.27754357 -0.15436347
0.22696 0.28640023 -0.15129998
-0.23647299 0.2956847 -0.15573138
-0.23647298 0.31169674 -0.15590918
-0.097116314 0.35742801 -0.15935168
-0.23522142 -0.35742801 -0.14727914
-0.22057316 -0.35742801 -0.14744562
-0.11939359 -0.35742801 -0.14465883
-0.055382829 -0.35742801 -0.14979455
-0.0062496327 -0.35742801 -0.14334923
0.034976851 -0.35742801 -0.14221057
-0.23647299 -0.1521529 -0.14893228
0.22696 -0.11961538 -0.14323735
0.02474099 -0.10109939 -0.14378367
0.070875488 -0.10037325 -0.14336132
0.21364307 -0.017971696 -0.14131632
-0.0084081804 0.029178413 -0.14136592
-0.008429179 0.080149926 -0.14066243
-0.23647299 0.13789114 -0.14665213
0.067346394 0.19586821 -0.1475379
0.15367287 0.20348871 -0.14399685
0.1718176 0.20857579 -0.14280482
0.1285691 0.21520738 -0.14520633
0.20305432 0.2160324 -0.14091983
0.015250052 0.22254305 -0.14760594
0.020776074 0.22429661 -0.1451558
0.033000872 0.22774552 -0.14029661
-0.23570673 0.35742801 -0.14152323
-0.15867081 0.35742798 -0.14395922
0.013241388 0.35742801 -0.14985944
0.21477847 0.35742801 -0.14393392
0.096789174 -0.35742801 -0.13937753
0.18166202 -0.35742801 -0.13573772
0.17797625 -0.10293328 -0.1368452
0.18453754 -0.10490724 -0.13407682
-0.23647299 -0.045252457 -0.13310041
0.23647299 -0.039987449 -0.13192226
-0.23647299 -0.00069877505 -0.13819046
0.23647299 0.11871843 -0.13422862
-0.23647299 0.29608747 -0.13599159
0.016420454 0.35742801 -0.13572131
0.06808731 -0.35742801 -0.12007824
0.20793299 -0.31579375 -0.12227205
0.22389871 -0.27466431 -0.12730151
0.0066110552 -0.11063969 -0.12995648
-0.0088169593 -0.083597511 -0.12758355
-0.0088771982 0.068473108 -0.12556763
0.2257677 0.087985583 -0.12494018
-0.0088289985 0.15401687 -0.12718233
-0.057718314 0.35742801 -0.12395876
0.046221443 0.35742801 -0.12523723
0.040975191 -0.35742801 -0.11941078
0.14532611 -0.35742801 -0.1183701
-0.23647299 -0.30069458 -0.11361
-0.23647299 -0.28017074 -0.11261995
-0.23647299 -0.1920023 -0.11026658
-0.23647299 -0.14159545 -0.11683985
0.02145732 -0.11783073 -0.11214957
0.060561672 -0.11518437 -0.11738013
0.092270963 -0.11581105 -0.1149253
0.20318611 -0.11576983 -0.11173235
-0.23647299 -0.0026789904 -0.11376905
-0.0091137439 0.15505838 -0.11758622
-0.23647299 0.20851499 -0.11701534
0.16480027 0.24002928 -0.1126307
-0.067908674 0.35742801 -0.11310839
-0.025150632 0.35742801 -0.11424533
-0.019782558 0.35742801 -0.11752973
-0.18962838 -0.35742801 -0.108164
-0.14192206 -0.35742801 -0.10673821
-0.03798268 -0.35742801 -0.1076747
0.19373776 -0.35742801 -0.10147271
0.20793299 -0.35281542 -0.10000862
0.0093535706 -0.12142455 -0.10382882
0.14681357 -0.10148115 -0.10814258
0.069729045 -0.095245145 -0.10190658
0.16129836 -0.096722856 -0.10120855
0.1819022 -0.097335473 -0.10143438
0.23647299 -0.059681214 -0.10901985
-0.23647299 0.035815805 -0.10976103
-0.23647299 0.048153967 -0.10693488
0.23647299 0.050850473 -0.10300791
0.1296005 0.24525882 -0.10104439
0.13982087 0.24550997 -0.10013446
-0.23647299 0.34234744 -0.10171004
-0.20688945 0.35742801 -0.10296705
-0.080430217 0.35742801 -0.10924169
-0.011516385 0.35742801 -0.10407501
-0.00067684054 0.35742801 -0.10754817
0.20124292 0.35742801 -0.10078539
-0.23647299 -0.27370524 -0.091477379
0.1020572 -0.12439227 -0.093574375
0.15226947 -0.12520537 -0.090454929
0.17511795 -0.12462065 -0.091188937
-0.0097332895 -0.10518289 -0.096717969
0.084486187 -0.094982266 -0.098572031
0.1331172 -0.095339447 -0.096583508
-0.23647299 -0.061732896 -0.092474088
-0.0098047256 -0.035350479 -0.094301127
0.23647299 -0.021238934 -0.090650275
-0.0097625768 0.082709707 -0.095734745
-0.23647299 0.16227137 -0.093894027
0.20832196 0.24686594 -0.094826125
-0.090939648 0.35742801 -0.093763143
-0.08443018 0.35742801 -0.090212598
0.096969277 0.35742801 -0.09694761
-0.065299675 -0.35742801 -0.08293879
0.09932477 -0.35742801 -0.080229022
0.20793301 -0.33879948 -0.081125766
0.21692532 -0.25879499 -0.082843669
0.22696 -0.18587047 -0.082967788
-0.23647299 -0.1388039 -0.08121188
0.18059544 -0.1277194 -0.083542287
-0.010129672 0.0022619599 -0.083359346
0.23647299 0.0038592983 -0.088502683
0.22696 0.26679546 -0.083579689
-0.23647299 0.2803995 -0.088954732
0.229678 0.32747775 -0.087467648
-0.031165488 0.35742801 -0.087763742
0.078921512 0.35742801 -0.08925277
-0.013902482 -0.35742801 -0.079021938
-0.23647299 -0.18377392 -0.076572292
0.23647299 -0.10198371 -0.075350836
-0.23647299 -0.039559409 -0.072684847
-0.23647299 0.18598028 -0.074516214
0.22696 0.19934893 -0.076727115
-0.23647299 0.22265901 -0.078696221
0.052745216 0.25362182 -0.078814007
0.14466757 0.25421953 -0.07154306
0.229678 0.29795742 -0.071871489
0.15282898 0.35742801 -0.073144421
-0.072781794 -0.35742801 -0.062690124
0.11184745 -0.35742801 -0.067674935
-0.23647299 -0.30045485 -0.066285573
0.0060319165 -0.13140622 -0.065431178
0.08855544 -0.13109712 -0.065330938
0.17392159 -0.13090897 -0.064226963
0.23647298 -0.071510851 -0.065677755
-0.010660651 0.043205794 -0.065475509
-0.010677159 0.080770805 -0.064913236
-0.23647299 0.09706147 -0.064310759
0.23647299 0.12534434 -0.069345847
-0.010797312 0.14280367 -0.060854971
0.23647299 0.14958817 -0.069480442
0.229678 0.31510383 -0.068093702
-0.23647299 0.32321978 -0.069920845
-0.23647299 0.35698855 -0.062078185
-0.086687617 0.35742801 -0.061095323
0.0057103727 0.35742801 -0.060974684
0.18237415 0.35742801 -0.067909263
0.11793588 -0.35742801 -0.05272311
-0.23647299 -0.34519988 -0.052668363
0.20793299 -0.32017988 -0.052912705
0.20793299 -0.30017135 -0.052724328
0.22696 -0.24988273 -0.052384362
0.22696 -0.17695686 -0.052438557
-0.01105272 -0.12142745 -0.052267972
-0.010922678 0.18211746 -0.056650639
-0.23647299 0.31532753 -0.059975743
-0.089629129 0.35742801 -0.058101825
0.025638685 0.35742801 -0.05127215
-0.12845489 -0.35742801 -0.04173585
-0.0099110827 -0.35742801 -0.046376288
0.20837894 -0.35511631 -0.041372813
0.20997757 -0.3468293 -0.044118144
0.15702899 -0.13348445 -0.04515573
-0.23647299 -0.093203239 -0.04920651
-0.23647299 -0.075566083 -0.043536589
0.23647299 -0.05747775 -0.0403996
0.23647299 0.043520533 -0.041411966
-0.23647299 0.28025681 -0.045824185
-0.23143816 0.35742801 -0.046310157
-0.098833278 0.35742801 -0.040059168
-0.1498569 -0.35742801 -0.034666955
0.038016908 -0.35742801 -0.033029377
0.10374892 -0.35742801 -0.035384022
0.20793299 -0.33580631 -0.038888253
0.22696 -0.25573578 -0.032426223
0.22696 -0.19120592 -0.037844963
0.11066928 -0.13535002 -0.032353725
-0.23647299 -0.065637708 -0.036130734
-0.011496528 0.11828737 -0.03731044
-0.01143501 0.12287597 -0.039386977
0.229678 0.28398955 -0.030906288
0.229678 0.29176134 -0.037761655
-0.12838043 0.35742801 -0.035035625
-0.0030596554 -0.35742801 -0.028465621
0.001618661 -0.35742801 -0.028139882
0.20982412 -0.34762469 -0.027596794
0.21197367 -0.33648181 -0.025495399
0.22696 -0.23449746 -0.022949204
0.13058825 -0.13453558 -0.025451815
-0.011732613 -0.011413112 -0.029361472
-0.011733498 0.12546274 -0.029316379
-0.011951338 0.16674012 -0.021977436
0.11225994 0.25835392 -0.023406714
-0.23647299 0.26046708 -0.026377998
0.229678 0.27156836 -0.026572116
-0.21971792 0.35742801 -0.022144452
0.08988452 0.35742801 -0.022582887
-0.20540787 -0.35742801 -0.017754108
0.22183478 -0.28536329 -0.010623407
0.18584202 -0.13303049 -0.012373636
-0.012109132 -0.040883005 -0.01667656
0.23647299 0.084360279 -0.013443405
0.23647299 0.16632769 -0.015081804
-0.012210127 0.18626097 -0.013261219
-0.012213281 0.20574522 -0.013160319
0.229678 0.27638653 -0.019813672
0.02687142 -0.13207839 -0.0098560862
0.098358676 -0.13161252 -0.0041938825
0.18281864 -0.13185449 -0.0035261028
-0.012401121 -0.070609391 -0.006837083
0.23647301 -0.078909747 -0.0025819391
-0.23647299 0.02041379 -0.0060497476
-0.01252881 0.073910542 -0.002517778
-0.23647299 0.17009673 -0.0034107305
-0.012586564 0.20070425 -0.00057963072
-0.012578157 0.21324484 -0.00086646201
0.0080968142 0.25508803 -0.0016781834
-0.23647299 0.31999391 -0.0058447062
-0.14706993 -0.35742801 0.0015358627
0.22696 -0.21305251 0.008814998
-0.23647299 -0.17153557 0.0099276975
0.22696 -0.14071324 0.0068319761
-0.23647299 -0.036707044 0.0078624263
-0.012686621 0.17014597 0.0027964714
-0.012812851 0.1980149 0.0070431
-0.19146782 0.35742801 0.0034198314
-0.10726716 0.35742801 0.00013960153
0.0065712407 0.35742801 0.001687862
0.10649352 0.35742801 0.0052947849
0.13583276 -0.35742801 0.013179548
0.19965625 -0.35742801 0.010608673
-0.23647299 -0.33970118 0.010969772
-0.23647299 -0.15112735 0.013970762
0.23647299 -0.052882072 0.011570213
0.23647299 -0.024116591 0.015452377
0.23647299 0.044754017 0.011988755
0.06647341 0.25344571 0.012535399
0.15858679 0.25311372 0.017792247
-0.16143912 0.35742801 0.013883479
0.17959714 0.35742801 0.012668238
-0.087493703 -0.35742801 0.029892894
-0.049479622 -0.35742801 0.020309635
0.19340077 -0.35742801 0.026063375
-0.23647299 -0.32518193 0.022349441
0.21997614 -0.29499823 0.027188959
0.22696 -0.17967543 0.026963688
0.23647299 -0.12094928 0.026548535
-0.013320172 -0.092135966 0.024133287
-0.23647299 0.017817099 0.027734628
0.23647299 0.01610554 0.028192375
-0.013426926 0.071505181 0.027736966
0.23647299 0.16916049 0.025177095
0.23647299 0.17948884 0.025097352
0.22907531 0.28577733 0.023289526
-0.23647299 0.29162046 0.022355497
-0.13404177 0.35742801 0.026142776
-0.0061415471 0.35742801 0.024830898
0.023743086 0.35742801 0.023673117
-0.1833171 -0.35742801 0.036533087
-0.17055431 -0.35742801 0.03709694
-0.23647299 -0.2544468 0.03824421
0.2285938 -0.13511312 0.03451848
0.1779829 -0.12428761 0.03131789
0.23647299 -0.091293752 0.039718032
0.23647299 -0.054133382 0.03609319
-0.013688743 -0.0022195261 0.036558408
0.23647299 -0.001373228 0.031675961
0.23647299 0.15977414 0.030966174
0.23647299 0.1630331 0.032871865
-0.013505927 0.17727432 0.030400315
-0.013596412 0.19793612 0.033445902
0.22696 0.22206834 0.03202809
0.22696 0.30092564 0.039485704
-0.15596408 0.35742801 0.039704829
-0.045209393 0.35742801 0.031558581
-0.018657591 0.35742801 0.036852658
0.029220734 0.35742801 0.03184817
-0.16068095 -0.35742801 0.047617875
0.22593752 -0.26409537 0.048465393
-0.23647299 -0.18160045 0.042069152
0.22696 -0.17014951 0.040692467
0.060900811 -0.11789333 0.04328616
-0.23647299 -0.022441894 0.041648738
-0.23647299 0.34398404 0.043056443
-0.18501318 -0.35742801 0.051016241
0.20888446 -0.35249567 0.051631302
-0.23647299 -0.29258606 0.059933335
0.15702085 -0.11526671 0.052482549
-0.23647299 -0.10516846 0.052501574
-0.014201359 -0.10807266 0.053817708
-0.014119324 -0.078711599 0.051063634
-0.23647299 0.055734571 0.059935257
-0.23647299 0.06436082 0.058236856
-0.23647299 0.084972352 0.059863307
-0.23647299 0.17874312 0.059925787
-0.014114482 0.19478846 0.050902832
0.050438728 0.23721611 0.054657739
0.22696 0.32446045 0.055056326
-0.13689715 0.35742801 0.053201213
-0.066951081 0.35742801 0.053640932
-0.034297373 0.35742801 0.050539307
0.22696 -0.23015833 0.065119609
-0.11601052 -0.35742801 0.07480412
0.062603667 -0.35742801 0.076977834
0.11099197 -0.35742801 0.071292192
0.17983259 -0.35742801 0.077646308
0.20793299 -0.28263503 0.0726896
0.057428777 -0.10462523 0.070470177
0.1003021 -0.10238838 0.07465902
0.15965602 -0.10062337 0.078721799
0.23647299 -0.086798258 0.075393975
-0.014951225 0.074760549 0.079103224
-0.23647299 0.09270484 0.071534172
-0.23647299 0.21333055 0.072410241
0.055546045 0.22584422 0.074248634
0.22696 0.26636508 0.0746447
-0.17325991 0.35742801 0.076326512
-0.05335867 0.35742801 0.073278502
0.10651199 0.35742801 0.07717365
0.17821504 0.35742801 0.071101777
-0.12416345 -0.35742801 0.083167456
-0.054911513 -0.35742801 0.08790829
0.014378153 -0.35742801 0.080815785
0.13298856 -0.35742801 0.085879564
-0.23647299 -0.25542724 0.084856644
0.22696 -0.18316028 0.087627977
0.23647299 0.11115295 0.08542341
-0.23647299 0.12561792 0.089205176
0.23647299 0.14574952 0.088480011
0.0080983685 0.21605387 0.085604995
0.083041362 0.21772946 0.085644566
0.17102115 0.2213372 0.08355201
-0.23647299 0.30626065 0.082511202
-0.19625098 0.35742801 0.084269486
-0.13776757 0.35742801 0.089684352
-0.23647299 -0.25292844 0.090311781
0.22696 -0.18934572 0.092056654
0.23491205 -0.1219033 0.091393881
-0.23647299 0.089851946 0.09965495
-0.23647299 0.17722851 0.09197069
-0.23647299 0.23140568 0.096117757
0.22696 0.26306495 0.09234643
-0.19243455 0.35742801 0.090489611
-0.023847502 0.35742801 0.092269711
0.029044412 0.35742801 0.091109082
0.12449765 0.35742801 0.092295922
-0.23647299 -0.17553121 0.10707625
0.038176358 -0.081112422 0.10055509
0.025652744 -0.078804359 0.10319271
0.23647298 0.043623663 0.1023056
-0.23647299 0.16548382 0.10266121
0.039473448 0.20237216 0.10437426
0.21539199 0.27125683 0.10347855
-0.20216648 0.35742801 0.1068131
-0.030314064 0.35742801 0.10421218
0.15650378 0.35742801 0.10694302
-0.098378539 -0.35742801 0.11462533
0.21813032 -0.30456665 0.11429846
-0.23647299 -0.29164308 0.11660223
0.20793301 -0.29598257 0.11973947
0.20793298 -0.26574734 0.11717601
-0.23647299 -0.18924905 0.11121643
-0.23647299 -0.14780343 0.110176
0.08813753 -0.071391568 0.11142132
0.094674259 -0.063933454 0.11734071
0.13188286 -0.068914495 0.11462127
0.23647299 0.0097218361 0.11919095
0.0089017842 0.18890089 0.11417483
0.22696 0.28980795 0.11356796
-0.23647299 0.30687129 0.11129349
-0.23647299 0.34385687 0.11368302
-0.02322565 0.35742801 0.11071275
0.0437176 0.35742801 0.11691857
0.14371301 0.35742801 0.11254023
0.14019869 -0.35742801 0.12505497
0.20793299 -0.31868815 0.12432455
0.046780962 -0.054550018 0.12312263
0.093681075 -0.057307635 0.12239769
0.11829183 -0.058659539 0.12209032
0.16823819 -0.054131992 0.1270484
0.038193952 -0.046873145 0.12876108
-0.016192347 -0.01117907 0.12091922
0.23647299 -0.015447971 0.12832877
0.23647299 0.054338872 0.12707087
-0.19488846 0.35742801 0.12599668
-0.064054318 0.35742801 0.12564623
0.22696 0.35004976 0.12360942
0.039414287 -0.35742801 0.13180953
0.17001936 -0.35742801 0.13574871
0.20793298 -0.35637945 0.13408659
-0.23647299 -0.1535442 0.13873172
0.23647299 -0.035184946 0.13826796
-0.016653515 -0.025220759 0.1364384
0.066931531 0.084185883 0.1377359
0.070949018 0.16518667 0.13422143
0.087579355 0.16862522 0.13207532
0.22696 0.29693943 0.13927709
0.04504367 0.35742801 0.13976869
0.17557687 0.35742801 0.13416809
-0.042246334 -0.35742801 0.14127782
-0.027186142 -0.35742801 0.14351481
0.13340056 -0.35742801 0.14361657
0.15965512 -0.35742801 0.14903829
0.19615 -0.35742801 0.14220193
-0.23647299 -0.30050862 0.14007284
-0.23647299 -0.27440387 0.14837411
0.22696 -0.24582048 0.14745679
0.22696 -0.23032784 0.14356625
0.22696 -0.2288627 0.14792731
0.22696 -0.19245386 0.14074932
-0.23647299 -0.17434764 0.14197466
0.23647299 -0.031194001 0.14499927
0.10981534 -0.024419069 0.14380708
0.088823825 -0.019284101 0.14531192
0.12127394 -0.012487289 0.14909157
-0.23647299 0.056227662 0.14243522
0.067228101 0.07793612 0.14666815
0.082788311 0.080053091 0.14232796
0.19947933 0.083826825 0.1417581
0.053510148 0.14645687 0.1430153
0.23647299 0.14229575 0.14604604
-0.23647299 0.31161994 0.14264706
-0.09242861 0.35742801 0.14951886
-0.042617343 0.35742801 0.1498974
0.15723225 0.35742801 0.14925291
-0.034550954 -0.35742801 0.15926501
0.20793299 -0.35544094 0.15114389
0.20793299 -0.34626576 0.15684496
0.20793299 -0.31357652 0.15784718
-0.23647299 -0.26413178 0.15320112
0.22696 -0.17923598 0.15878661
-0.010047639 0.0054179681 0.1526136
0.096193038 0.0054196138 0.15576755
0.021314071 0.042455498 0.15999487
0.11797807 0.075492695 0.15371688
-0.0093615595 0.091962501 0.15773323
0.035179406 0.10426208 0.15743506
0.090287827 0.10259184 0.15809432
0.060901951 0.11265683 0.15709284
-0.23647299 0.12230141 0.15842071
0.22696 0.17024438 0.15653676
-0.18752113 0.35742801 0.15470386
0.07078632 0.35742801 0.15260983
0.13379256 0.35742801 0.15135041
0.17095351 0.35742801 0.15742789
-0.028848335 -0.35742801 0.16185021
0.078969076 -0.35742801 0.16895235
-0.23647299 -0.28998163 0.16443443
-0.23647299 -0.22067428 0.16667396
0.22696 -0.22598928 0.16969481
-0.23647299 -0.054127574 0.16399187
0.23647299 0.018612767 0.16141687
0.13237336 0.038891833 0.16282138
0.19100586 0.036225356 0.16421044
-0.23647299 0.053119794 0.16565849
0.0005193156 0.057894539 0.16141142
0.23647299 0.06095193 0.16623116
-0.23647299 0.075624973 0.16784768
0.10990702 0.075824812 0.16339856
0.12448974 0.078785412 0.16270041
0.20826143 0.083584107 0.16466482
0.13866284 0.093449682 0.16193047
0.17996582 0.10138208 0.16189098
0.21263763 0.10623704 0.16244192
-0.23647299 0.12727621 0.16304292
0.22696 0.1539533 0.16613723
-0.23647299 0.20809299 0.16675989
0.22696 0.21558043 0.16057439
-0.18374786 0.35742801 0.16343051
-0.073290758 0.35742801 0.16586256
-0.036959019 0.35742801 0.16746747
0.19967879 0.35742801 0.16410518
-0.074055791 -0.35742801 0.17814583
0.039833143 -0.35742801 0.17779115
0.20793298 -0.29393423 0.17952183
0.22696 -0.17396387 0.17564139
0.22696 -0.15824203 0.17258564
0.22696 -0.091660909 0.17736505
0.23647299 -0.065110825 0.17114803
-0.23647299 0.10139332 0.17721857
-0.23647299 0.13544092 0.17125833
0.20391452 0.26474184 0.17181773
0.16689709 0.35742801 0.17362648
0.18439132 -0.35742801 0.18798752
0.20793299 -0.33522069 0.18902478
0.22696 -0.15963095 0.18495008
-0.23647299 -0.14642918 0.18250933
-0.23647299 -0.099503905 0.18403113
-0.23647299 0.12018387 0.18369564
0.22696 0.26070291 0.18228927
-0.22083536 0.35742801 0.18708912
-0.20430572 0.35742801 0.18664479
-0.16065988 0.35742801 0.18334153
-0.11791298 0.35742801 0.183514
0.20074469 0.35742801 0.18984689
-0.18840382 -0.35742801 0.19665839
0.084494069 -0.35742801 0.19932234
0.15565898 -0.35742801 0.1920315
0.22696 -0.23591043 0.19298917
0.22696 -0.044273831 0.19041383
0.22696 0.18219744 0.19236603
0.22021616 0.30399552 0.19836512
0.22696 0.34828699 0.19308126
0.01309471 0.35742801 0.19160131
0.046000559 0.35742801 0.19733104
-0.15452532 -0.35742801 0.20374483
-0.23647299 -0.33226395 0.20092642
0.20793299 -0.29426318 0.20585223
-0.23647299 -0.28312835 0.20533228
-0.23647299 -0.22214007 0.20730177
-0.23647299 -0.14894001 0.20469595
0.22696 0.019999441 0.20694086
-0.23647299 0.044678509 0.20955712
0.22696 0.046905465 0.20249587
-0.23647299 0.098079771 0.20956057
-0.23647299 0.13987106 0.20693463
-0.23647299 0.14701742 0.20467006
-0.0044189394 0.35742801 0.20494212
0.17127496 0.35742801 0.2090555
-0.16509746 -0.35742801 0.21546116
-0.23647299 -0.31013486 0.21611664
0.22696 -0.2296019 0.2148207
-0.23647299 -0.14849871 0.21748888
-0.23647299 0.17123502 0.21403332
-0.1654003 0.35742801 0.21931332
0.0066810176 0.35742801 0.21102139
0.024453014 0.35742801 0.21022421
-0.10143276 -0.35742801 0.22616857
-0.067891605 -0.35742801 0.22126251
0.0038152114 -0.35742801 0.22332561
0.20793299 -0.32462215 0.22464751
-0.23647298 -0.22162315 0.22874445
-0.23647299 -0.21882343 0.22241364
-0.23647299 -0.15717697 0.22734728
-0.23647299 -0.09321481 0.22631434
0.22696 0.074502274 0.22477965
-0.23647299 0.10110399 0.22564231
0.22696 0.21182437 0.22024159
-0.23647299 0.30088609 0.22617219
-0.14323835 0.35742801 0.22482447
0.14988118 0.35742801 0.22572032
0.22696 0.35439926 0.22932519
0.080935001 -0.35742801 0.23654428
-0.23647299 -0.34111872 0.23467334
-0.23647299 -0.046013415 0.23813725
0.22696 0.0018748119 0.23059897
0.22696 0.15264229 0.23574547
0.19286858 0.30935812 0.23530363
-0.13646869 0.35742801 0.23007594
-0.072946787 0.35742801 0.23661572
0.052558266 0.35742801 0.23159817
-0.16420759 -0.35742801 0.24716118
-0.041642979 -0.35742801 0.24138904
0.027406774 -0.35742801 0.24772236
-0.23647299 -0.31254005 0.24921452
-0.23647299 -0.27813095 0.24855241
0.22696 -0.18484552 0.24788962
-0.23647299 -0.13875675 0.2435943
-0.23647299 -0.09746407 0.24102984
-0.23647299 -0.056310281 0.2408835
-0.23647299 -0.025330558 0.24870133
-0.23647299 -0.018417835 0.24700084
0.22696 0.23064761 0.24785177
0.18892482 0.35742801 0.24708077
-0.19340873 -0.35420457 0.25753799
-0.15781659 -0.35471454 0.25753799
-0.12660535 -0.35742801 0.25494573
-0.096406586 -0.35385883 0.25753799
0.016281866 -0.35742801 0.25647023
0.036518186 -0.35742801 0.25356853
0.11668327 -0.34344861 0.25753799
-0.16473702 -0.3319625 0.25753799
0.038394384 -0.33830273 0.25753799
-0.14500113 -0.32395542 0.25753799
-0.089651398 -0.32669222 0.25753799
0.076750576 -0.31707162 0.25753799
-0.17164832 -0.30275619 0.25753799
-0.043848783 -0.30024779 0.25753799
-0.20603453 -0.29851609 0.25753799
-0.0077052265 -0.29583886 0.25753799
0.076789439 -0.29780439 0.25753799
0.12108235 -0.29392949 0.25753799
0.054876294 -0.28905392 0.25753799
0.19932333 -0.28282541 0.25753799
-0.028476581 -0.27703857 0.25753799
0.11329854 -0.27734363 0.25753799
-0.14195231 -0.26354864 0.25753799
0.085902922 -0.26873383 0.25753799
0.12016819 -0.26964578 0.25753799
-0.21101558 -0.2505649 0.25753796
-0.12734573 -0.25821513 0.25753799
-0.097694732 -0.24043371 0.25753799
-0.016536877 -0.24332505 0.25753799
-0.21924175 -0.22473407 0.25753799
-0.16636692 -0.2240313 0.25753799
-0.054191351 -0.22937009 0.25753799
0.12471066 -0.22175041 0.25753799
0.15415718 -0.22090013 0.25753799
-0.23154654 -0.21534029 0.25753799
-0.15913141 -0.21325789 0.25753799
-0.16129245 -0.19798155 0.25753799
-0.087537549 -0.18029897 0.25753799
-0.049563333 -0.18472263 0.25753799
0.17500058 -0.18568462 0.25753799
0.22696 -0.18120307 0.25309947
-0.023542911 -0.17503986 0.25753799
0.12223481 -0.17760748 0.25753799
-0.18932953 -0.16310412 0.25753799
0.021363605 -0.16799481 0.25753799
0.20026633 -0.16299638 0.25753799
-0.16274016 -0.15993464 0.25753796
-0.14072298 -0.15149611 0.25753799
-0.22286521 -0.14381534 0.25753799
-0.13680279 -0.13957936 0.25753799
-0.033197835 -0.13310885 0.25753799
-0.0081366077 -0.12163991 0.25753802
0.19188455 -0.12192184 0.25753799
0.21423918 -0.12943944 0.25753799
-0.026710875 -0.11102311 0.25753799
0.0012880117 -0.11786491 0.25753799
0.21053828 -0.11034601 0.25753799
-0.01934604 -0.10924644 0.25753799
0.090389907 -0.10825549 0.25753802
0.2013649 -0.10698376 0.25753799
-0.040841278 -0.093621075 0.25753799
0.02217707 -0.095749602 0.25753799
0.088197008 -0.095433302 0.25753799
-0.19486231 -0.070541188 0.25753799
0.2110056 -0.072194166 0.25753799
-0.0017452305 -0.065139636 0.25753799
-0.22806628 -0.058578003 0.25753799
0.20169699 -0.057292685 0.25753799
-0.22280283 -0.045984909 0.25753799
-0.20586783 -0.033582047 0.25753799
-0.037826575 -0.030861706 0.25753799
0.077570781 -0.039600622 0.25753799
-0.1623634 -0.028824605 0.25753799
0.14087354 -0.019754082 0.25753799
0.17313759 -0.014813319 0.25753799
0.22283772 -0.0084804147 0.25753799
-0.06969779 0.008960057 0.25753799
-0.059202 0.0071542859 0.25753799
0.11792155 9.5106661e-05 0.25753799
0.14525053 0.0015637055 0.25753799
-0.081243813 0.015463389 0.25753799
-0.11755851 0.03248848 0.25753799
-0.072380349 0.039464533 0.25753799
0.096068233 0.031287916 0.25753799
-0.20503601 0.049946852 0.25753799
-0.17601664 0.041129723 0.25753799
-0.11651061 0.050233848 0.25753799
0.14056334 0.05377318 0.25753799
-0.022388652 0.060949601 0.25753799
0.1748265 0.062989086 0.25753799
0.1900166 0.066766024 0.25753796
-0.23129877 0.081347942 0.25753799
-0.20841543 0.086329281 0.25753799
-0.036693372 0.092354044 0.25753799
-0.11890588 0.10838258 0.25753799
-0.051134877 0.10863212 0.25753799
0.15279061 0.10164955 0.25753799
-0.23647301 0.11328803 0.25721052
-0.22727764 0.11482938 0.25753799
0.11876631 0.110237 0.25753799
0.13533255 0.11482374 0.25753799
0.16181533 0.12040861 0.25753799
-0.16662447 0.13245267 0.25753799
0.019208267 0.13850732 0.25753799
-0.20762573 0.14387116 0.25753799
-0.13486543 0.15041843 0.25753799
-0.032951567 0.15589684 0.25753799
0.083934411 0.16741094 0.25753799
0.019501798 0.17490733 0.25753799
0.091512397 0.17204577 0.25753799
0.13628595 0.17159155 0.25753802
-0.10794681 0.18235393 0.25753799
0.076764628 0.21541123 0.25753799
-0.22009134 0.22601508 0.25753799
-0.11305793 0.2275328 0.25753799
-0.06414637 0.22974125 0.25753799
0.0036759526 0.23791623 0.25753799
-0.20621648 0.25465924 0.25753799
0.22632314 0.25852075 0.25753799
0.18019944 0.26380453 0.25753799
0.22398393 0.26479924 0.25753799
-0.14480534 0.27207199 0.25753799
-0.028186668 0.28916287 0.25753799
0.0068705902 0.28781289 0.25753799
-0.20507081 0.29104292 0.25753799
-0.074760102 0.29273662 0.25753799
0.16945897 0.29566556 0.25753799
0.19410096 0.30799082 0.25753799
0.20575632 0.30185443 0.25753799
-0.15863067 0.31721014 0.25753799
-0.1263856 0.31262684 0.25753799
-0.11631292 0.31074214 0.25753799
-0.063086361 0.3178888 0.25753799
-0.034406133 0.31663477 0.25753799
-0.024345193 0.31551135 0.25753799
0.059963461 0.31699899 0.25753799
0.064291373 0.31282631 0.25753799
-0.089384899 0.32513607 0.25753799
-0.19047207 0.33698282 0.25753799
-0.03848128 0.33019316 0.25753799
0.10698539 0.3321479 0.25753799
0.13345516 0.33666074 0.25753799
0.15821274 0.33873791 0.25753799
-0.023857981 0.34372777 0.25753799
0.072932214 0.34336773 0.25753799
0.10383949 0.34016538 0.25753799
-0.17090167 0.35606939 0.25753799
-0.12966013 0.35742801 0.25719267
0.067785673 0.35742801 0.25727966
0.1516391 0.35742801 0.25544977
0.17779389 0.35226142 0.25753799
0.19585979 0.35742801 0.25434929
