# .PCD v0.7 - Point Cloud Data file format
VERSION 0.7
FIELDS x y z
SIZE 4 4 4
TYPE F F F
COUNT 1 1 1
WIDTH 973
HEIGHT 1
VIEWPOINT 0 0 0 1 0 0 0
POINTS 973
DATA ascii
-0.21755134 -0.293605 -0.28118324
-0.049441174 -0.293605 -0.2811425
0.18728755 -0.29235142 -0.28203341
-0.13905615 -0.2863993 -0.28231299
0.026759475 -0.2813186 -0.28231299
0.11320849 -0.28012815 -0.28231299
0.25489116 -0.2896322 -0.28231299
-0.28762153 -0.26885659 -0.28231299
-0.18632329 -0.26314548 -0.28231299
-0.1699031 -0.26470962 -0.28231299
-0.14799441 -0.26864812 -0.28231299
0.20830387 -0.2646111 -0.28231299
-0.28876546 -0.25658783 -0.28231299
-0.14303173 -0.25035718 -0.28231299
-0.054725721 -0.2483241 -0.28231299
0.051332057 -0.24114108 -0.28231299
0.11342248 -0.24060889 -0.28231299
-0.24321772 -0.23184089 -0.28231299
0.059489913 -0.23087612 -0.28231299
0.082286686 -0.23797765 -0.28231299
0.11256315 -0.22059152 -0.28231299
-0.069736905 -0.21114255 -0.28231299
-0.034104109 -0.21672155 -0.28231299
0.19638827 -0.21132962 -0.28231299
-0.27385885 -0.20433085 -0.28231299
-0.21230108 -0.2022649 -0.28231299
-0.19870758 -0.20169576 -0.28231299
0.14387657 -0.20647061 -0.28231299
-0.10443312 -0.19725206 -0.28231299
0.084723078 -0.19957893 -0.28231299
0.16846351 -0.19234949 -0.28231299
0.17454828 -0.19275546 -0.28231299
-0.27844924 -0.18728869 -0.28231299
-0.11201685 -0.18556941 -0.28231299
-0.025867842 -0.18154815 -0.28231299
0.18476515 -0.18871941 -0.28231299
0.23926461 -0.18064262 -0.28231299
-0.14176941 -0.1763328 -0.28231299
-0.20769079 -0.16703965 -0.28231299
-0.26080498 -0.15098275 -0.28231299
-0.10217562 -0.15380053 -0.28231299
0.25101313 -0.14405221 -0.28231299
0.032248922 -0.13939568 -0.28231299
-0.19778337 -0.12677372 -0.28231299
0.0072417781 -0.12838183 -0.28231299
-0.16524981 -0.11512138 -0.28231299
-0.11287476 -0.11238835 -0.28231299
-0.093256786 -0.11401437 -0.28231299
0.10871604 -0.10873388 -0.28231299
0.2090826 -0.092746235 -0.28231299
-0.22943789 -0.088801473 -0.28231299
-0.0054087751 -0.08645235 -0.28231299
0.11481693 -0.078205451 -0.28231299
-0.26765504 -0.063101143 -0.28231299
-0.096435666 -0.062915057 -0.28231299
0.066658586 -0.066724323 -0.28231299
0.14201301 -0.060322888 -0.28231299
0.16592321 -0.062009003 -0.28231299
0.18885732 -0.069198377 -0.28231299
0.21254897 -0.068798386 -0.28231299
-0.17389393 -0.052886363 -0.28231299
-0.11658578 -0.056522921 -0.28231299
-0.10037173 -0.05362162 -0.28231299
-0.033623874 -0.055252761 -0.28231299
-0.010056049 -0.058690391 -0.28231299
0.0010041147 -0.050296694 -0.28231299
-0.2871435 -0.042432547 -0.28231299
-0.1450091 -0.043052107 -0.28231299
-0.13411739 -0.036111452 -0.28231299
-0.12760124 -0.031332448 -0.28231299
-0.053767107 -0.038513348 -0.28231299
0.014380708 -0.031461596 -0.28231299
0.02655223 -0.038540587 -0.28231299
0.16393352 -0.030996641 -0.28231299
0.21569863 -0.03206443 -0.28231299
0.079590656 -0.029065907 -0.28231299
0.092311032 -0.022153065 -0.28231299
-0.029589586 -0.011085376 -0.28231299
0.033203647 -0.013956599 -0.28231299
0.12770452 -0.019737437 -0.28231299
-0.21758461 -0.0067123771 -0.28231299
-0.14178464 0.012914043 -0.28231299
-0.041929968 0.014812656 -0.28231299
0.15041095 0.012111165 -0.28231299
0.267407 0.015013396 -0.28110784
-0.041577645 0.020994261 -0.28231299
0.03288082 0.024155751 -0.28231299
-0.14145714 0.037430864 -0.28231299
0.0069573373 0.033462517 -0.28231299
0.12127573 0.035074107 -0.28231299
-0.26692879 0.04080341 -0.28231299
-0.24580796 0.047972985 -0.28231299
-0.030232163 0.041024555 -0.28231299
0.032744333 0.047020551 -0.28231299
-0.27233461 0.051597416 -0.28231299
-0.11684468 0.051257338 -0.28231299
0.0094892289 0.050090291 -0.28231299
0.072560258 0.058862001 -0.28231299
-0.16416475 0.066237107 -0.28231299
-0.046866044 0.069088608 -0.28231299
-0.27949589 0.075546421 -0.28231299
-0.2467311 0.073401317 -0.28231299
-0.21155676 0.075135514 -0.28231299
0.0060105491 0.079536393 -0.28231299
0.0639899 0.079300411 -0.28231299
-0.25159785 0.086838901 -0.28231299
-0.15503797 0.082869425 -0.28231299
-0.082401074 0.093823843 -0.28231299
-0.14101672 0.10882176 -0.28231299
0.093993865 0.10387832 -0.28231299
0.13020024 0.10529838 -0.28231299
0.17822787 0.1013118 -0.28231299
-0.2338846 0.11170015 -0.28231299
-0.22675957 0.11108821 -0.28231299
-0.13299572 0.11509936 -0.28231299
0.034214061 0.11652994 -0.28231299
-0.059640855 0.12988995 -0.28231299
-0.079648532 0.13650844 -0.28231299
-0.066004582 0.13017046 -0.28231299
0.076325417 0.13358596 -0.28231299
-0.25399211 0.14337912 -0.28231299
0.048596986 0.14173563 -0.28231299
0.07880941 0.14537482 -0.28231299
-0.097916439 0.15009695 -0.28231299
0.020823952 0.15113039 -0.28231299
0.26148459 0.1528648 -0.28231299
-0.14331734 0.16887289 -0.28231299
-0.084338129 0.16664365 -0.28231299
0.078775957 0.16462812 -0.28231299
0.21941863 0.16175842 -0.28231299
-0.070340402 0.1729129 -0.28231299
0.019725487 0.17995295 -0.28231299
0.22154547 0.17881036 -0.28231299
0.25618359 0.17231089 -0.28231299
-0.17257212 0.18954097 -0.28231299
0.16137621 0.18222851 -0.28231299
0.18452306 0.18177348 -0.28231299
-0.26352677 0.19049786 -0.28231299
-0.23780999 0.19754319 -0.28231299
-0.13387497 0.19713707 -0.28231299
0.0031127781 0.1983363 -0.28231299
0.047992729 0.19008419 -0.28231299
-0.28963727 0.20529863 -0.28231299
-0.2749427 0.20354971 -0.28231299
-0.091217965 0.20466302 -0.28231299
-0.23836274 0.21549682 -0.28231299
-0.15240231 0.21753792 -0.28231299
-0.289691 0.22340915 -0.28091723
-0.23095429 0.22739244 -0.28231299
-0.20763522 0.22679767 -0.28231299
-0.12527017 0.22413954 -0.28231299
0.19655623 0.22453341 -0.28231299
0.26382941 0.22621122 -0.28231299
0.011173502 0.23468089 -0.28231299
-0.16297865 0.24091375 -0.28231299
-0.11733732 0.2426402 -0.28231299
0.0032634921 0.24499023 -0.28231299
-0.22506523 0.25579959 -0.28231299
-0.13950661 0.25013566 -0.28231299
0.082113303 0.25610837 -0.28231299
0.20675133 0.25325251 -0.28231299
0.267407 0.25610355 -0.2812261
-0.093942493 0.26188779 -0.28231299
0.16193432 0.26420555 -0.28231299
-0.23070006 0.27094534 -0.28231299
0.0065394789 0.27237487 -0.28231299
0.094940871 0.27327088 -0.28231299
0.14266135 0.2780357 -0.28231299
-0.14841683 0.28022259 -0.28231299
-0.11265314 0.28767031 -0.28231299
0.00033217669 0.28266865 -0.28231299
-0.10159211 0.293605 -0.28222129
0.018290997 0.293605 -0.28150693
0.14164054 0.2926341 -0.28231299
-0.23235863 -0.29360503 -0.27125436
-0.074809 -0.293605 -0.27796167
-0.289691 -0.050809853 -0.27617878
0.267407 0.10758694 -0.27739549
-0.28969097 0.1388579 -0.27599332
-0.15238188 0.293605 -0.27614814
-0.058408055 0.293605 -0.27739564
0.023172207 -0.293605 -0.2646105
-0.289691 -0.25494936 -0.26467907
-0.289691 -0.243246 -0.26179326
-0.289691 0.022355586 -0.26801634
0.267407 0.059800714 -0.26020032
0.267407 0.063901879 -0.26618263
-0.289691 0.21945785 -0.26326081
0.267407 0.25337681 -0.26870489
0.267407 0.28205702 -0.26152053
-0.028141275 0.293605 -0.26818231
0.0090922788 0.293605 -0.26409149
-0.18365261 -0.293605 -0.25445229
-0.13048899 -0.293605 -0.25929967
0.074298881 -0.293605 -0.25752485
0.14130692 -0.293605 -0.25666809
0.19380155 -0.293605 -0.2555297
-0.289691 -0.26225194 -0.2513898
-0.289691 -0.076626606 -0.25209528
0.267407 -0.022356398 -0.25406328
-0.289691 -0.012472667 -0.25037342
0.267407 0.16655713 -0.25247774
-0.062219232 0.293605 -0.25220734
0.16177666 0.293605 -0.25074714
0.267407 0.29174554 -0.25400591
-0.033813246 -0.293605 -0.24480942
0.267407 -0.18819121 -0.24369501
0.267407 -0.11242598 -0.24788925
-0.289691 -0.10571883 -0.2462697
-0.28969103 -0.02075015 -0.24719597
-0.28969103 0.082228564 -0.24682131
-0.18407595 0.293605 -0.24397396
-0.11716589 0.293605 -0.24106079
-0.047054723 -0.293605 -0.23012078
-0.289691 -0.2071121 -0.23597263
0.267407 -0.19978853 -0.23954453
0.267407 -0.15431906 -0.23058847
-0.22182012 0.293605 -0.23853664
-0.040236935 0.293605 -0.23443884
0.1339175 0.293605 -0.23325936
-0.28969103 -0.29104316 -0.22287875
-0.14890461 -0.293605 -0.22577304
0.19367538 -0.293605 -0.22466122
0.26596531 -0.293605 -0.22711203
-0.289691 -0.25211212 -0.22987901
0.267407 -0.14081003 -0.22264177
-0.289691 0.021649629 -0.22748069
-0.289691 0.12053183 -0.22865853
0.267407 0.14640646 -0.22628896
0.267407 0.16513421 -0.22834006
-0.28969103 0.19567695 -0.22267224
-0.18613611 0.293605 -0.22722241
-0.12592486 0.293605 -0.22689386
0.11755113 0.293605 -0.22802188
0.15650748 0.293605 -0.22643398
-0.22723 -0.293605 -0.21457076
-0.20907904 -0.293605 -0.21414122
-0.12802455 -0.293605 -0.21556948
0.032871217 -0.293605 -0.21662188
0.25982869 -0.293605 -0.21410203
-0.289691 -0.27316982 -0.2190064
0.267407 -0.21603191 -0.21811379
0.267407 -0.20054719 -0.21587467
-0.289691 -0.045482501 -0.21446884
-0.289691 0.021872312 -0.21935391
-0.289691 0.14400822 -0.2140772
0.267407 0.14319782 -0.21354339
-0.289691 0.1598348 -0.21949685
0.267407 0.26785442 -0.21021104
-0.27839676 0.29360503 -0.21486184
-0.24449328 0.293605 -0.219496
-0.18398982 0.29360503 -0.21547809
-0.19555068 -0.293605 -0.2044439
-0.289691 0.00037607551 -0.20660645
-0.289691 0.11194807 -0.20529701
-0.289691 0.17785832 -0.20781577
-0.0061949231 0.293605 -0.20612293
-0.078964561 -0.293605 -0.19489455
0.2006925 -0.293605 -0.19736683
-0.289691 -0.19051889 -0.1905454
-0.289691 -0.047623523 -0.19368255
-0.289691 0.022680566 -0.19295835
-0.289691 0.045422509 -0.19089508
-0.289992 0.15939976 -0.19101691
-0.053176299 0.293605 -0.19652911
-0.037564509 0.293605 -0.19235802
0.088292256 0.293605 -0.19818549
0.19720244 0.293605 -0.19235863
0.20448114 0.293605 -0.19179735
-0.17388844 -0.293605 -0.18005788
0.13199779 -0.293605 -0.18298979
0.24747531 -0.293605 -0.18183082
0.267407 -0.28310901 -0.18343571
-0.289691 -0.26342222 -0.18269551
-0.289691 -0.13343346 -0.18752229
0.267407 -0.05463668 -0.18597655
-0.289691 0.07701949 -0.18422455
-0.289691 0.092665255 -0.18425679
-0.289691 0.11532041 -0.1847454
0.267407 0.13419521 -0.1822117
0.267407 0.15784681 -0.18147236
-0.289992 0.18001452 -0.18594292
0.18057933 0.29360503 -0.18757352
0.2497426 0.293605 -0.18472037
-0.091878593 -0.293605 -0.17584082
-0.289691 -0.2719593 -0.17851704
-0.289691 -0.14017811 -0.17090754
0.267407 0.0090308152 -0.17227447
0.267407 0.01932035 -0.17433193
-0.289691 0.082520448 -0.17655666
-0.050211199 0.293605 -0.17485711
-0.18536523 -0.293605 -0.16622144
-0.16333446 -0.293605 -0.1698558
0.016597528 -0.293605 -0.16558614
0.267407 -0.22127783 -0.16265747
0.267407 0.0081897313 -0.16670145
-0.289691 0.013145894 -0.16075999
0.267407 0.055178568 -0.16815239
-0.289691 0.099926338 -0.16099425
-0.289691 0.18950658 -0.16308938
-0.289691 0.2133529 -0.16880196
-0.289691 0.29308355 -0.16872007
0.2307823 0.29360503 -0.16986252
-0.14574946 -0.293605 -0.15785164
0.267407 -0.25333017 -0.15752482
0.282464 -0.09424872 -0.15632039
0.282464 -0.084208809 -0.15170217
0.282464 -0.05573944 -0.15575075
-0.289691 0.0026914775 -0.15061787
-0.289691 0.070204698 -0.15751538
0.22656396 0.293605 -0.15737815
0.24033922 0.293605 -0.15642565
-0.078439489 -0.293605 -0.14448953
0.020760734 -0.293605 -0.14442924
0.15882687 -0.293605 -0.14804925
0.267407 -0.24803402 -0.14843772
-0.289691 -0.14798594 -0.14384733
0.27084959 -0.077077776 -0.14534125
0.27426744 -0.063693449 -0.14796747
0.282464 0.047711469 -0.14419745
0.267407 0.1945927 -0.13989618
-0.289691 0.21805976 -0.13274772
-0.23029694 0.29360503 -0.13385361
-0.0065528154 0.293605 -0.13466431
0.10662417 0.293605 -0.13500488
0.19192973 0.293605 -0.13237418
0.24805675 0.293605 -0.1362334
-0.15285319 -0.293605 -0.12947476
-0.14113307 -0.293605 -0.1269494
-0.059864394 -0.293605 -0.12924901
0.23854527 -0.293605 -0.12452954
0.289992 -0.044421405 -0.12370846
0.27064961 0.0204594 -0.12550972
0.282464 0.068917565 -0.12226707
0.267407 0.094418742 -0.12205328
-0.289691 0.16610375 -0.12471356
0.267407 0.19006898 -0.12926102
0.267407 0.2625671 -0.12510315
-0.289691 0.27671418 -0.12807979
-0.16169684 0.293605 -0.12031241
-0.020994559 0.293605 -0.12007029
0.20394394 0.293605 -0.12242299
-0.18264735 -0.293605 -0.1116127
0.12377788 -0.293605 -0.11327802
0.15533319 -0.293605 -0.11190462
0.267407 -0.17829378 -0.11647713
-0.289691 -0.10356628 -0.11149447
0.271431 -0.058589254 -0.11062763
-0.289841 -0.033389322 -0.11555806
0.286488 -0.034413796 -0.11264841
-0.289691 0.0086183511 -0.11461893
0.267407 0.17065606 -0.11826229
-0.14307569 0.29360503 -0.11732665
0.0050494075 -0.293605 -0.10858196
0.267407 -0.25516924 -0.10280333
0.27396011 -0.095004201 -0.10661429
-0.289691 -0.049493231 -0.10500169
0.267407 -0.043595776 -0.10263014
0.289992 -0.015261033 -0.10819833
-0.289691 -0.0083208196 -0.10340501
-0.289691 0.053265668 -0.10292659
0.267407 0.17159456 -0.10683414
-0.289691 0.2388901 -0.10137004
-0.289992 0.24695507 -0.10857836
0.10735376 0.293605 -0.10229833
0.18054196 0.293605 -0.1041258
-0.18718705 -0.293605 -0.091866128
-0.026401818 -0.293605 -0.09081319
0.023928538 -0.293605 -0.091899902
-0.289691 -0.26900491 -0.091652408
0.267407 -0.19797711 -0.091033578
-0.289691 -0.062994368 -0.092197463
-0.289691 -0.042878002 -0.097070836
-0.289691 -0.03813827 -0.097512141
-0.289691 -0.010573354 -0.09982121
0.267407 0.22258469 -0.090459764
-0.17331505 0.293605 -0.097715393
0.10267806 0.293605 -0.094861932
-0.2318189 -0.293605 -0.081521295
0.0071330965 -0.293605 -0.086370841
0.014281765 -0.293605 -0.081959456
0.11194009 -0.293605 -0.086986691
0.267407 -0.17377958 -0.083740816
-0.289691 -0.13825923 -0.085605502
0.267407 -0.0067185145 -0.088331029
-0.289691 0.020987153 -0.086266741
0.267407 0.061652824 -0.081328854
0.267407 0.13518342 -0.088334121
0.267407 0.18408112 -0.088817477
-0.289691 0.28105447 -0.087127641
-0.28139749 0.293605 -0.08262682
-0.039044693 0.293605 -0.080406763
0.12897313 0.293605 -0.082781009
0.020499475 -0.293605 -0.077904634
0.11639777 -0.293605 -0.071049571
0.12866254 -0.293605 -0.072434314
-0.289691 -0.062463868 -0.076941781
-0.289691 -0.051612973 -0.076647185
0.267407 -0.0040305308 -0.076862432
-0.289691 0.015479879 -0.070883758
0.267407 0.052046154 -0.073187791
-0.289691 0.12801564 -0.075775094
0.21055445 0.27102 -0.073557295
-0.21713492 0.29360503 -0.079144321
-0.1074647 0.293605 -0.070246182
-0.048033997 0.293605 -0.078947209
-0.25932205 -0.293605 -0.066214487
-0.063387118 -0.293605 -0.063711002
-0.289691 -0.28676814 -0.064252339
0.267407 -0.24596676 -0.068221882
-0.289691 -0.070410959 -0.068050079
-0.289691 0.02928111 -0.068775713
-0.289691 0.15619132 -0.061840113
-0.10276049 0.293605 -0.068425313
0.018852919 0.293605 -0.068745658
-0.187305 -0.293605 -0.058298267
0.17239569 -0.293605 -0.052198678
0.25238028 -0.293605 -0.059969902
0.267407 -0.22171764 -0.056899786
-0.289691 -0.12585381 -0.050956812
-0.289691 0.011149704 -0.050232448
-0.289691 0.15576445 -0.059214719
-0.289691 0.25100803 -0.058603227
0.230143 0.27925831 -0.058640238
-0.24665865 0.293605 -0.059146538
0.062241536 0.293605 -0.05942123
-0.24651678 -0.293605 -0.041814804
-0.21137986 -0.293605 -0.040603034
0.074549586 -0.293605 -0.042497955
0.18477273 -0.293605 -0.043085255
0.25212431 -0.293605 -0.041793294
0.267407 -0.27488065 -0.046233684
0.282464 -0.17974362 -0.045735326
-0.22474551 0.293605 -0.044855401
0.14630234 0.293605 -0.044583712
0.24883467 0.293605 -0.040576555
0.080649689 -0.293605 -0.032768566
0.20049031 -0.293605 -0.032334603
0.267407 -0.14351621 -0.030637557
0.267407 -0.0271255 -0.038241889
0.267407 -0.010725469 -0.033265669
0.267407 0.016843185 -0.034150116
0.282464 0.11458281 -0.031947624
-0.289691 0.13627332 -0.035587568
-0.289691 0.14977297 -0.036071606
-0.289691 0.20011944 -0.031138185
0.267407 0.24639723 -0.03792692
0.19250099 0.28863227 -0.032810219
-0.20685956 0.293605 -0.037612826
-0.062564611 0.293605 -0.036638632
-0.056056447 0.293605 -0.033449046
0.15114495 0.293605 -0.034079704
-0.2430537 -0.293605 -0.021868855
-0.22558174 -0.293605 -0.020267487
-0.17472889 -0.293605 -0.025745347
-0.03061951 -0.293605 -0.024221599
-0.020239577 -0.293605 -0.029305279
0.20077188 -0.293605 -0.027488008
-0.28969103 -0.28589347 -0.020439228
0.267407 -0.20641482 -0.027247302
-0.289691 -0.10203207 -0.029530458
-0.289691 0.049575299 -0.028915539
0.27434769 0.097290382 -0.024946926
0.267407 0.16684887 -0.029765498
-0.289691 0.18855745 -0.021927617
0.267407 0.19573583 -0.021779682
-0.289691 0.21032622 -0.022501975
0.19250099 0.27887845 -0.02457598
0.18841569 0.293605 -0.026476277
0.063804209 -0.293605 -0.011070676
-0.289691 -0.26673809 -0.017561689
-0.289691 -0.20460683 -0.014272116
-0.289691 -0.10555384 -0.011176333
-0.289691 -0.088494971 -0.012213692
-0.289691 -0.076783337 -0.019508846
0.267407 0.059444349 -0.01341225
-0.289691 0.12792407 -0.016936474
-0.2349409 0.293605 -0.018437952
0.18591249 0.293605 -0.012531329
-0.20053115 -0.293605 -0.0066547841
-0.18452823 -0.293605 -0.0022049397
0.20289806 -0.293605 -0.0094566718
-0.289691 -0.073238775 -0.0070770569
0.267407 0.00090612564 -0.00330697
-0.289691 0.11915527 -0.0016874894
-0.289691 0.14999267 -0.0037388355
-0.289691 0.26993933 -0.0066317357
0.03107059 0.293605 -0.0074033141
-0.22702074 -0.293605 0.0036751404
0.064520597 -0.293605 0.0062552392
0.267407 -0.23945038 0.0058317482
0.267407 -0.074905112 0.0038538417
0.267407 0.022009779 0.0048537217
0.267407 0.040809467 0.0055472739
0.282464 0.097918935 0.0098370798
0.267407 0.28166336 0.0031028041
-0.095632158 0.293605 0.0082065091
-0.082189046 0.293605 0.0072330385
0.17702252 0.293605 0.0097465422
-0.17456099 -0.293605 0.011056535
0.13410386 -0.293605 0.012745768
0.282464 -0.18738334 0.018074827
-0.289691 -0.17253676 0.014462449
0.267407 -0.032960124 0.012222104
-0.289691 -0.02546289 0.015550412
-0.289691 0.026007617 0.012752348
-0.289691 0.097785324 0.01380121
0.27794522 0.12109155 0.012968192
0.26752001 0.21243486 0.014896156
-0.065863021 0.293605 0.013745759
0.056076903 -0.293605 0.028362077
-0.289691 -0.25316527 0.026524633
-0.289691 -0.22329721 0.020317622
-0.289691 -0.19568126 0.022766985
-0.289691 -0.13693133 0.026709907
0.267407 -0.13345279 0.026334109
0.267407 -0.041186471 0.025402032
-0.289691 0.079543091 0.024506077
-0.289691 0.27413005 0.025176771
-0.23642775 0.293605 0.029247634
0.036446556 0.293605 0.021389151
0.267407 0.29052755 0.029759236
-0.15963015 -0.293605 0.033799939
0.26519936 -0.293605 0.037922271
-0.28969103 -0.27554208 0.036320977
0.267407 -0.20263442 0.036882348
0.267407 -0.18788207 0.036085971
0.282464 -0.17102525 0.030104294
0.282464 -0.16512766 0.039793123
0.267407 -0.13914695 0.031956092
0.267407 -0.12926251 0.033430032
-0.289691 0.0015451908 0.032818303
0.282464 0.094555706 0.030918892
0.267407 0.13882928 0.034864388
-0.289691 0.17416537 0.031407423
0.267557 0.26981232 0.038646478
-0.28077781 0.293605 0.033977106
0.23934335 0.293605 0.038104925
-0.18226156 -0.293605 0.042058535
-0.023722775 -0.293605 0.041252501
0.07798291 -0.29360497 0.047111906
0.18852644 -0.293605 0.041996896
0.267407 -0.26360995 0.047377653
0.267407 -0.11192748 0.047765255
-0.289841 -0.094440475 0.042265408
-0.289691 -0.087489679 0.041642539
-0.289691 0.060129695 0.04719843
0.27591988 0.11213631 0.047983423
-0.289691 0.2085934 0.041181512
0.267407 0.24291234 0.042930499
0.22575322 0.27102 0.045681752
0.12073069 0.293605 0.04796223
0.24754423 0.293605 0.049557075
-0.17255278 -0.293605 0.051042013
0.017023686 -0.293605 0.051984474
-0.289691 -0.26303479 0.054241776
0.267407 -0.077746674 0.055842318
-0.289691 0.016549431 0.051450264
-0.289691 0.024820587 0.05613111
0.282464 0.086146399 0.05981255
0.267407 0.21083078 0.050083824
-0.289691 0.24380478 0.059058681
-0.25751045 0.293605 0.058510553
-0.16342962 0.293605 0.050907463
-0.12459446 0.293605 0.059091039
-0.11602516 0.293605 0.051567033
-0.098931804 0.293605 0.059978232
-0.041632585 0.293605 0.054621045
0.11552326 0.293605 0.057926148
0.14246261 0.29360503 0.055992305
-0.18583259 -0.293605 0.064129613
-0.12930164 -0.293605 0.064768367
-0.289691 -0.28822216 0.069702119
0.27180773 -0.16917282 0.069534734
-0.289691 0.037568681 0.062193044
0.267407 0.033160832 0.060349822
-0.27900088 0.293605 0.063745312
-0.0082018711 0.293605 0.065853626
-0.27889812 -0.293605 0.076409265
-0.22227877 -0.293605 0.072384432
0.058976986 -0.293605 0.07149744
0.267407 -0.22849903 0.074794084
0.282464 -0.1433432 0.074158996
0.267407 -0.041174814 0.079161339
-0.289691 -0.035109594 0.073946208
-0.289691 -0.010042787 0.075587362
0.267407 0.037467033 0.076495148
0.282464 0.089171238 0.073932417
-0.26904905 0.293605 0.075805858
-0.15821281 0.293605 0.078944117
-0.12192141 0.293605 0.07817997
-0.289691 -0.17481121 0.088423938
0.267407 -0.16353489 0.086400166
-0.289691 -0.0067071579 0.086287841
-0.289691 0.16302983 0.083079994
-0.25138861 0.29360503 0.084604323
-0.20367604 0.293605 0.080309249
-0.11603424 0.293605 0.088464171
-0.035124965 0.293605 0.08760421
0.060178015 0.293605 0.085243635
0.22998151 0.293605 0.086056836
-0.23625565 -0.29360503 0.098836102
-0.22499046 -0.293605 0.092022642
-0.10785182 -0.293605 0.092153601
0.267407 0.28776613 0.090268388
-0.20610306 0.29360497 0.092228673
0.0082110874 0.293605 0.093220979
0.023737246 0.293605 0.096874565
-0.14603984 -0.293605 0.10745565
-0.04030316 -0.293605 0.10810062
0.04534822 -0.293605 0.10284805
0.267407 -0.21267436 0.10173415
0.267407 -0.19767728 0.10544301
-0.289691 -0.025010038 0.10513547
0.267407 -0.0069596246 0.10496003
0.28194565 0.072477795 0.10387114
0.267407 0.19839829 0.1051048
0.267407 0.25076011 0.10660908
-0.17243938 0.293605 0.1019159
0.037939664 0.293605 0.10659088
0.065502584 0.293605 0.10774191
-0.13529338 -0.293605 0.11346245
0.11730848 -0.293605 0.11491995
0.16475843 -0.293605 0.11616498
0.20868358 -0.293605 0.11856932
0.267407 -0.27431387 0.11207277
-0.289691 -0.26504448 0.11733443
0.267407 0.13886273 0.11671703
-0.289992 0.24336958 0.1166821
-0.289691 0.27470872 0.11253715
-0.17672774 0.293605 0.11770064
-0.15402272 0.293605 0.1113038
-0.074041784 -0.293605 0.12126419
0.16328716 -0.29360503 0.12299203
0.19184464 -0.293605 0.12120065
-0.289691 -0.23131262 0.1288271
-0.28969097 -0.19617909 0.12632369
0.267407 -0.13985424 0.12537298
0.27082223 0.037693452 0.12853728
0.267407 0.25107598 0.12927401
-0.16136526 0.293605 0.12368888
0.040447474 0.293605 0.12702957
0.11302155 0.293605 0.12055475
0.23115179 0.293605 0.12961178
0.12967922 -0.293605 0.13988248
-0.289691 -0.28082314 0.13352555
0.267407 -0.2489813 0.13005523
0.267407 -0.22795196 0.13344835
-0.289691 -0.20537719 0.1342963
0.267407 -0.18689908 0.13787395
-0.289691 0.044908121 0.13402197
-0.289691 0.14130855 0.13554204
0.267407 0.16432673 0.13842858
-0.289691 0.22326101 0.13556451
0.13502786 0.293605 0.13695936
0.18280745 0.293605 0.13930017
0.25346169 0.293605 0.13759235
-0.26995027 -0.293605 0.14257263
-0.18620551 -0.293605 0.14482486
0.047687776 -0.293605 0.14155835
0.17787877 -0.29360497 0.14550048
0.267407 -0.22882029 0.14374807
0.267407 -0.21154141 0.14941695
-0.289691 -0.07996586 0.14382984
0.282464 -0.010428692 0.14330874
-0.289691 -0.00028090179 0.14590159
0.27913553 -0.0017606053 0.14275737
0.267407 0.068418466 0.1475528
-0.083388165 0.293605 0.14648713
0.015833184 0.293605 0.14686202
0.049121879 0.293605 0.1496418
0.15871002 0.293605 0.14357193
0.18526381 0.293605 0.14959396
0.20030704 0.293605 0.14884906
-0.27439916 -0.293605 0.15821439
-0.25892285 -0.293605 0.1523242
0.267407 -0.22464493 0.15185481
0.267407 -0.075479597 0.15581696
-0.289691 0.15952855 0.15217699
0.267407 0.20495366 0.15799581
-0.289691 0.24759497 0.15747747
-0.21415505 0.293605 0.15549603
-0.16619794 0.293605 0.15701225
-0.099937662 0.293605 0.15508072
0.0015720651 0.293605 0.15014289
0.25636366 0.293605 0.15105785
0.267407 0.088767886 0.16959387
0.267407 0.093906403 0.16471995
-0.289691 0.17411911 0.1642777
0.267407 0.1913535 0.16313227
0.18526058 0.293605 0.16274746
-0.28002581 -0.293605 0.17887801
-0.18404126 -0.29360503 0.17280048
-0.15143757 -0.293605 0.17206657
0.1768166 -0.293605 0.17912339
-0.289691 -0.28709549 0.17008561
-0.289691 -0.27083671 0.17750525
0.267407 -0.23582438 0.17658068
0.267407 -0.21867478 0.17719956
-0.289691 -0.17512621 0.17025293
0.267407 -0.06249978 0.17354698
0.267407 -0.017399425 0.17451395
0.267407 0.0073617166 0.17294757
0.267407 0.12512343 0.17260562
-0.11552171 0.293605 0.17260887
0.099536166 0.293605 0.17012593
-0.24752641 -0.293605 0.182724
0.20750007 -0.293605 0.18816847
-0.289691 -0.13760059 0.18916401
0.267407 -0.097495176 0.18823957
0.267407 0.0056401417 0.18414283
-0.289992 0.160331 0.18994196
0.267407 0.23091847 0.18680198
-0.289691 0.27825329 0.18088856
-0.0034092963 0.293605 0.18279387
0.11730343 0.293605 0.18281013
0.14263779 0.293605 0.18708479
0.25479123 0.293605 0.18042769
-0.11748333 -0.293605 0.19026613
0.13185866 -0.293605 0.19273019
-0.289691 -0.25996718 0.19790761
0.267407 -0.17321764 0.19484955
-0.289691 -0.14501882 0.19805992
0.267407 0.031243406 0.19481903
0.267407 0.192279 0.19032586
0.267407 0.23393807 0.19630525
-0.28612858 0.293605 0.19844839
-0.2732147 0.293605 0.19705665
0.16138296 0.293605 0.19826162
0.19490807 -0.293605 0.20650338
-0.289691 -0.20915882 0.20235151
-0.289691 -0.16871133 0.20816278
-0.289691 0.019534364 0.20644364
0.267407 0.013925083 0.20835122
-0.289691 0.067913875 0.20395014
-0.289691 0.12507784 0.20982566
-0.28969097 0.16433619 0.20103887
0.267407 0.1749261 0.20402636
0.267407 0.28856814 0.20467329
-0.10642481 0.293605 0.20761637
0.15995945 0.293605 0.20982
-0.25760224 -0.293605 0.21575642
-0.14234145 -0.29360503 0.21105254
-0.289691 -0.24683431 0.21178988
-0.289691 -0.019461513 0.21852134
0.267407 0.11188677 0.21939845
-0.289691 0.13236219 0.21225826
-0.289691 0.168561 0.21905869
-0.289691 0.27309072 0.2113529
0.11900885 0.293605 0.21157253
0.12204239 0.293605 0.21669669
0.25311053 0.293605 0.21892786
0.26316413 -0.29360503 0.2293793
0.267407 -0.23618445 0.22847514
0.267407 -0.060889844 0.22732848
0.267407 -0.058340229 0.22269326
-0.289691 0.091365561 0.22830801
0.19728689 0.293605 0.22765172
0.20569289 0.293605 0.22671825
-0.095114112 -0.293605 0.23460984
0.14654189 -0.29360503 0.23085074
-0.289691 -0.20794977 0.23913069
-0.289691 -0.16887659 0.23132673
-0.289691 -0.052460797 0.23519421
0.267407 -0.055038005 0.23451477
-0.289691 -0.039083533 0.2371494
-0.289691 0.008674264 0.23366708
-0.289691 0.12032019 0.23521952
0.267407 0.15325466 0.23445144
-0.289691 0.17884605 0.23215893
0.267407 0.19438504 0.23473015
0.267407 0.21047916 0.23136781
-0.26510555 0.293605 0.23712884
-0.16308008 0.293605 0.23944706
0.17056611 0.293605 0.23540793
0.26240864 0.293605 0.2397396
-0.12021953 -0.293605 0.24256639
-0.10510732 -0.293605 0.243927
0.11904836 -0.293605 0.24455746
-0.289691 0.21808392 0.24855986
0.267407 0.24910204 0.24353887
-0.18424062 0.293605 0.24455656
-0.11611129 0.293605 0.24276245
-0.072769061 0.293605 0.24775872
0.267407 0.2920863 0.24406916
0.24990517 -0.293605 0.25960526
0.267407 -0.27619228 0.25581181
0.267407 0.029998742 0.25050947
-0.289691 0.12026884 0.25043765
0.267407 0.13168228 0.25763142
0.010803789 0.293605 0.25234416
-0.19145823 -0.293605 0.26314551
-0.17136525 -0.293605 0.2657612
-0.074359283 -0.293605 0.26538831
-0.025119044 -0.293605 0.26612109
0.013021124 -0.293605 0.26584995
0.267407 -0.21194409 0.26641354
0.267407 -0.10673188 0.26169455
0.267407 0.10617696 0.26778737
0.267407 0.17309459 0.26000595
-0.10689835 0.293605 0.26244748
0.063599616 0.293605 0.26997817
-0.095509611 -0.293605 0.27617991
0.267407 -0.28503224 0.27779528
-0.28969097 -0.23670262 0.27976695
0.267407 -0.22196612 0.27553844
-0.289691 -0.21814479 0.27498186
0.267407 -0.15740414 0.27268475
-0.289691 -0.1085301 0.27949387
0.267407 0.015959725 0.27498955
-0.28969097 0.054434165 0.27966714
-0.289691 0.10089942 0.27543682
0.267407 0.1011845 0.27305862
0.267407 0.14614724 0.27230969
-0.28969097 0.17303339 0.27127141
-0.17272504 0.293605 0.27887136
0.088234693 0.293605 0.27160901
-0.052215029 -0.293605 0.28078598
0.14815281 -0.29195127 0.28231299
-0.092065573 -0.27789477 0.28231299
0.15763463 -0.27268666 0.28231299
0.059401684 -0.26835743 0.28231299
0.06590315 -0.26269335 0.28231299
0.1266541 -0.26610932 0.28231299
0.0080605596 -0.25255752 0.28231299
0.20893334 -0.25338513 0.28231299
-0.289691 -0.24248448 0.28056684
-0.27538779 -0.24861023 0.28231299
0.18333903 -0.24521248 0.28231299
-0.22384459 -0.23008943 0.28231299
0.085414112 -0.23784392 0.28231299
0.11322152 -0.23525412 0.28231299
0.14194213 -0.23764403 0.28231299
-0.24808092 -0.22149731 0.28231299
-0.055981621 -0.22757006 0.28231299
-0.25192624 -0.21214925 0.28231299
-0.21603462 -0.21561716 0.28231299
-0.02052179 -0.21270289 0.28231299
-0.19518018 -0.20896704 0.28231299
0.15512875 -0.2015039 0.28231299
-0.097222432 -0.19987647 0.28231299
0.0022620857 -0.19750142 0.28231299
-0.289691 -0.18967339 0.28016976
-0.060894892 -0.18841332 0.28231299
0.075565435 -0.18402787 0.28231299
0.13018782 -0.18181308 0.28231299
0.058099274 -0.17517814 0.28231299
-0.14392832 -0.16320893 0.28231299
0.048903219 -0.16262957 0.28231299
0.10430437 -0.16867137 0.28231299
-0.10149091 -0.15173823 0.28231299
-0.02726844 -0.15273026 0.28231299
0.19158313 -0.15366985 0.28231299
-0.14165549 -0.14378442 0.28231299
-0.1010946 -0.14520626 0.28231299
-0.057334632 -0.14810446 0.28231299
-0.013461515 -0.14473079 0.28231299
0.21617815 -0.1451295 0.28231299
0.090373687 -0.13372776 0.28231299
-0.013109036 -0.12444467 0.28231299
0.12239198 -0.1296038 0.28231299
0.22800739 -0.12687962 0.28231299
-0.25576234 -0.11517136 0.28231299
-0.13511893 -0.11113571 0.28231299
-0.0463835 -0.11890271 0.28231299
-0.027310189 -0.11465582 0.28231299
0.050793938 -0.11275538 0.28231299
0.08387702 -0.11813541 0.28231299
-0.20712654 -0.10799029 0.28231299
0.086753935 -0.10169794 0.28231299
0.12697482 -0.10485073 0.28231299
0.16919592 -0.10957861 0.28231299
-0.21734032 -0.096818715 0.28231299
-0.20258388 -0.099919669 0.28231299
-0.18757342 -0.091198623 0.28231299
0.22753152 -0.094066516 0.28231299
-0.2607612 -0.07865236 0.28231299
0.056662649 -0.077313796 0.28231299
0.055078216 -0.068246908 0.28231299
0.12815519 -0.068318106 0.28231299
-0.10622221 -0.053701133 0.28231299
-0.008330496 -0.05794521 0.28231299
0.023970257 -0.048118226 0.28231299
-0.018160105 -0.03368175 0.28231299
-0.23611 -0.025350966 0.28231299
-0.082461722 -0.026924007 0.28231299
-0.23894063 0.0058767945 0.28231299
0.14605051 0.00072477013 0.28231299
0.23823401 0.0066632479 0.28231299
-0.26187083 0.017856441 0.28231299
-0.091600731 0.013531931 0.28231299
-0.24950412 0.023548534 0.28231299
-0.18552947 0.026687287 0.28231299
-0.12849939 0.028938405 0.28231299
-0.24760041 0.032417677 0.28231299
-0.11898181 0.033785518 0.28231299
-0.083005168 0.038277693 0.28231299
0.23798631 0.039576299 0.28231299
-0.2006723 0.041263998 0.28231299
-0.089475065 0.041028243 0.28231299
-0.042833183 0.047166888 0.28231299
0.21950161 0.045325466 0.28231299
-0.21283057 0.053616311 0.28231299
-0.15585552 0.051102795 0.28231299
-0.26976621 0.068137243 0.28231299
-0.10816891 0.065387495 0.28231299
0.22679353 0.061848037 0.28231299
0.23459744 0.068375081 0.28231299
-0.11359207 0.070914164 0.28231299
-0.090001024 0.072785847 0.28231299
0.12220805 0.073317192 0.28231299
0.13534531 0.074606329 0.28231299
0.13379523 0.084951863 0.28231299
-0.11215736 0.094325237 0.28231299
-0.20192499 0.10880168 0.28231299
-0.096640728 0.10555511 0.28231299
0.021636058 0.10989361 0.28231299
-0.15942529 0.11818127 0.28231299
-0.14399739 0.11851846 0.28231299
0.13632365 0.11536372 0.28231299
-0.25573844 0.12355942 0.28231299
-0.17307141 0.12685749 0.28231299
-0.11756158 0.12511846 0.28231299
-0.098088153 0.12244282 0.28231299
-0.025995128 0.12213241 0.28231299
0.016769782 0.12513255 0.28231299
0.026385114 0.12191062 0.28231299
-0.23943838 0.13529764 0.28231299
-0.22599411 0.13349375 0.28231299
0.12376164 0.13030542 0.28231299
0.15135686 0.13340279 0.28231299
0.25407904 0.13107629 0.28231299
-0.10298739 0.146607 0.28231299
-0.26327372 0.15217298 0.28231299
-0.11042473 0.1550366 0.28231299
-0.046407916 0.15174049 0.28231299
-0.011686578 0.15754339 0.28231299
0.0067355856 0.15727201 0.28231299
0.097321913 0.15677303 0.28231299
-0.16433561 0.16185042 0.28231299
-0.12971704 0.16978955 0.28231299
-0.065638274 0.1703753 0.28231299
-0.05508516 0.17859417 0.28231299
0.21928953 0.17754087 0.28231299
-0.10223185 0.1822418 0.28231299
-0.005045779 0.18357606 0.28231299
-0.23889618 0.19913718 0.28231299
0.036154941 0.19602102 0.28231299
0.24858309 0.19032271 0.28231299
-0.24753068 0.20918682 0.28231299
-0.10372781 0.20273341 0.28231299
0.23197028 0.20015082 0.28231299
0.25611421 0.20829567 0.28231299
-0.066042475 0.21863052 0.28231299
0.073552452 0.2181232 0.28231299
0.17751889 0.21670024 0.28231299
0.24966413 0.21372794 0.28231299
0.04538998 0.22245358 0.28231299
0.22275752 0.22598769 0.28231299
-0.18227048 0.23262863 0.28231299
-0.15862739 0.24149658 0.28231299
-0.047500461 0.25842279 0.28231299
0.053760037 0.25781149 0.28231299
0.11258751 0.25215775 0.28231299
0.12900431 0.2540758 0.28231299
-0.28886583 0.26666415 0.28231299
0.15771915 0.26752564 0.28231299
-0.15653583 0.27040932 0.28231299
-0.13282219 0.27547798 0.28231299
0.10221192 0.27698976 0.28231299
-0.21644032 0.293605 0.28122595
-0.10771237 0.293605 0.28166234
-0.08016412 0.29108337 0.28231299
