# .PCD v0.7 - Point Cloud Data file format
VERSION 0.7
FIELDS x y z
SIZE 4 4 4
TYPE F F F
COUNT 1 1 1
WIDTH 979
HEIGHT 1
VIEWPOINT 0 0 0 1 0 0 0
POINTS 979
DATA ascii
-0.2147477 -0.3542574 -0.24631301
0.071836919 -0.35485214 -0.24631301
0.15712896 -0.35570884 -0.24631301
-0.11908731 -0.34407994 -0.24631301
0.012999232 -0.34997225 -0.24631301
0.058833607 -0.34276366 -0.24631301
0.1398875 -0.3488099 -0.24631301
-0.13884746 -0.33629036 -0.24631301
-0.068804502 -0.33303124 -0.24631301
0.16392916 -0.32540208 -0.24631301
0.17816095 -0.32045555 -0.24631301
0.18900816 -0.32035309 -0.24631301
-0.23654205 -0.31101179 -0.24631301
-0.11731033 -0.30296987 -0.24631301
-0.056225952 -0.30416417 -0.24631301
-0.048436899 -0.30073166 -0.24631301
0.094535261 -0.30211899 -0.24631301
-0.077757142 -0.29295036 -0.24631301
0.13016556 -0.29677317 -0.24631301
-0.086066708 -0.28051689 -0.24631301
0.22440143 -0.28300521 -0.24631301
0.20866847 -0.2619738 -0.24631299
-0.242873 -0.25045982 -0.24532729
0.12196214 -0.25031871 -0.24631301
-0.17616746 -0.24987686 -0.24631301
-0.019120082 -0.24836253 -0.24631301
-0.22838292 -0.23158963 -0.24631301
-0.18675721 -0.23401199 -0.24509525
-0.13767493 -0.23401201 -0.24549848
0.03245829 -0.23401201 -0.24096099
-0.21428709 -0.22318219 -0.24631301
-0.023143575 -0.22832826 -0.24631301
0.031518042 -0.22140691 -0.24631301
-0.16014037 -0.21457785 -0.24631301
0.1709411 -0.21493328 -0.24631301
0.060679153 -0.20037845 -0.24631301
0.10288204 -0.20765105 -0.24631301
0.11253827 -0.20315856 -0.24631301
0.16085637 -0.20898071 -0.24631301
0.13048063 -0.19204602 -0.24631301
0.22423479 -0.1850318 -0.24631299
-0.18043195 -0.17918774 -0.24631301
0.00030358136 -0.17550942 -0.24631301
-0.046117514 -0.16721675 -0.24631301
0.013538338 -0.16020447 -0.24631301
-0.099151768 -0.15793759 -0.24631301
-0.19888817 -0.14765604 -0.24631299
0.2019252 -0.13928065 -0.24631301
-0.19575754 -0.12146842 -0.24631301
-0.21078834 -0.11138615 -0.24631301
-0.19675452 -0.11137843 -0.24631301
0.07520996 -0.11186067 -0.24631301
0.1332249 -0.11044271 -0.24631301
0.15625986 -0.11769129 -0.24631301
0.19034827 -0.1188125 -0.24631301
-0.060179442 -0.10077988 -0.24631301
-0.01663192 -0.10209532 -0.24631301
0.035267472 -0.10954129 -0.24631301
0.13933599 -0.10503356 -0.24631302
0.20616157 -0.10750878 -0.24631301
0.220256 -0.10338852 -0.24631301
-0.21512297 -0.093302101 -0.24631301
-0.1254718 -0.097507015 -0.24631301
-0.05600848 -0.085817881 -0.24631301
0.22355396 -0.080460005 -0.24631301
-0.1991477 -0.073557995 -0.24631301
-0.17674136 -0.073238164 -0.24631301
-0.095154025 -0.07521148 -0.24631301
0.016887702 -0.060882285 -0.24631301
0.052250836 -0.060491592 -0.24631301
-0.22787857 -0.053717427 -0.24631301
-0.21380416 -0.057496861 -0.24631301
0.081666976 -0.046182673 -0.24631301
0.11458604 -0.045277748 -0.24631301
0.045742646 -0.03230609 -0.24631301
-0.19914457 -0.029111065 -0.24631301
-0.12815015 -0.029175647 -0.24631301
-0.06651549 -0.022091433 -0.24631301
-0.0085482169 -0.027781162 -0.24631301
0.098725364 -0.021575466 -0.24631299
-0.14137787 -0.014672518 -0.24631301
-0.24287298 -0.0082068741 -0.24601015
-0.14780906 0.0026005879 -0.24631301
-0.012764327 0.0099327564 -0.24631301
0.037657619 0.0047240257 -0.24631301
0.096519664 0.0096482188 -0.24631299
0.10402521 0.0006275773 -0.24631301
0.16359708 0.0026351511 -0.24631301
-0.13282338 0.0226316 -0.24631301
-0.06339065 0.025351807 -0.24631301
0.043450862 0.02002456 -0.24631301
0.1881032 0.020668797 -0.24631301
-0.022472341 0.030812234 -0.24631301
0.021973051 0.039927833 -0.24631302
0.038388193 0.031655781 -0.24631301
0.11260332 0.033433236 -0.24631301
-0.13459624 0.054067262 -0.24631301
0.093947552 0.053635072 -0.24631301
0.22574742 0.058763478 -0.24631301
-0.23326974 0.066666871 -0.24631301
-0.17588086 0.061416581 -0.24631301
-0.029399384 0.061137252 -0.24631301
0.013749219 0.068458162 -0.24631301
0.078773215 0.062020689 -0.24631301
0.18503892 0.063195512 -0.24631301
0.22655299 0.061751977 -0.24498115
-0.23413028 0.075764686 -0.24631301
-0.16671352 0.078734681 -0.24631301
-0.13755178 0.075130343 -0.24631301
0.17532545 0.077973336 -0.24631301
-0.19576803 0.087344415 -0.24631301
0.0046210857 0.08099629 -0.24631301
0.023294043 0.08949279 -0.24631301
-0.22752261 0.093618758 -0.24631301
0.010421604 0.11918851 -0.24631301
0.044654023 0.11690485 -0.24631301
0.025998229 0.12604322 -0.24631301
-0.061603144 0.13678521 -0.24631301
0.14792591 0.13617377 -0.24631301
0.18029065 0.13612273 -0.24631301
0.19858676 0.13631731 -0.24631301
-0.1404742 0.14586936 -0.24631301
0.077931508 0.14458336 -0.24631301
-0.21319056 0.15321 -0.24631301
-0.11495097 0.15693384 -0.24631301
-0.089361653 0.15243772 -0.24631301
0.18593433 0.15239702 -0.24631301
0.215721 0.15729165 -0.24631301
0.223068 0.15963912 -0.24631301
-0.23016512 0.16290089 -0.24631301
-0.16370919 0.16272146 -0.24631301
-0.050783094 0.17649037 -0.24631301
0.13214014 0.17063336 -0.24631301
0.16680187 0.18639284 -0.24631301
0.21867311 0.18388161 -0.24631301
0.052403152 0.19589692 -0.24631301
0.14130636 0.19382867 -0.24631301
0.20161897 0.19885871 -0.24631301
-0.21086165 0.20507893 -0.24631301
-0.17132527 0.2079789 -0.24631301
0.06256333 0.20599931 -0.24631301
0.10095129 0.20086318 -0.24631301
0.17232755 0.2086782 -0.24631301
0.18318257 0.20324039 -0.24631301
-0.242873 0.21841268 -0.24107596
-0.23042664 0.22778791 -0.24631301
-0.20282483 0.22033283 -0.24631302
-0.1641444 0.22942217 -0.24631301
-0.19187708 0.23568565 -0.24631302
-0.019040557 0.24326269 -0.24631301
0.045760274 0.24160618 -0.24631301
-0.014824022 0.25026214 -0.24631301
0.10550955 0.25956362 -0.24631301
-0.15665443 0.26925403 -0.24631301
0.03351729 0.26163563 -0.24631301
-0.21800593 0.28068176 -0.24631301
-0.18765594 0.28535357 -0.24631301
-0.079881802 0.28011873 -0.24631301
-0.023640387 0.28418064 -0.24631301
0.05391388 0.28657642 -0.24631301
0.10650098 0.2834568 -0.24631301
0.16393396 0.28784752 -0.24631302
0.054101687 0.29878172 -0.24631301
0.083544016 0.29284456 -0.24631301
0.16918802 0.29224065 -0.24631299
0.22447401 0.3071512 -0.24537399
0.094400182 0.31394166 -0.24631301
0.18417852 0.31501064 -0.24631301
-0.21716653 0.32909757 -0.24631301
-0.19942668 0.33953097 -0.24631301
-0.10082197 0.3348338 -0.24631301
-0.079874575 0.33281147 -0.24631301
-0.050146457 0.33688909 -0.24631301
0.0010784902 0.33094925 -0.24631301
-0.19366956 0.34660095 -0.24631301
-0.1892225 0.3445023 -0.24631301
-0.15825826 0.3421635 -0.24631301
0.079700105 0.34928221 -0.24631301
0.031865716 0.35737631 -0.24631301
0.19235833 0.35632038 -0.24631301
-0.24195985 0.36103001 -0.24614789
0.066797346 0.36103001 -0.24448007
0.075972155 -0.36103001 -0.2376422
-0.242873 -0.25239146 -0.2345088
-0.242873 -0.24708374 -0.23666456
-0.026031457 -0.23401199 -0.23383942
0.19565101 -0.23401201 -0.23092774
0.22655298 -0.23229845 -0.23631057
-0.24287298 -0.14756486 -0.23632711
0.22655299 -0.061522685 -0.23356006
-0.24287301 0.0025991821 -0.23554388
-0.24287301 0.19484144 -0.23696074
-0.242873 0.23811811 -0.23638847
0.22447398 0.28849483 -0.23690392
-0.089220792 0.36103001 -0.230694
-0.0078122988 -0.36103001 -0.22444129
0.053222746 -0.36102998 -0.22826102
-0.242873 -0.25818866 -0.22200504
-0.040030621 -0.23401198 -0.22850248
0.18629514 -0.23401199 -0.22840992
-0.24287301 -0.11954298 -0.22142747
0.22655299 -0.092785195 -0.22639948
-0.24287301 -0.017267108 -0.2227392
0.12795039 0.36103001 -0.22260731
0.13138175 0.36103001 -0.22131422
0.013240594 -0.36103001 -0.21197787
0.068317771 -0.36103001 -0.21537015
0.080092534 -0.36103001 -0.2165845
0.22655299 -0.32471278 -0.2194597
-0.11671492 -0.23401198 -0.21485609
-0.073153831 -0.23401198 -0.21338102
0.13950214 -0.23401199 -0.21211943
0.14424832 -0.23401201 -0.21707463
0.22655299 0.019156203 -0.21026993
-0.24287301 0.16975823 -0.21214226
-0.242873 0.22830217 -0.21474546
-0.24209656 0.36103001 -0.21525835
0.12656116 0.36103001 -0.21390516
-0.16108865 -0.36103001 -0.20813525
0.04097347 -0.36103001 -0.20954752
0.040580899 -0.23401198 -0.20355728
0.06525337 -0.23401199 -0.20984544
0.077659369 -0.23401201 -0.20210893
-0.242873 -0.11639982 -0.20376408
-0.24287298 -0.10854512 -0.20872462
-0.242873 -0.093595408 -0.20404162
0.22655299 -0.029413745 -0.20127916
-0.24287298 0.089335188 -0.20096329
0.22655299 0.098940961 -0.20159778
0.22655299 0.15683126 -0.20578806
-0.24287298 0.24470431 -0.20575896
0.228953 0.28270361 -0.20383644
0.04087314 0.36103001 -0.20980249
-0.1069437 -0.36103001 -0.19906163
-0.242873 -0.34421924 -0.19601285
0.22655299 -0.33901703 -0.19102196
0.22655299 -0.32529312 -0.193073
-0.242873 -0.24271187 -0.19460641
-0.16458759 -0.23401199 -0.19427752
-0.13593476 -0.23401199 -0.19150707
-0.0256451 -0.23401199 -0.19138233
0.10400356 -0.23401198 -0.19026656
-0.24287301 -0.039256021 -0.19323063
-0.242873 0.010570578 -0.19313231
0.22447401 0.29811677 -0.19500257
0.228953 0.32103354 -0.1999338
-0.24287301 0.35949016 -0.19687632
-0.077883095 0.36103004 -0.19742084
0.057664953 0.36103001 -0.19661318
0.16604747 0.36103004 -0.19109137
0.027496845 -0.36103001 -0.18934053
0.075298168 -0.36103001 -0.18651792
0.16434814 -0.36103001 -0.18118075
-0.242873 -0.33764428 -0.18937771
0.22655299 -0.33767527 -0.18379736
-0.0084606335 -0.23401198 -0.1802604
-0.242873 -0.15063927 -0.18351313
0.22655299 -0.14359388 -0.18796308
0.22655299 -0.025536962 -0.1816197
0.22655299 0.23277511 -0.18022552
0.22615786 0.27925482 -0.18303625
-0.2004654 0.36103001 -0.1844016
0.13974056 0.36103001 -0.18928994
0.15444577 0.36103001 -0.18539919
0.22655299 -0.27659529 -0.17602161
-0.24287301 -0.23147142 -0.17393845
-0.011787586 -0.23401199 -0.17169723
0.14213388 -0.23401199 -0.17076322
0.22655299 -0.20506515 -0.17079639
0.22655299 -0.11385075 -0.17680924
0.22655299 -0.050360929 -0.173133
0.22655299 0.086285174 -0.17543192
0.22655299 0.10979551 -0.17550619
0.22655299 0.23941199 -0.17859544
-0.242873 0.31199208 -0.17197408
-0.089304075 0.36102998 -0.17327707
-0.015452652 -0.36103001 -0.1630674
0.048226755 -0.36103001 -0.16121843
0.029911079 -0.23401201 -0.16898455
0.098509058 -0.23401198 -0.16360983
0.10604312 -0.23401198 -0.16572422
0.22655299 -0.13336383 -0.16311654
0.22655299 -0.11281693 -0.16846547
-0.17795095 0.36103001 -0.16968538
-0.23490515 -0.36103001 -0.15944853
-0.19847159 -0.36102998 -0.15585274
0.21563089 -0.36102998 -0.15594657
-0.24287301 -0.2604149 -0.15709725
-0.2425649 -0.23401199 -0.15287632
-0.12502524 -0.23401201 -0.15096729
0.22655299 -0.21622556 -0.15328956
-0.242873 -0.13172339 -0.15055445
-0.242873 -0.090255365 -0.15019852
0.22655299 0.067863695 -0.15602821
-0.242873 0.17454913 -0.15946773
0.22819318 0.30827677 -0.15498555
-0.17114103 0.36103001 -0.15782204
-0.14673445 -0.36103001 -0.14273098
-0.018669069 -0.23401198 -0.14026017
0.0047162771 -0.23401201 -0.14138983
0.10390083 -0.23401198 -0.14911377
0.22655299 -0.083967805 -0.1489701
-0.24287301 0.14716101 -0.14701167
0.22655299 0.14382082 -0.14002529
0.22655299 0.188041 -0.1439465
-0.24287298 0.1920809 -0.14128262
-0.24287301 0.33978671 -0.14513175
-0.24027002 0.36103001 -0.14332934
-0.1740834 0.36103001 -0.14013398
-0.10685508 0.36103001 -0.14906345
-0.05581389 0.36102998 -0.14615597
-0.013365015 0.36103004 -0.14265963
0.0082308128 0.36103001 -0.14844552
-0.029552629 -0.36103001 -0.13943541
-0.014647634 -0.36103001 -0.13457949
0.14987692 -0.36103004 -0.13216129
-0.24287301 -0.31705862 -0.13345967
-0.064282864 -0.23401199 -0.13742934
-0.24287298 0.0023815557 -0.13543066
0.22655299 0.078989774 -0.13683629
-0.242873 0.29666731 -0.13480198
-0.24186644 0.36103001 -0.13277169
-0.039564319 0.36103001 -0.13801245
0.0015631393 0.36103001 -0.13926488
0.014841381 0.36103001 -0.1309413
-0.043971732 -0.36103001 -0.12181959
0.10821928 -0.36103001 -0.12284343
-0.242873 -0.30479482 -0.12601191
0.22655301 -0.25666952 -0.12448111
0.076378912 -0.23401199 -0.12028453
-0.24287301 -0.19395556 -0.12392741
-0.242873 0.13273832 -0.12317655
-0.242873 0.33316761 -0.12184919
-0.063892245 0.36103004 -0.12828417
-0.012676857 0.36103001 -0.12468562
0.17374545 0.36103004 -0.12587121
0.22655299 -0.35030174 -0.11800253
-0.22937019 -0.23401201 -0.1117473
-0.17990474 -0.23401199 -0.11890577
-0.076020285 -0.23401201 -0.11452053
0.19516329 -0.23401199 -0.11512367
-0.24287298 -0.044962157 -0.11182544
-0.242873 0.059568759 -0.11721811
0.22655299 0.051152274 -0.11733645
-0.24287298 0.15883017 -0.11417565
-0.242873 0.18210845 -0.11403923
0.22655299 0.21160215 -0.11604092
-0.1773929 0.36103004 -0.1182776
-0.018824842 0.36103004 -0.11277533
0.00063423812 0.36103001 -0.11784051
0.10291792 0.36103001 -0.11694667
-0.1726824 -0.36103001 -0.10978356
-0.15244046 -0.36103001 -0.10448521
-0.242873 -0.26748314 -0.10577559
0.22655299 -0.25251412 -0.10090819
-0.098170236 -0.23401201 -0.10896812
0.22655299 -0.137484 -0.10665359
0.224474 0.25219157 -0.10862846
0.048338987 0.36103001 -0.10780086
-0.22635047 -0.36103001 -0.096454173
0.1416567 -0.36103004 -0.094061472
-0.24287301 -0.32828265 -0.098833032
0.027618129 -0.23401199 -0.093194842
0.074632697 -0.23401201 -0.097276926
-0.242873 -0.20216645 -0.090648502
0.22655299 -0.13937119 -0.098491266
0.22655299 0.18060295 -0.090922788
0.22447398 0.32249898 -0.094644956
0.0074059926 0.36103004 -0.095879845
-0.16382441 -0.36103001 -0.085517757
-0.10188452 -0.36103001 -0.083090872
0.22655299 -0.33658764 -0.084281102
-0.19913295 -0.23401199 -0.088443533
0.026117429 -0.23401198 -0.084692568
0.22655299 -0.16509646 -0.084573723
-0.24287301 -0.13873184 -0.084770776
-0.24287298 -0.12251553 -0.086915463
-0.242873 0.16656338 -0.086566605
-0.242873 0.18322006 -0.084022634
0.22447398 0.32910311 -0.089319661
-0.2249077 -0.36102998 -0.07881064
-0.047240928 -0.36103004 -0.071393088
0.00023462623 -0.36103001 -0.07478106
-0.024937503 -0.23401201 -0.075266197
0.029162219 -0.23401198 -0.072851449
0.22655301 -0.23409276 -0.078382932
0.20462799 -0.06166457 -0.074988335
-0.24287298 0.01858332 -0.070797235
0.22655299 0.19436347 -0.079258204
-0.24287301 0.24999136 -0.076672941
0.22735301 0.26991349 -0.070058547
0.22735301 0.29111576 -0.07412304
-0.18188749 0.36102998 -0.072485797
-0.041332573 0.36103001 -0.078027323
0.048647813 0.36103001 -0.070377499
0.09380284 0.36103001 -0.073252149
-0.24287301 -0.32558364 -0.061580673
0.22655299 -0.32209596 -0.061919332
-0.11049794 -0.23401199 -0.066112414
-0.055375047 -0.23401201 -0.06952136
-0.013933403 -0.23401199 -0.063033171
0.22619471 -0.23401201 -0.062004235
-0.24287301 -0.19836053 -0.061666049
0.22735301 -0.12389973 -0.069026999
-0.24287301 -0.010786057 -0.066887595
-0.242873 0.18021649 -0.066618152
0.22655299 0.18731031 -0.068090335
-0.24287298 0.24102363 -0.061228093
-0.24287298 0.3354457 -0.062379763
0.15855415 0.36103001 -0.061795957
-0.23583746 -0.36103001 -0.055901259
-0.24287301 -0.32939637 -0.059490163
0.22655299 0.12059446 -0.058725953
-0.24287298 0.13266617 -0.058556676
-0.242873 0.22830768 -0.053096294
0.22499186 0.26116699 -0.052031405
-0.24287301 0.27844581 -0.056974757
0.22735301 0.30624762 -0.05063175
0.11104365 0.36103004 -0.057608403
-0.041360904 -0.36103001 -0.043083839
-0.11282901 -0.23401198 -0.043001145
-0.0067865951 -0.23401201 -0.040245816
0.044808868 -0.23401199 -0.04619889
0.22655299 -0.22602683 -0.046726897
-0.24287298 -0.19700325 -0.048046827
0.22655299 -0.19413719 -0.047096252
-0.24287298 -0.022575926 -0.046880748
-0.084053919 0.36103001 -0.044984598
0.10216534 0.36103001 -0.045637786
-0.1088466 -0.36103001 -0.036319721
0.05421422 -0.36103001 -0.031163067
-0.242873 -0.35754555 -0.036463894
0.22655299 -0.25708053 -0.037300736
-0.10314302 -0.23401198 -0.03140175
0.0052789142 -0.23401198 -0.034231059
0.18316075 -0.23401199 -0.031756587
0.22539833 -0.23401199 -0.032207076
-0.24287301 -0.077745892 -0.038369365
-0.24287301 -0.060027611 -0.033184163
0.17424846 0.028230397 -0.035298184
-0.24287301 0.049366258 -0.039213605
-0.24287298 0.11226901 -0.031048767
0.22735301 0.30936107 -0.035166927
-0.041479819 0.36103004 -0.036086529
-0.16235237 -0.36102998 -0.024529288
-0.015003572 -0.36103001 -0.021366768
0.00018921518 -0.36103001 -0.025568336
0.18478304 -0.36103001 -0.0294246
0.21766084 -0.36102998 -0.020264894
-0.24287298 -0.34577304 -0.028211363
0.22655299 -0.29558212 -0.025295794
-0.23137347 -0.23401198 -0.028072573
-0.168139 -0.23401199 -0.027167514
-0.047791362 -0.23401201 -0.025228292
0.035059519 -0.23401199 -0.024906117
0.22735301 -0.15505998 -0.021376822
-0.24287298 -0.12255865 -0.023041919
-0.24287301 -0.063292518 -0.024681598
0.16639499 -0.045945358 -0.022826035
-0.24287301 0.056756906 -0.020206865
0.18966146 0.053232089 -0.026138632
0.22655299 0.17423384 -0.025778517
-0.22737333 0.36103001 -0.021966279
-0.13230315 0.36103001 -0.027847439
-0.12820692 0.36103004 -0.026957404
0.15880553 0.36103004 -0.029359192
0.19939765 0.36103001 -0.022051767
0.1633295 -0.36103001 -0.010160387
-0.24287301 -0.30752754 -0.017364949
-0.24287298 -0.13472857 -0.010884494
-0.242873 -0.030211605 -0.015451141
-0.242873 0.056520022 -0.014067673
-0.242873 0.10016035 -0.014897972
0.22655299 0.23032784 -0.012425333
-0.24287298 0.26364461 -0.011852846
0.22447401 0.35563856 -0.018007331
-0.23272939 0.36103001 -0.011126203
-0.17647132 0.36103001 -0.012041308
0.0082597584 -0.36103001 -0.0062059164
-0.24287298 -0.13067357 -0.0078129396
-0.242873 0.12222708 -0.0024861377
0.22655299 0.17665316 -0.0092782974
0.22655299 0.22005451 -0.0015578121
0.22735301 0.27780473 -0.0043551121
0.22735301 0.3269954 -0.0080718966
-0.18238327 0.36103001 -0.0056311935
0.064453766 0.36103001 -0.0061443225
0.14589287 0.36103001 -0.0032977164
0.16398031 0.36102998 -0.0038619991
0.053251848 -0.36102998 0.0080264658
-0.24287301 -0.25151175 0.0082942843
-0.23619041 -0.23401201 0.0092998147
0.22655299 -0.19385991 0.0039771348
-0.24287301 -0.096135639 0.00048154593
-0.24287298 -0.071673065 0.0092952624
-0.242873 -0.067922801 0.0018461645
0.16639499 0.01532439 0.0058098068
-0.24287298 0.18961348 0.0017394051
0.22655299 0.2024422 0.0052160695
-0.24287298 0.24132285 0.0014689267
0.22616529 0.347725 0.006871541
0.060271293 0.36103001 0.0026364177
0.14632128 0.36103001 0.00078858808
-0.10836796 -0.36103004 0.011124834
-0.24287301 -0.33063698 0.011120453
-0.24287298 -0.26448429 0.014260165
-0.0064756051 -0.23401199 0.012359515
0.06364809 -0.23401199 0.016160144
0.22655299 -0.23885834 0.012326993
0.22655299 -0.21312097 0.015704803
-0.242873 -0.15752345 0.011569217
-0.24287301 -0.13118851 0.011619382
-0.24287301 0.11065329 0.019424431
-0.24287301 0.17969406 0.014297072
0.22447398 0.3195014 0.01976119
0.22600245 0.34762239 0.014326
-0.076153249 0.36103001 0.017969288
-0.056854054 0.36103001 0.019632585
0.090473041 0.36102998 0.010646351
0.10857889 -0.36103001 0.028633386
0.14040168 -0.36103001 0.026003907
0.059980504 -0.23401198 0.022481518
0.081714079 -0.23401199 0.025786396
-0.242873 -0.020460226 0.027261421
-0.242873 -0.0057780398 0.028349098
0.16639499 0.011438833 0.027084168
0.22655299 0.12426974 0.026216105
-0.073156185 0.36103004 0.020293608
0.06276761 0.36103001 0.021145128
0.12090674 0.36103004 0.020239044
0.22655299 -0.35630786 0.032295078
-0.23774418 -0.23401199 0.032309867
-0.16630413 -0.23401199 0.033206206
-0.11035778 -0.23401199 0.035930119
-0.04422792 -0.23401199 0.035597786
-0.242873 -0.18812716 0.038539857
0.2213182 -0.13250755 0.034797184
0.19723448 -0.10933977 0.033676319
-0.242873 0.022601277 0.034888089
0.18586609 0.057193451 0.034627754
0.21794115 0.08821924 0.034867302
-0.242873 0.25954747 0.038473397
-0.24287298 0.27276751 0.035480045
-0.242873 0.29411429 0.039650396
-0.10495996 0.36103001 0.031049509
-0.09381526 0.36103001 0.031471834
-0.025214152 0.36103004 0.03441659
0.027616544 0.36103001 0.039446782
-0.22391954 -0.36103001 0.049952701
0.21413687 -0.36102998 0.046838984
0.22655299 -0.28861114 0.045232654
-0.19920862 -0.23401198 0.047418565
-0.056228757 -0.23401199 0.041179799
0.16639501 0.017678207 0.04101523
0.19516534 0.062679581 0.044705935
0.21191163 0.080986664 0.042510372
-0.24287298 0.176127 0.043449014
0.22655299 0.18019059 0.047206171
-0.24287301 0.21212041 0.042899974
-0.24287298 0.25443533 0.043995082
-0.24287298 0.29212737 0.04879266
0.0081079453 0.36103001 0.042022076
0.072291113 0.36103001 0.049796045
0.089541569 0.36103001 0.041919209
-0.18436179 -0.36103004 0.052021511
-0.075107373 -0.36103001 0.055620499
0.010814909 -0.36103001 0.054768197
-0.22129762 -0.23401199 0.052781098
-0.077172264 -0.23401199 0.052937225
0.22655299 -0.21488538 0.057887524
-0.24287301 -0.15044969 0.051813826
-0.242873 0.039293624 0.052768737
0.22655299 0.21910304 0.057172447
-0.242873 0.31943506 0.051416107
-0.067378186 0.36103001 0.053954393
0.0054050907 0.36103001 0.051130265
0.11676975 0.36102998 0.057121113
-0.037437361 -0.36103001 0.066906288
0.22655299 -0.35333025 0.06423676
-0.24287301 -0.30599567 0.066008389
0.22655299 -0.25641909 0.065168761
-0.24287301 -0.0044943541 0.06009537
-0.24287298 0.02193355 0.069267705
0.22655299 0.15746796 0.068102464
0.231354 0.30484396 0.060586754
-0.23432034 0.36102998 0.063377887
-0.20683412 0.36103001 0.061578304
-0.17188165 0.36103001 0.061844803
-0.16264243 0.36103001 0.060005568
0.19597118 0.36103001 0.06727241
-0.15120955 -0.36103001 0.075552948
-0.027989989 -0.36103001 0.074254163
-0.010709458 -0.36103001 0.074603893
0.17907009 -0.36103001 0.077148303
-0.242873 -0.19201194 0.074639328
-0.24287298 -0.14361615 0.078819729
0.19356361 -0.085518181 0.072214857
0.18285549 -0.069741249 0.072898284
-0.24287301 -0.052026033 0.072611779
0.22655299 0.14316824 0.077060528
-0.24287301 0.21727106 0.079892978
-0.24287301 0.26605138 0.076118499
0.231354 0.26726192 0.072088398
0.242873 0.329988 0.071837947
-0.24287298 0.34511024 0.071558423
0.224474 0.35113451 0.075432189
-0.068978399 0.36102998 0.078711316
0.052928291 0.36103001 0.07601729
0.098189659 0.36103001 0.07489083
0.17085223 0.36103001 0.070330709
0.0025222595 -0.36103001 0.089767449
-0.242873 -0.21717519 0.086296722
-0.242873 -0.14024062 0.084922291
0.22358179 -0.10910356 0.088806324
0.19509618 -0.077260189 0.081937753
-0.242873 -0.032074291 0.089325026
0.22655299 0.14546639 0.085403495
-0.21669595 0.36103001 0.080440633
0.10509887 0.36103001 0.082467146
-0.046423506 -0.36102998 0.094034635
0.031658739 -0.36103001 0.091734752
0.22655299 -0.2774941 0.095653392
-0.24287298 -0.0083509758 0.090593696
-0.242873 0.029272866 0.095359698
0.22735301 0.089200884 0.095913664
-0.19535248 0.36103001 0.091612086
-0.11142202 0.36103001 0.096559905
0.13286273 0.36103001 0.099555112
0.033477135 -0.36103001 0.10997114
0.22655299 -0.35115388 0.10233435
0.22655299 -0.3009662 0.10414582
-0.18694904 -0.23401201 0.10635385
0.22735301 -0.098625764 0.10508126
0.20065689 -0.021221057 0.10845868
0.22735301 0.078699276 0.10952322
-0.14114252 0.36102998 0.10000296
-0.17828889 -0.36103004 0.11494741
-0.080847539 -0.36103001 0.11928635
0.19128756 -0.36103001 0.11717109
-0.24287298 -0.34581915 0.11320527
-0.24259713 -0.23401199 0.11825798
-0.10370362 -0.23401199 0.11358513
0.0509101 -0.23401201 0.11277981
0.16730756 -0.23401201 0.11601597
-0.242873 -0.22735187 0.11097774
0.22655299 -0.22833799 0.11042237
0.22735301 0.07033629 0.11683466
-0.242873 0.11792638 0.11718497
-0.24287301 0.20921117 0.11540939
0.040552504 0.36103001 0.11582001
0.15900218 0.36103004 0.11978474
-0.20563373 -0.36102998 0.12645146
-0.17933869 -0.36103001 0.1253112
-0.053988997 -0.36103004 0.1240594
0.0049681412 -0.36103001 0.12497398
0.14115958 -0.36103001 0.12548894
0.22655299 -0.30789527 0.12514561
0.22655299 -0.27863821 0.12664342
-0.12445728 -0.23401199 0.12452423
0.14397639 -0.23401199 0.12657446
0.22655299 -0.14345941 0.12305527
-0.24287301 -0.063966736 0.12561387
0.21697587 -0.018647119 0.12410676
0.22735301 0.028832892 0.12281361
0.22735301 0.033538986 0.12012217
0.22655299 0.23889837 0.12504856
-0.24158762 0.36103001 0.12550421
0.017616589 0.36103001 0.12678729
-0.17908481 -0.36103001 0.13480628
0.022332013 -0.36103001 0.13536796
0.073331803 -0.23401199 0.13130386
-0.24287298 -0.17986672 0.13295764
-0.24287298 -0.056248523 0.13112272
-0.242873 -0.0089329481 0.1362446
-0.242873 0.080803208 0.1372596
-0.24287301 0.10096821 0.13512012
-0.24287298 0.16155264 0.13655421
0.240372 0.32421744 0.13627987
0.066232271 0.36102998 0.13811091
-0.13621873 -0.36103004 0.14465526
-0.015040465 -0.36103001 0.14168087
0.21299049 -0.36103004 0.14546201
-0.057733342 -0.23401201 0.14992712
0.079659358 -0.23401198 0.14450681
-0.24287298 -0.20473123 0.14038795
-0.242873 -0.12935217 0.14302133
0.22735301 0.019074643 0.1414762
0.22655299 0.16947912 0.14653614
-0.24287301 0.28288537 0.14153641
-0.242873 0.3593542 0.14224726
-0.1186038 0.36103001 0.14195403
-0.030087247 0.36103001 0.14046459
0.042941779 0.36103001 0.14229256
0.066648915 0.36103001 0.14727668
0.13003692 0.36103001 0.14720523
-0.17191347 -0.36103001 0.15165733
-0.1637049 -0.36103001 0.15567163
-0.14975086 -0.36102998 0.15577596
-0.030521998 -0.36103004 0.15424278
0.20922218 -0.36103001 0.15039854
-0.1463553 -0.23401199 0.15406068
0.026422095 -0.23401201 0.15289506
0.082286201 -0.23401198 0.15332054
0.11358672 -0.23401199 0.15255119
-0.242873 -0.16549286 0.15010479
0.22655299 -0.0046677999 0.1588653
-0.24287298 0.036465779 0.15420592
-0.242873 0.15592401 0.15601331
0.22655299 0.17926559 0.15052247
-0.242873 0.29830694 0.15537706
-0.22092393 0.36103001 0.15981369
-0.14462252 0.36103001 0.15901093
0.040408365 0.36103001 0.15946665
-0.02729214 -0.36102998 0.16709855
-0.15708192 -0.23401199 0.16620648
-0.12913133 -0.23401199 0.16719291
0.072501272 -0.23401199 0.16747147
-0.24287298 -0.15306957 0.16361253
0.22655299 -0.15918614 0.16350473
0.22655299 -0.14532022 0.16691408
-0.24287301 -0.065033302 0.16337356
-0.24287298 -0.046743825 0.16870403
-0.24287301 0.021694653 0.1675963
-0.24287301 0.16476136 0.16928665
0.23439789 0.32629201 0.16546302
-0.23678616 0.36103001 0.16624743
-0.11215962 0.36103001 0.16538352
-0.065108351 0.36103001 0.16835269
-0.048716351 0.36103004 0.16655251
-0.029090308 0.36103001 0.1607326
0.20851995 0.36103001 0.16671339
-0.074825048 -0.36103001 0.17656115
-0.043298326 -0.36102998 0.17949535
0.16716179 -0.36103001 0.17280373
0.22655299 -0.31979191 0.1742996
0.22655299 -0.30695206 0.17534593
-0.24287301 -0.27416188 0.17330357
-0.18484627 -0.23401199 0.17141856
-0.041917071 -0.23401201 0.17706467
0.22608812 -0.23401199 0.17699283
0.22655299 -0.055804528 0.17241697
-0.24287301 -0.0083721206 0.17975777
-0.24287301 0.14355981 0.17038122
-0.24282792 0.36103001 0.17223045
-0.13394159 -0.36103001 0.18962298
-0.242873 -0.35930216 0.18009885
0.22655299 -0.33530048 0.18202013
-0.030148536 -0.23401199 0.18910016
0.014693327 -0.23401201 0.18738943
0.052019894 -0.23401199 0.18670228
0.22655299 -0.038672227 0.18222621
-0.242873 0.16161907 0.18233535
0.23835319 0.347936 0.18848188
-0.1015533 0.36103001 0.1871202
0.048933856 0.36102998 0.18677852
0.070691712 0.36103001 0.18131551
-0.15940459 -0.36103001 0.19513835
0.22655299 -0.24832126 0.19931577
-0.23265731 -0.23401199 0.19449747
-0.0051045269 -0.23401199 0.19089548
0.22286396 -0.23401199 0.19108051
0.22655299 -0.15485752 0.19654115
-0.242873 0.089198083 0.19893284
-0.242873 0.25130534 0.19486445
-0.19359905 0.36103001 0.19076553
-0.037354343 0.36103001 0.1984728
0.04231865 0.36103001 0.19950046
-0.242873 -0.36006266 0.20012933
-0.13460729 -0.36102998 0.20507297
0.16167721 -0.36103004 0.20185319
0.17669795 -0.36103004 0.20182842
-0.242873 -0.34678856 0.20822275
-0.24287298 -0.32678691 0.20187601
-0.12454638 -0.23401201 0.20902805
-0.242873 -0.14846787 0.20903184
-0.242873 0.03065896 0.20909348
0.22655299 0.037995383 0.20872977
-0.242873 0.057553828 0.20143588
0.22655299 0.051250994 0.20473211
-0.242873 0.23443004 0.2068961
-0.24287298 0.28796059 0.20951837
-0.21239169 0.36103001 0.20588188
0.0049813762 0.36103001 0.20721966
0.022026477 -0.36102998 0.216864
0.22655299 -0.35897741 0.21537954
-0.242873 -0.30261475 0.2107769
-0.16049945 -0.23401199 0.21793781
-0.10887517 -0.23401198 0.21910559
0.072479941 -0.23401199 0.21945861
0.22655299 -0.096408032 0.21269643
-0.24287301 -0.061698422 0.2162897
-0.242873 0.13530621 0.21161863
0.22655299 0.17952803 0.21312368
-0.12317208 0.36103004 0.21486589
-0.078660458 0.36103001 0.2197046
-0.04556293 0.36103001 0.2184463
0.029470548 0.36103004 0.21731327
-0.16512312 -0.36103001 0.22079138
0.22655299 -0.30279678 0.22612235
-0.22483252 -0.23401199 0.2255509
0.074795842 -0.23401201 0.22935359
0.11037385 -0.23401201 0.22885685
0.22655299 0.10699269 0.22988135
0.22655299 0.11241912 0.22994722
-0.242873 0.14321041 0.2207312
0.224474 0.27923796 0.22957876
0.22447398 0.30416813 0.22714639
0.22447398 0.32619712 0.22951424
-0.19338575 0.36103001 0.22730319
0.079792947 0.36102998 0.22925419
0.13599342 0.36103001 0.22164904
0.14969228 0.36103001 0.22969031
-0.051157504 -0.36103001 0.23776634
-0.010225711 -0.36103004 0.23083663
0.22655299 -0.30022615 0.23409697
0.22655299 -0.28453296 0.23788629
-0.12681298 -0.23401199 0.23279086
0.055366121 -0.23401198 0.23676915
0.22655299 -0.12453005 0.23067692
0.22655298 -0.10184714 0.23217289
0.22447401 0.32678956 0.23171911
-0.12435874 0.36103004 0.23508617
-0.10882221 -0.36103001 0.24436086
0.068866149 -0.36103001 0.24031368
0.087438703 -0.36102998 0.24400453
-0.14437488 -0.35468704 0.24631301
-0.055464324 -0.35535282 0.24631301
-0.032170892 -0.35776889 0.24631301
0.1365073 -0.34950867 0.24631301
-0.23174301 -0.33646032 0.24631301
-0.21049063 -0.32664275 0.24631301
-0.20499566 -0.32427838 0.24631301
-0.20206326 -0.31378186 0.24631301
-0.078514323 -0.31025329 0.24631301
0.15869594 -0.30551717 0.24631301
0.22252627 -0.30202183 0.24631301
-0.091434866 -0.29071563 0.24631301
-0.037444767 -0.29123381 0.24631301
-0.029489357 -0.29272914 0.24631301
-0.086987577 -0.28255284 0.24631301
0.078857839 -0.28664145 0.24631301
0.084822394 -0.2848258 0.24631301
0.1365082 -0.28761789 0.24631301
0.16233054 -0.28045571 0.24631301
0.20247361 -0.28408772 0.24631301
0.19290407 -0.27616632 0.24631301
-0.22696219 -0.26024184 0.24631301
-0.2029448 -0.25389269 0.24631301
0.12002268 -0.25738093 0.24631301
0.048330829 -0.24604461 0.24631301
0.018865831 -0.23666963 0.24631301
0.065320268 -0.23324221 0.24631301
-0.19627722 -0.2246182 0.24631301
0.017116567 -0.22019416 0.24631301
0.04491546 -0.22300835 0.24631301
0.057034269 -0.22961769 0.24631301
0.1950506 -0.22451018 0.24631301
-0.20456474 -0.21735527 0.24631301
-0.19685613 -0.21849443 0.24631301
-0.16402404 -0.21286678 0.24631301
-0.13136198 -0.21538578 0.24631301
-0.12115905 -0.21574962 0.24631301
-0.053005453 -0.21736281 0.24631301
-0.079068884 -0.20769629 0.24631301
-0.18082187 -0.17993517 0.24631301
-0.15001993 -0.17362773 0.24631301
0.00038150698 -0.17303902 0.24631301
0.074415341 -0.16743344 0.24631301
0.14417645 -0.16676095 0.24631301
-0.14157544 -0.15217929 0.24631301
-0.068317875 -0.15110323 0.24631301
-0.0078180805 -0.15150826 0.24631301
0.17837062 -0.14242463 0.24631301
-0.19434328 -0.13145299 0.24631301
-0.111701 -0.1384265 0.24631301
0.089353815 -0.1300444 0.24631301
0.12165152 -0.13947313 0.24631301
0.14847742 -0.13920011 0.24631301
0.1533521 -0.13739529 0.24631301
-0.13801254 -0.12643208 0.24631301
0.081677832 -0.12411803 0.24631301
0.14481172 -0.12886539 0.24631301
0.00088782609 -0.11015928 0.24631301
-0.20140111 -0.1044285 0.24631301
0.0034254082 -0.095399588 0.24631301
-0.11352012 -0.087539338 0.24631301
-0.036719687 -0.088718101 0.24631301
0.01611466 -0.083476692 0.24631301
0.18913186 -0.05249501 0.24631301
-0.072885044 -0.042444371 0.24631301
0.0099220574 -0.037530553 0.24631301
-0.046738539 -0.01955821 0.24631301
-0.18476324 -0.0092163384 0.24631301
-0.15133852 -0.0063965991 0.24631301
-0.058422945 -0.0020697489 0.24631301
0.093199559 -0.0043686777 0.24631301
-0.040697381 0.0040958971 0.24631301
0.09396857 0.00044809282 0.24631301
-0.10640189 0.013398483 0.24631301
-0.093305759 0.016403848 0.24631301
-0.045273006 0.019161947 0.24631301
0.14378688 0.017836668 0.24631301
0.16571337 0.01603166 0.24631301
0.22237739 0.010856539 0.24631301
0.11610447 0.024970867 0.24631301
0.21137455 0.027057782 0.24631301
-0.13386752 0.038882788 0.24631301
-0.034718856 0.034013413 0.24631301
-0.11795901 0.04216446 0.24631301
0.028259963 0.046731897 0.24631301
-0.13397156 0.058987126 0.24631301
-0.10101485 0.051020503 0.24631301
0.21150792 0.054698259 0.24631301
-0.18624522 0.061016984 0.24631301
-0.096661299 0.061829552 0.24631301
0.06835971 0.078658111 0.24631301
0.075231902 0.07055103 0.24631301
-0.068576962 0.085226573 0.24631301
0.12706405 0.087009914 0.24631301
0.15592353 0.088661253 0.24631301
0.19903801 0.081915289 0.24631301
-0.16520815 0.094538301 0.24631301
0.11949851 0.096756779 0.24631301
-0.017346792 0.10897254 0.24631301
0.1807691 0.10673923 0.24631301
0.14170098 0.11231818 0.24631301
-0.21438575 0.12568299 0.24631301
-0.010596246 0.12596653 0.24631301
0.20031135 0.12628326 0.24631299
-0.24086609 0.1392839 0.24631301
-0.023217995 0.13801956 0.24631301
0.17450538 0.13361171 0.24631301
-0.242873 0.14185397 0.24141017
0.17897414 0.14567329 0.24631301
-0.13436869 0.1553373 0.24631301
-0.17912604 0.16095369 0.24631301
-0.11290661 0.17498747 0.24631301
-0.058212154 0.17501262 0.24631301
-0.0097763203 0.17291516 0.24631301
0.17495878 0.17442587 0.24631301
0.18880273 0.17372607 0.24631301
-0.18320253 0.18314965 0.24631301
0.20015512 0.1896715 0.24631301
0.21836378 0.18242286 0.24631301
-0.22844614 0.20822534 0.24631301
0.10630576 0.21868981 0.24631301
0.11310282 0.21088892 0.24631301
0.20571476 0.21164635 0.24631301
-0.1447973 0.22197944 0.24631301
0.12114629 0.22306012 0.24631301
-0.22326455 0.2381705 0.24631301
0.039684005 0.23966134 0.24631301
-0.18166627 0.24966052 0.24631301
-0.15424156 0.2514106 0.24631301
0.155368 0.25057998 0.24631301
0.19688533 0.25966945 0.24631301
-0.19797778 0.26607576 0.24631301
-0.053093255 0.26337215 0.24631301
0.073474884 0.27461353 0.24631301
-0.24287298 0.28359315 0.24427924
-0.12588064 0.28121084 0.24631301
0.18850365 0.28867701 0.24631301
0.20184688 0.28236681 0.24631301
-0.10664894 0.29563841 0.24631301
0.19976035 0.2909216 0.24631301
-0.16849495 0.30451542 0.24631301
-0.093208395 0.30783257 0.24631301
-0.10877842 0.31426123 0.24631301
0.052949041 0.31437463 0.24631301
0.17692174 0.31115249 0.24631301
0.21222559 0.31061694 0.24631301
-0.088722728 0.32691872 0.24631301
-0.029351033 0.32800317 0.24631301
0.047568105 0.32272959 0.24631301
-0.21167758 0.35421216 0.24631301
-0.17160311 0.35560161 0.24631301
0.018911578 0.35516179 0.24631301
-0.094356731 0.36102998 0.24133423
-0.062196992 0.36084735 0.24631301
