# .PCD v0.7 - Point Cloud Data file format
VERSION 0.7
FIELDS x y z
SIZE 4 4 4
TYPE F F F
COUNT 1 1 1
WIDTH 968
HEIGHT 1
VIEWPOINT 0 0 0 1 0 0 0
POINTS 968
DATA ascii
-0.059361849 -0.33122075 -0.25159201
-0.09873239 -0.32578725 -0.25159201
0.040783212 -0.32129881 -0.25159201
-0.18598464 -0.31041169 -0.25159201
-0.16771278 -0.31349719 -0.25159201
-0.079499044 -0.3130573 -0.25159201
-3.8417988e-05 -0.31360191 -0.25159201
-0.24061503 -0.30873272 -0.25159201
-0.19585542 -0.30325246 -0.25159201
0.080238186 -0.30861518 -0.25159201
0.20804825 -0.30345082 -0.25159201
0.010234527 -0.29282823 -0.25159201
0.034400403 -0.29118642 -0.25159201
-0.12120271 -0.28613609 -0.25159201
-0.1074602 -0.28774112 -0.25159201
0.01178927 -0.28821537 -0.25159201
0.087432541 -0.28331405 -0.25159201
0.14979054 -0.2865999 -0.25159201
0.1744898 -0.28152293 -0.25159201
-0.098372743 -0.27675039 -0.25159201
0.1213806 -0.2723161 -0.25159201
0.22857848 -0.27177948 -0.25159201
-0.010337062 -0.25217736 -0.25159201
-0.22703466 -0.24649508 -0.25159201
-0.1187145 -0.22444171 -0.25159201
0.0029546022 -0.22553766 -0.25159201
0.10802818 -0.22734833 -0.25159201
0.17681378 -0.22196727 -0.25159201
-0.26652482 -0.21100807 -0.25159201
-0.04523972 -0.2172164 -0.25159201
0.022076525 -0.21797177 -0.25159201
0.094714127 -0.2135416 -0.25159201
-0.275314 -0.20669301 -0.25126177
-0.18228677 -0.20702434 -0.25159201
-0.14959127 -0.20297314 -0.25159201
0.10927302 -0.2041859 -0.25159201
0.11638686 -0.20036525 -0.25159201
-0.047236845 -0.19532871 -0.25159201
0.16801482 -0.19678175 -0.25159201
-0.22720712 -0.17868574 -0.25159201
0.14982872 -0.17163056 -0.25159201
-0.14687543 -0.16608773 -0.25159201
0.031486191 -0.16698503 -0.25159201
0.1348445 -0.16896826 -0.25159201
-0.12459271 -0.15602306 -0.25159201
0.02424502 -0.15270565 -0.25159201
-0.15377682 -0.1405073 -0.25159201
-0.079210311 -0.14304563 -0.25159201
0.13660814 -0.14508384 -0.25159201
0.15954638 -0.14291464 -0.25159201
0.16257729 -0.14297068 -0.25159201
0.18094982 -0.14868402 -0.25159201
-0.13491035 -0.13384256 -0.25159201
0.13801819 -0.13341622 -0.25159201
0.18554407 -0.13140416 -0.25159201
-0.24864551 -0.12717371 -0.25159201
-0.14468278 -0.12675682 -0.25159201
0.029358692 -0.12132159 -0.25159201
0.093359746 -0.12136808 -0.25159201
-0.22672181 -0.11658903 -0.25159201
-0.0092060007 -0.117782 -0.25159201
-0.10995596 -0.10870621 -0.25159201
0.036772706 -0.10110605 -0.25159201
0.08326564 -0.10601523 -0.25159201
-0.20551714 -0.080549277 -0.25159201
0.18556955 -0.088813372 -0.25159201
-0.12946165 -0.076402038 -0.25159201
-0.001695415 -0.074755788 -0.25159201
0.040528025 -0.07611651 -0.25159201
0.075266205 -0.074048102 -0.25159201
-0.16879269 -0.060210168 -0.25159201
0.15569578 -0.065101266 -0.25159201
-0.040241286 -0.055779699 -0.25159201
-0.0066061816 -0.053514365 -0.25159201
0.098484501 -0.058345992 -0.25159201
-0.033452027 -0.048662275 -0.25159201
0.15955983 -0.049540371 -0.25159201
0.22928345 -0.044733852 -0.25159201
0.026656386 -0.029310368 -0.25159201
0.11006989 -0.015035152 -0.25159204
0.18901414 -0.0039215088 -0.25159201
-0.090816349 0.0073787868 -0.25159201
0.0070468262 0.0083905756 -0.25159201
-0.16281709 0.010852009 -0.25159201
-0.23290372 0.02579692 -0.25159201
-0.21701533 0.02390793 -0.25159201
-0.11517821 0.023777418 -0.25159201
-0.03972365 0.028572261 -0.25159201
0.231291 0.029793575 -0.25089332
-0.17077155 0.030369729 -0.25159204
-0.0403504 0.032857355 -0.25159201
-0.030284524 0.034569085 -0.25159201
0.057325989 0.030435428 -0.25159201
0.17043935 0.038142532 -0.25159201
-0.2360529 0.049325556 -0.25159201
0.21739346 0.049300194 -0.25159201
-0.1030585 0.055574134 -0.25159198
0.055913359 0.05013141 -0.25159201
0.17405459 0.053175643 -0.25159201
-0.18220784 0.068769783 -0.25159201
0.22891702 0.064863145 -0.25159201
0.10703837 0.07265605 -0.25159201
0.21762626 0.070741683 -0.25159201
0.0047303028 0.088550746 -0.25159201
0.10512175 0.085444957 -0.25159201
-0.22268718 0.09616413 -0.25159201
0.0067621171 0.091897845 -0.25159201
-0.18210055 0.10836711 -0.25159201
-0.035888225 0.10712504 -0.25159201
0.089914955 0.10261121 -0.25159201
-0.20229414 0.12402792 -0.25159201
-0.0090352185 0.12026168 -0.25159201
0.22512144 0.1225566 -0.25159201
-0.17797233 0.13166055 -0.25159201
-0.10424571 0.13601768 -0.25159201
0.10067981 0.133625 -0.25159201
-0.14101833 0.14638178 -0.25159201
0.0019536875 0.14619988 -0.25159201
0.20504516 0.14689752 -0.25159201
-0.275314 0.15988809 -0.25129634
-0.15087861 0.152731 -0.25159201
-0.066317908 0.15246472 -0.25159201
-0.032460194 0.15361288 -0.25159201
0.0069996975 0.17037159 -0.25159201
-0.14441872 0.18620491 -0.25159201
-0.2050395 0.19548063 -0.25159201
-0.095430464 0.2074253 -0.25159201
-0.17000727 0.21239984 -0.25159201
-0.052271064 0.21449155 -0.25159201
-0.032039359 0.22648118 -0.25159201
0.16625246 0.22737725 -0.25159201
0.045808516 0.23246659 -0.25159201
0.17062323 0.23281783 -0.25159201
-0.18781969 0.2454561 -0.25159201
0.16400838 0.24496138 -0.25159201
-0.20200838 0.25260526 -0.25159201
-0.13976315 0.25599366 -0.25159201
-0.048507415 0.25212666 -0.25159201
0.017899031 0.25707293 -0.25159201
0.22439954 0.25255901 -0.25159201
-0.23649555 0.26488629 -0.25159201
-0.14728791 0.26632637 -0.25159201
-0.039515629 0.26894337 -0.25159201
0.16424209 0.26501483 -0.25159201
0.15836859 0.28227121 -0.25159201
0.20100634 0.28717795 -0.25159201
0.0074343756 0.29606152 -0.25159201
0.025656842 0.29722986 -0.25159198
-0.25939849 0.30623549 -0.25159201
-0.17885992 0.3027133 -0.25159201
0.055685371 0.30378139 -0.25159201
0.11662011 0.30277073 -0.25159201
0.16435683 0.3014279 -0.25159201
-0.223178 0.31997705 -0.25159201
-0.20971276 0.3316893 -0.25159201
0.058595657 0.333022 -0.25127211
-0.20088573 -0.333022 -0.24944362
-0.05647774 -0.333022 -0.24106371
0.231291 -0.10693015 -0.24832551
-0.275314 0.0125736 -0.24442884
-0.275314 0.043683842 -0.24609435
-0.275314 0.26296595 -0.24064168
0.231291 0.27339798 -0.24332538
-0.032445706 0.333022 -0.24222055
-0.024700031 0.333022 -0.24129815
0.066734031 -0.333022 -0.23735434
0.231291 -0.2496479 -0.23516975
-0.275314 -0.21587388 -0.23458982
0.231291 -0.19731563 -0.2305712
-0.275314 -0.15108544 -0.23711815
0.231291 -0.1522148 -0.23899595
0.231291 -0.051037189 -0.23851579
0.24683569 -0.044584077 -0.23185685
-0.27531397 -0.037954912 -0.23926552
-0.275314 -0.0078229439 -0.23131275
0.23249695 -0.0085344547 -0.23460867
0.231291 0.043580625 -0.23505172
0.231291 0.060369425 -0.23125482
-0.275314 0.13275105 -0.23539966
0.231291 0.28539389 -0.2398379
-0.275314 0.3049511 -0.23225419
-0.25761393 0.333022 -0.23605989
-0.16187477 0.333022 -0.23825058
-0.10663146 0.333022 -0.23797026
-0.047646239 0.333022 -0.23513773
0.077792369 0.333022 -0.23551928
-0.085427411 -0.333022 -0.22144416
0.12236016 -0.333022 -0.22683139
-0.275314 -0.077554554 -0.22195765
0.24887103 -0.074549615 -0.22400045
0.25061822 -0.060279064 -0.22821847
0.26140001 0.028592961 -0.22354957
0.24559776 0.031972811 -0.22823808
-0.275314 0.071361527 -0.22846505
0.231291 0.28015789 -0.22873369
0.081010103 0.333022 -0.22043273
0.11149385 0.333022 -0.22184637
0.18972093 0.333022 -0.22493666
0.22207075 0.333022 -0.22095039
0.017621979 -0.333022 -0.21279052
0.07132943 -0.333022 -0.2177192
0.20761082 -0.333022 -0.21052888
0.231291 -0.25655967 -0.21590579
0.231291 -0.24831456 -0.21168274
-0.275314 -0.15152013 -0.21612395
0.2372734 -0.092156053 -0.2187964
0.24692491 -0.096756831 -0.21743652
0.26140001 -0.061692309 -0.21350332
-0.275314 -0.016801268 -0.21109053
0.231291 0.095638916 -0.21488215
-0.275314 0.10669512 -0.21557555
-0.14254087 0.333022 -0.21727861
0.086391173 0.333022 -0.21977498
0.1268902 0.333022 -0.21720003
-0.20484002 -0.333022 -0.20580527
-0.10697221 -0.333022 -0.20392457
0.21483679 -0.333022 -0.20226593
0.231291 -0.20537874 -0.20484611
0.231291 -0.19684225 -0.20844202
0.24556369 -0.12766024 -0.20119375
-0.275314 -0.1170424 -0.20326659
-0.275314 -0.023812786 -0.20611168
0.25553679 -0.00038420456 -0.20556588
0.26140001 0.043628905 -0.20776263
-0.275314 0.06411124 -0.20478755
0.24475561 0.096760765 -0.20414473
0.25436786 0.10207347 -0.2012561
0.231291 0.19376326 -0.20276871
-0.15492588 0.333022 -0.20655397
0.056843087 0.333022 -0.2047189
0.094684169 0.333022 -0.20472227
0.12688361 0.333022 -0.20215698
0.13547401 0.333022 -0.20108832
-0.275314 -0.33137557 -0.19144073
0.13235274 -0.333022 -0.19365032
0.22255006 -0.333022 -0.19490564
0.23129101 -0.31311905 -0.19009252
0.231291 -0.29817247 -0.19300413
0.231291 0.013507297 -0.19475479
0.26140001 0.090894058 -0.19945461
0.2430028 0.10898536 -0.19749792
-0.275314 0.14379333 -0.19164635
0.231291 0.31292608 -0.19423527
-0.21088484 0.33302197 -0.19240412
-0.16859871 0.333022 -0.1969288
-0.2107321 -0.333022 -0.18108973
-0.010113977 -0.333022 -0.18691118
0.031272613 -0.333022 -0.18092941
0.14624378 -0.333022 -0.18314485
0.22166626 -0.333022 -0.18507856
0.231291 -0.24198058 -0.18846133
0.231291 -0.22103687 -0.18677101
-0.275314 -0.1607639 -0.1840955
0.25659335 -0.15898277 -0.18062538
0.25015625 -0.086260282 -0.18969244
0.231291 0.0021292232 -0.18958187
-0.275314 0.2317626 -0.18939236
-0.275314 0.24634518 -0.18403192
-0.067065544 0.333022 -0.18070462
-0.18460357 -0.333022 -0.17372356
-0.10918777 -0.333022 -0.17102048
0.14798827 -0.333022 -0.17566216
0.231291 -0.32103428 -0.17100441
0.231291 -0.31213152 -0.17920582
-0.275314 0.0409595 -0.17146188
0.26140001 0.10686687 -0.17559886
0.231291 0.15742452 -0.17865957
0.231291 0.19383892 -0.17304671
0.231291 0.27032474 -0.17589778
-0.24082278 0.333022 -0.17925353
-0.051988378 0.333022 -0.17829558
-0.020230062 0.333022 -0.17978226
0.17820123 0.333022 -0.17489903
-0.033204868 -0.333022 -0.1676352
0.045729008 -0.333022 -0.16509393
0.231291 -0.32167375 -0.16124429
0.231291 -0.31661898 -0.16399807
0.231291 -0.30160943 -0.16235036
0.25426754 -0.13092837 -0.16239236
-0.275314 -0.078363881 -0.16012274
0.231291 0.030456439 -0.16354115
-0.275314 0.048831955 -0.16757172
0.231291 0.095314316 -0.16811123
0.231291 0.23802 -0.16506988
0.252276 0.25206685 -0.16537742
0.231291 0.26486623 -0.16707137
0.24491978 0.28856599 -0.169119
-0.275314 0.29465795 -0.1632947
0.031636953 0.333022 -0.16020566
0.14788935 0.333022 -0.16673526
0.20420711 0.333022 -0.16720179
0.21474522 0.333022 -0.16290978
-0.2497223 -0.333022 -0.15479383
-0.1136629 -0.333022 -0.15518101
-0.10912376 -0.333022 -0.15943402
0.069720469 -0.333022 -0.1590156
0.087402403 -0.333022 -0.15213591
0.095247939 -0.333022 -0.15362188
0.231291 -0.093404897 -0.15569583
0.231291 -0.084678315 -0.1539773
-0.275314 0.22471577 -0.1596314
0.231291 0.22115469 -0.1568266
0.02917058 0.333022 -0.15121321
-0.23665899 -0.333022 -0.14549375
0.09830483 -0.333022 -0.14857955
0.14451887 -0.333022 -0.14300983
0.231291 -0.24590957 -0.14498252
-0.275314 -0.1471146 -0.14233536
0.26140001 -0.14586571 -0.14961371
-0.275314 0.20829427 -0.1481334
0.231291 0.27281362 -0.14898686
0.044550441 0.333022 -0.14279801
0.15861708 0.333022 -0.14182937
-0.275314 -0.33192074 -0.13882878
-0.17647214 -0.333022 -0.13002741
-0.13989145 -0.333022 -0.13499995
-0.275314 -0.25892285 -0.13696349
0.24695945 -0.15799388 -0.13668874
0.231291 -0.072825745 -0.13790517
0.252276 0.2603015 -0.13802968
-0.031905629 0.333022 -0.13869679
-0.013973013 0.333022 -0.1355287
0.061952077 0.333022 -0.13362835
-0.275314 -0.20411196 -0.12526941
-0.275314 -0.083160147 -0.1204449
-0.275314 -0.004410401 -0.1285297
-0.275314 0.11892714 -0.12475035
-0.275314 0.14700335 -0.12061103
-0.275314 0.16836022 -0.12466065
0.23676008 0.17705491 -0.12862147
-0.275314 0.22604944 -0.1296708
-0.27531403 0.2826117 -0.12475611
-0.275314 0.3147397 -0.12718573
0.056898072 0.333022 -0.12861905
0.11507381 0.333022 -0.12574808
-0.061469659 -0.333022 -0.11944906
-0.012452465 -0.333022 -0.11431371
0.12993596 -0.333022 -0.11098698
-0.275314 -0.32556719 -0.11898822
-0.27531397 -0.29049137 -0.11636147
-0.275314 -0.28601035 -0.11175541
-0.275314 -0.058138724 -0.11219612
-0.19185682 0.333022 -0.11182682
-0.14197613 -0.333022 -0.10722689
-0.13601197 -0.333022 -0.10446599
0.26140001 -0.17799518 -0.10681589
0.231291 -0.061032496 -0.10699882
-0.275314 -0.042456027 -0.10181358
0.231291 -0.0096628182 -0.10848775
-0.275314 0.048578534 -0.10954717
-0.275314 0.15357023 -0.1024145
-0.275314 0.21020466 -0.10625456
-0.275314 0.29623681 -0.10795793
-0.24343401 0.333022 -0.10357459
0.052660756 -0.333022 -0.097699657
0.231291 -0.23886277 -0.099857137
-0.27531397 -0.22496331 -0.094511606
-0.275314 -0.21792935 -0.098818801
0.231291 -0.17030844 -0.09638118
-0.275314 -0.1473279 -0.096483178
0.231291 0.16961741 -0.094981268
-0.19550274 0.333022 -0.093232855
0.096091911 0.333022 -0.093250059
0.16652299 0.333022 -0.09753529
0.231291 -0.26906943 -0.080679394
0.26140001 -0.20855585 -0.080834739
0.23663962 0.19967487 -0.08319357
0.25338918 0.19922784 -0.08470615
0.26140001 0.19571766 -0.083777301
-0.26483166 0.333022 -0.080827899
-0.03318657 0.333022 -0.082897499
0.21936993 0.333022 -0.087041132
-0.23185953 -0.333022 -0.071006715
-0.070222557 -0.333022 -0.072795808
-0.037901089 -0.333022 -0.07925275
0.076356195 -0.333022 -0.079336867
0.17636687 -0.333022 -0.07480441
-0.275314 -0.26618719 -0.070648357
-0.275314 -0.21735297 -0.079405449
-0.275314 -0.20826975 -0.070712298
0.231291 -0.16781834 -0.076331489
-0.275314 -0.15483493 -0.072740346
-0.275314 -0.089385808 -0.074365258
-0.275314 0.071572587 -0.073975176
0.26140001 0.1890523 -0.072076276
0.14337787 -0.333022 -0.064484045
-0.275314 -0.28849709 -0.069667757
-0.275314 0.028907843 -0.068160981
0.23129101 0.28276139 -0.0678754
-0.20687015 0.333022 -0.060784671
-0.16212223 0.333022 -0.061258942
-0.11517593 0.333022 -0.060766805
0.050866753 0.333022 -0.062552027
-0.26423928 -0.333022 -0.051507045
-0.20388374 -0.333022 -0.059296541
-0.16128519 -0.333022 -0.051691078
-0.022999026 -0.333022 -0.050292172
0.038456529 -0.333022 -0.051452368
-0.275314 -0.18580826 -0.051058426
-0.275314 -0.093994796 -0.050610445
-0.275314 -0.036731221 -0.052358598
-0.275314 0.055676207 -0.051525533
0.231291 0.1656788 -0.059050858
-0.27531403 0.20270564 -0.053138331
0.10512196 0.333022 -0.051289424
0.11786026 0.333022 -0.055760324
-0.033056751 -0.333022 -0.043099545
0.044039879 -0.333022 -0.048070449
-0.27531403 -0.32578593 -0.049006
-0.275314 -0.19612676 -0.049952455
-0.275314 -0.12141424 -0.045643687
-0.275314 -0.034109332 -0.042481393
0.231291 0.094033964 -0.044937797
0.231291 0.32055229 -0.04632831
0.17442307 0.333022 -0.040687174
-0.094817705 -0.333022 -0.03799041
0.024504699 -0.333022 -0.03529653
-0.275314 -0.30894169 -0.034162551
0.231291 -0.27513534 -0.034926966
0.26140001 -0.21518829 -0.032389041
0.231291 -0.17191096 -0.034057163
-0.275314 0.048129179 -0.038661677
-0.275314 0.23939633 -0.036184639
0.231291 0.23624557 -0.039150666
0.231291 0.27401978 -0.038326614
0.231291 0.30839109 -0.038065486
-0.23947711 0.333022 -0.035157353
-0.13856171 0.333022 -0.035359375
-0.10452054 -0.333022 -0.024906762
-0.045220941 -0.333022 -0.02695965
0.231291 -0.32956296 -0.022012144
0.231291 -0.25657439 -0.020195313
0.26140001 -0.20471805 -0.028968118
0.231291 0.035849959 -0.026493939
-0.275314 0.080364242 -0.025275743
-0.275314 0.25566864 -0.0235698
0.231291 0.31100348 -0.029236894
-0.18059324 0.333022 -0.022868499
-0.12007717 0.333022 -0.028951026
-0.088254973 0.333022 -0.027778916
-0.076277629 0.333022 -0.020477198
-0.019992242 0.333022 -0.022766769
-0.116088 -0.333022 -0.018983092
-0.062337853 -0.333022 -0.011959501
-0.275314 -0.3161574 -0.019156642
-0.275314 -0.25875419 -0.018742509
-0.275314 -0.18963565 -0.011264801
-0.275314 -0.10176197 -0.01798401
0.231291 -0.05851724 -0.011557544
0.231291 0.00059475238 -0.011893789
-0.275314 0.11716183 -0.018393107
0.24012086 0.21248928 -0.010044422
0.231291 0.32825908 -0.014920745
0.22645199 0.333022 -0.016061101
-0.042791769 -0.333022 -0.005709765
-0.275314 -0.24371704 -0.00032225251
-0.275314 -0.23213939 -0.003888458
0.231291 -0.14846955 -0.0048302286
-0.275314 -0.085222587 -0.0061885808
-0.275314 -0.059255183 -0.0095542595
0.26140001 0.20779832 -0.0063529126
0.24656208 0.21256585 -0.0070538437
0.231291 0.23793572 -0.0090054683
0.231291 0.27237922 -0.0084292712
-0.22916341 0.333022 -0.0050358698
0.023602076 0.333022 -0.004935436
0.055710841 0.333022 -0.00041612238
0.1189802 0.333022 -0.00908117
0.19754428 0.333022 -0.0076809004
0.065103136 -0.333022 0.00036651641
0.099552527 -0.333022 0.0096984953
0.231291 -0.24197772 0.0089325607
0.26140001 -0.22906694 0.0014567561
0.231291 -0.20375681 0.0017959065
-0.275314 -0.054413453 0.0014721751
0.231291 -0.026387304 0.0084600672
-0.275314 0.016710386 0.0018055215
-0.275314 0.089602694 0.0098659806
0.231291 0.081752881 0.0040951399
-0.275314 0.13835725 0.0049722716
-0.275314 0.25699681 0.0058514103
0.18148325 0.333022 0.0090722293
0.022949936 -0.333022 0.019382393
0.084700771 -0.333022 0.01303339
0.21872832 -0.333022 0.010716505
-0.27531403 -0.29159725 0.01778093
-0.275314 -0.19116297 0.013802245
0.231291 -0.077177465 0.01041493
-0.275314 -0.046281345 0.014405346
0.231291 0.0014432375 0.016045459
-0.275314 0.1274662 0.019441903
0.231291 0.27935201 0.015801184
0.231291 0.30554709 0.014587943
-0.275314 0.32709748 0.010779314
-0.062044293 -0.333022 0.020699225
-0.034638133 -0.333022 0.02709429
0.21052741 -0.333022 0.020900102
0.231291 -0.19724482 0.025296576
0.231291 0.0064301789 0.025760215
0.231291 0.042345293 0.025865469
0.231291 0.095746383 0.028170735
0.231291 0.10362381 0.02189607
-0.275314 0.25335571 0.024496794
0.231291 0.26059109 0.022541098
-0.24042535 0.333022 0.023638263
-0.048865058 0.333022 0.021723405
0.083892368 0.333022 0.026848957
0.16845298 0.333022 0.023258746
0.15831013 -0.333022 0.037361238
-0.275314 -0.12600201 0.038351055
-0.275314 -0.11502724 0.032680929
0.231291 0.14364319 0.032286189
0.231291 0.1763998 0.038427383
-0.275314 0.20671836 0.037069015
-0.275314 0.23422778 0.038396776
0.231291 0.27375093 0.03832354
0.10668531 -0.333022 0.041097872
-0.275314 -0.22847179 0.040808909
0.231291 -0.17197517 0.040938795
-0.275314 -0.094455853 0.042116839
-0.275314 -0.033673763 0.04632758
0.231291 0.1638858 0.04478481
-0.275314 0.2194303 0.046518482
0.231291 0.23965754 0.047126703
-0.26573068 0.333022 0.041232813
-0.22787948 0.333022 0.049653627
-0.14252177 0.333022 0.046016842
-0.0077337706 0.333022 0.04585151
0.028036669 0.333022 0.049112521
0.12531951 0.333022 0.046550501
0.22055933 0.333022 0.042531438
-0.27397451 -0.333022 0.058481209
-0.20758238 -0.333022 0.058542237
-0.09812735 -0.333022 0.050439239
-0.067622803 -0.333022 0.056892298
-0.035006896 -0.333022 0.058549628
0.21183947 -0.333022 0.058551475
-0.275314 -0.27521506 0.052246042
0.231291 -0.18627886 0.050128222
-0.275314 -0.062462166 0.056778047
-0.275314 0.012119099 0.055060953
0.231291 0.16065931 0.05557856
0.24239099 0.20425916 0.053684998
0.231291 0.21107222 0.05751574
0.059563264 0.333022 0.057778977
-0.08770968 -0.333022 0.069882616
-0.275314 -0.29737657 0.06566184
0.231291 -0.28158593 0.06030497
0.231291 -0.17462853 0.068382718
-0.275314 -0.080273226 0.060335599
0.231291 -0.061321527 0.068999842
0.231291 0.074725837 0.068767257
-0.275314 0.15248142 0.063318036
0.23437037 0.17610763 0.064952984
0.231291 0.20828727 0.062896512
0.24208203 0.20146617 0.065287516
-0.275314 0.25242662 0.064507626
0.231291 0.26515207 0.067177452
-0.275314 0.32011843 0.068094507
-0.27027202 0.333022 0.066250682
0.019536689 0.333022 0.067397714
0.083559744 0.333022 0.064755186
-0.17319484 -0.333022 0.070738442
0.23047474 -0.333022 0.078764468
-0.275314 -0.28371683 0.078692764
-0.275314 0.021848973 0.07697206
0.231291 0.024941623 0.070801497
-0.275314 0.030395631 0.073040724
0.231291 0.29814416 0.071593516
-0.036193609 0.333022 0.078148678
0.080914617 0.333022 0.073789611
-0.27402902 -0.333022 0.087145612
-0.10025188 -0.333022 0.082022496
0.1572341 -0.333022 0.088226676
0.231291 -0.28351998 0.082309633
0.23836318 -0.21950582 0.086827174
-0.275314 -0.17585053 0.089674503
0.231291 -0.1783846 0.086104617
-0.275314 -0.13152109 0.088746607
0.231291 -0.0024454249 0.085950948
-0.275314 0.04192894 0.081899449
0.231291 0.076815076 0.084022716
-0.275314 0.17752646 0.087352157
0.2417632 0.19598043 0.080423638
-0.275314 0.22642606 0.086461902
-0.275314 0.2967141 0.086439043
-0.275314 0.31009242 0.088921487
-0.20952088 0.333022 0.082964584
-0.19610192 0.333022 0.085621804
-0.16244066 0.333022 0.082908422
0.1272942 0.333022 0.089365393
-0.20585817 -0.333022 0.093898632
-0.085687876 -0.333022 0.097354144
-0.275314 -0.2732569 0.09199094
0.231291 -0.26306829 0.094633311
0.231291 -0.24382284 0.090690985
0.25119063 -0.21351899 0.096609913
-0.275314 -0.16262802 0.090618402
0.231291 -0.0032074526 0.090620622
-0.275314 0.019357786 0.096766196
0.231291 0.095370732 0.091798522
-0.275314 0.19720413 0.09693101
-0.275314 0.20729363 0.096950501
0.23375845 0.24459289 0.094723962
-0.16169396 0.333022 0.098249301
-0.066693455 0.333022 0.095232904
0.046497025 0.333022 0.098691076
-0.16730323 -0.333022 0.10872395
0.001580067 -0.333022 0.1046041
0.018181436 -0.333022 0.10763229
0.11210573 -0.333022 0.10864868
0.231291 -0.32359451 0.10451598
0.231291 -0.29101467 0.10548055
-0.275314 -0.1006089 0.10372385
0.26140001 0.16917928 0.10886508
-0.275314 0.21558949 0.102373
-0.25980169 0.333022 0.10123099
-0.16616282 0.333022 0.10663743
-0.09007556 -0.333022 0.11391014
-0.275314 -0.26266858 0.11452611
0.23129101 -0.2441688 0.11444965
-0.275314 -0.22120503 0.11433998
0.018609378 0.333022 0.1182508
0.14350706 0.333022 0.1100198
0.20884791 0.333022 0.11902745
-0.275314 -0.25724563 0.12022963
-0.275314 -0.22406371 0.12241589
-0.275314 -0.20160593 0.12011952
-0.275314 0.034863908 0.12891573
0.24667296 0.04158939 0.125507
-0.275314 0.20929889 0.1290652
-0.275314 0.30942076 0.12705803
-0.06612882 0.333022 0.12566993
-0.032582253 0.333022 0.12320978
0.2050231 0.333022 0.12937811
-0.26992837 -0.333022 0.13099082
-0.24285071 -0.333022 0.13935366
-0.061858989 -0.333022 0.1391467
0.19095328 -0.333022 0.13683887
-0.275314 -0.24442767 0.13829973
0.25432521 -0.1443104 0.13155289
0.275314 0.02133264 0.13221842
-0.275314 0.034442052 0.13252339
0.231291 0.037373975 0.13546015
0.23649682 0.12339275 0.13812435
-0.275314 0.14490488 0.13746029
-0.275314 0.17631236 0.13955989
-0.275314 0.20320795 0.13193871
-0.10417157 0.333022 0.13002546
0.03259147 0.333022 0.13935833
-0.26510784 -0.333022 0.14765429
0.16517371 -0.333022 0.14966404
0.17245336 -0.333022 0.14494848
0.231291 -0.2508561 0.14121999
0.26047406 -0.18457392 0.14047134
-0.275314 -0.16032845 0.14035913
0.26140001 -0.16897498 0.14618562
0.231291 -0.11441953 0.14881387
0.275314 0.0058508022 0.14793384
0.25184366 0.058179699 0.14482979
0.231291 0.078640871 0.1461255
0.231291 0.10351808 0.14726678
0.26140001 0.14978541 0.14330976
0.231291 0.23514891 0.14264357
0.231291 0.31670707 0.14413048
-0.23477857 0.333022 0.14453557
0.19556215 0.333022 0.14861074
-0.23360917 -0.333022 0.15322377
-0.10868421 -0.333022 0.15476313
0.16112775 -0.333022 0.15927863
-0.275314 -0.28679135 0.15828104
-0.275314 -0.17480487 0.15167898
0.231291 -0.17325768 0.15161556
0.24657744 -0.17278022 0.15167643
0.275314 0.024987014 0.15209503
0.275314 0.049113721 0.152501
0.231291 0.053723082 0.15991892
0.231291 0.191625 0.15565208
0.231291 0.32586575 0.15559092
-0.25567108 0.333022 0.15818934
-0.19539587 0.333022 0.15769465
-0.18714769 0.333022 0.15011129
0.20243144 0.333022 0.15907182
-0.13594365 -0.333022 0.160638
-0.11799592 -0.333022 0.16730437
0.11979775 -0.333022 0.16397245
0.13256623 -0.333022 0.16536379
-0.275314 -0.29349092 0.16336852
0.231291 -0.25713319 0.16096139
-0.275314 -0.23087661 0.16110203
0.23129101 -0.23713031 0.16652954
0.231291 -0.01503246 0.16407157
-0.275314 0.17113218 0.16307706
-0.275314 0.30919248 0.1620442
-0.067520246 0.333022 0.16145259
-0.0098223165 0.333022 0.16924022
-0.11085881 -0.333022 0.17588334
-0.093867019 -0.333022 0.17312698
0.13578847 -0.333022 0.17945451
0.25500163 0.047762312 0.17982733
0.231291 0.056987561 0.17178985
0.25196725 0.12757605 0.17101783
0.25943699 0.29237145 0.17659709
0.25675419 0.31197223 0.17120522
-0.10028998 0.333022 0.17127544
-0.033845291 -0.333022 0.1863772
0.231291 -0.29090226 0.18336704
0.231291 -0.25012428 0.18658856
-0.275314 -0.22114733 0.18934286
0.25046888 -0.055110738 0.18153279
-0.275314 -0.040521838 0.18363699
0.231291 -0.0090516713 0.18016139
-0.275314 0.15685681 0.18808603
0.24540378 0.24543931 0.18937565
-0.16756421 0.333022 0.18551074
0.036579996 0.333022 0.18175651
0.092181623 0.333022 0.18916056
0.13124265 0.333022 0.18980247
0.20997994 0.333022 0.1811709
-0.15852247 -0.333022 0.19580147
-0.12619999 -0.333022 0.19994467
-0.075589508 -0.333022 0.19996998
0.2134577 -0.333022 0.19628748
0.231291 -0.23654041 0.19141491
-0.275314 -0.13974006 0.19211146
-0.275314 0.052769676 0.19188476
0.231291 0.17151083 0.19404122
0.25943699 0.27883106 0.19528177
-0.18179762 0.333022 0.19855164
-0.062787056 0.333022 0.19500624
0.11661571 0.333022 0.1971651
0.21504781 0.333022 0.19198087
-0.14336254 -0.333022 0.20909177
-0.13002796 -0.333022 0.20251565
0.17863621 -0.333022 0.20059161
0.231291 -0.31649515 0.20857248
-0.275314 -0.30881652 0.20843908
0.26140001 -0.05958239 0.20944536
-0.275314 -0.042935789 0.20507929
0.26140001 0.025639789 0.2070435
0.231291 0.22794192 0.20005915
-0.275314 0.33129838 0.20239796
0.05681251 0.333022 0.20346376
0.081792623 0.333022 0.2096232
-0.20105812 -0.333022 0.211127
0.038817652 -0.333022 0.21147977
0.083226733 -0.333022 0.21246755
0.22121564 -0.333022 0.21782416
0.231291 -0.33052513 0.21233942
-0.275314 -0.31222069 0.21846777
-0.275314 -0.26690969 0.21153891
-0.275314 -0.20127761 0.21565822
-0.275314 -0.15565038 0.21794498
0.23634417 -0.062615186 0.21257704
0.23415379 -0.001816147 0.2179063
0.24182174 -0.0098459767 0.21811163
-0.074886627 0.333022 0.21641815
-0.055730119 0.333022 0.21134308
0.15484259 0.333022 0.21012416
-0.21796602 -0.333022 0.22329576
0.044048071 -0.333022 0.22108924
0.089376844 -0.333022 0.22209834
0.13504864 -0.333022 0.22346325
0.2197329 -0.333022 0.22925524
0.231291 0.094485499 0.22447808
0.23984721 0.2944088 0.22779617
-0.17103975 0.333022 0.2280308
0.04213839 0.333022 0.22995721
0.081748299 0.333022 0.22318532
-0.074845798 -0.333022 0.23546499
0.014547274 -0.333022 0.23410363
-0.275314 -0.14268649 0.23108298
0.231291 -0.13925195 0.23764543
0.231291 -0.00019789487 0.23486707
-0.275314 0.04102467 0.2358159
-0.275314 0.11832041 0.23137677
0.231291 0.30474925 0.2333149
0.231291 0.31435254 0.23947811
-0.19353786 0.333022 0.23366694
-0.095600508 0.333022 0.23812982
-0.031271458 -0.333022 0.24295938
0.17509466 -0.333022 0.24281389
0.19947974 -0.333022 0.2434607
0.231291 -0.2972419 0.24607743
-0.275314 -0.076117709 0.24771421
-0.275314 0.25834611 0.24763766
0.231291 0.29251385 0.24049395
0.23129098 0.30578673 0.24968563
-0.24756846 -0.33210671 0.25159201
-0.062617622 -0.32903081 0.25159201
0.074949555 -0.32717288 0.25159201
0.091072232 -0.31708762 0.25159201
0.033790588 -0.30227017 0.25159201
0.01213225 -0.29784781 0.25159201
0.028351568 -0.29496145 0.25159201
-0.11285581 -0.28347373 0.25159201
-0.0080590602 -0.28579712 0.25159201
0.03134679 -0.28446615 0.25159201
-0.1472194 -0.27177483 0.25159201
0.0056515187 -0.27120155 0.25159201
0.017092235 -0.27574825 0.25159201
-0.24050057 -0.26050454 0.25159201
-0.22198719 -0.26581794 0.25159201
-0.21717122 -0.2608577 0.25159201
0.11067718 -0.26740956 0.25159201
-0.067731991 -0.25038177 0.25159201
-0.20040296 -0.24630609 0.25159201
-0.16156569 -0.24084772 0.25159201
-0.15458745 -0.24237004 0.25159201
0.011238699 -0.24424157 0.25159201
0.20501257 -0.24398851 0.25159201
-0.2582196 -0.22644614 0.25159201
-0.10941646 -0.22153206 0.25159201
0.052573714 -0.22810887 0.25159201
0.099433474 -0.22182494 0.25159201
0.14816421 -0.22082365 0.25159201
0.1649428 -0.22555539 0.25159201
-0.24995017 -0.20692304 0.25159201
-0.013179831 -0.2071766 0.25159201
0.19397968 -0.20673603 0.25159201
-0.17339391 -0.19843411 0.25159201
0.20975986 -0.19192266 0.25159201
-0.19468805 -0.1846547 0.25159201
0.015351854 -0.18466431 0.25159201
-0.2528145 -0.17230302 0.25159204
0.042353775 -0.17513436 0.25159201
0.077516504 -0.176304 0.25159201
0.035553731 -0.16432455 0.25159201
0.088747643 -0.16542578 0.25159201
0.093145601 -0.16405663 0.25159201
0.10889724 -0.16059497 0.25159201
0.22507441 -0.16110209 0.25159201
-0.004983373 -0.14463544 0.25159201
0.13461593 -0.14470631 0.25159201
0.1682999 -0.14789692 0.25159198
-0.2577711 -0.12682843 0.25159201
-0.11163069 -0.12569623 0.25159201
0.11324164 -0.12967509 0.25159201
-0.2084721 -0.11385772 0.25159201
0.16408956 -0.11315584 0.25159201
-0.17346738 -0.10809607 0.25159201
-0.16404149 -0.10750228 0.25159201
0.045458864 -0.093725882 0.25159201
-0.275314 -0.083831444 0.25120798
-0.21409012 -0.082849309 0.25159201
-0.10018591 -0.088542014 0.25159201
-0.22717308 -0.073421568 0.25159201
-0.18600327 -0.070699133 0.25159201
-0.14111808 -0.070904523 0.25159201
0.071796723 -0.066392928 0.25159201
0.16990638 -0.067587361 0.25159201
-0.24549136 -0.055110976 0.25159201
-0.06257765 -0.052468739 0.25159201
-0.037768565 -0.051189959 0.25159201
0.031485669 -0.050996125 0.25159201
-0.275314 -0.044666912 0.25045162
-0.24443376 -0.036995381 0.25159201
-0.20621218 -0.036127731 0.25159201
-0.15239657 -0.038217202 0.25159201
0.072797254 -0.039188135 0.25159201
-0.23511133 -0.020210013 0.25159201
-0.065226018 -0.02466586 0.25159201
0.11367212 -0.021373719 0.25159201
-0.23163363 -0.014235198 0.25159201
0.025569405 0.0065503493 0.25159201
-0.085611247 0.017558083 0.25159201
0.037343077 0.012448639 0.25159201
0.083356068 0.017757792 0.25159201
0.17717278 0.013294339 0.25159201
0.18602869 0.015184179 0.25159204
-0.19514145 0.025725469 0.25159201
-0.18730512 0.028347582 0.25159201
-0.16646197 0.029768378 0.25159201
-0.057404719 0.022823431 0.25159201
-0.083719827 0.033212151 0.25159201
0.058003679 0.035467297 0.25159201
-0.22611627 0.040125132 0.25159201
0.147714 0.046193331 0.25159201
-0.24665655 0.051823676 0.25159201
-0.19220768 0.055228144 0.25159201
0.13206744 0.052536681 0.25159201
-0.13431375 0.065591499 0.25159201
-0.042201176 0.06791532 0.25159201
0.12497676 0.065153576 0.25159201
0.13074623 0.066448957 0.25159201
0.16660811 0.065636799 0.25159201
-0.10295637 0.085194483 0.25159201
-0.075141311 0.086495042 0.25159201
0.15611735 0.086501643 0.25159198
0.2291155 0.082520075 0.25159201
-0.24795052 0.098992936 0.25159201
-0.042880967 0.091148473 0.25159201
0.14393461 0.099879906 0.25159201
0.0242496 0.10667948 0.25159201
0.069054298 0.10221884 0.25159201
0.083623886 0.10394932 0.25159201
0.10447107 0.10980669 0.25159201
0.13521436 0.10890335 0.25159201
0.14428483 0.10761508 0.25159201
0.14080282 0.11525203 0.25159201
-0.27019396 0.12136263 0.25159201
-0.05437639 0.12059096 0.25159201
0.0309783 0.12615278 0.25159201
0.085932218 0.12723099 0.25159201
-0.21491271 0.13403298 0.25159198
-0.053942084 0.13647395 0.25159201
0.2196641 0.13338232 0.25159201
-0.19208801 0.14673461 0.25159201
-0.12131144 0.14568341 0.25159201
-0.022636786 0.14426687 0.25159201
0.102267 0.14379165 0.25159201
0.21565226 0.14547592 0.25159201
-0.16799368 0.15591855 0.25159201
-0.15715188 0.15229738 0.25159201
-0.033152863 0.15619108 0.25159201
-0.26376858 0.16412029 0.25159201
-0.24297455 0.16242912 0.25159201
-0.20968848 0.16888514 0.25159204
-0.037207574 0.16794531 0.25159201
-0.077496924 0.17716029 0.25159201
0.18262449 0.17536488 0.25159201
0.21127933 0.17382708 0.25159201
-0.12485219 0.18803984 0.25159201
0.077307418 0.18424508 0.25159201
0.11452778 0.18094553 0.25159201
-0.18553463 0.19299938 0.25159201
-0.023525588 0.19587934 0.25159201
0.0061684996 0.19754739 0.25159201
0.02237507 0.1954602 0.25159201
-0.16834183 0.21494818 0.25159201
-0.040490698 0.21330726 0.25159201
-0.11318285 0.22387253 0.25159201
0.20627703 0.22947426 0.25159201
-0.275314 0.23929921 0.25109369
-0.23035841 0.23543167 0.25159201
-0.0096285213 0.238389 0.25159201
0.099622406 0.2397024 0.25159201
0.11928357 0.2379505 0.25159201
0.12209898 0.23498586 0.25159201
0.14028896 0.23079248 0.25159201
0.22471321 0.23878318 0.25159201
-0.01622051 0.24681452 0.25159201
0.052531179 0.24610794 0.25159201
0.15248896 0.24049772 0.25159201
-0.25576475 0.26249477 0.25159201
-0.21819028 0.26279873 0.25159201
-0.11622323 0.26529771 0.25159201
0.054600395 0.26098579 0.25159201
-0.2227077 0.27375692 0.25159201
-0.23373561 0.28958124 0.25159201
-0.085337184 0.28166085 0.25159201
-0.074592657 0.28470635 0.25159201
-0.10473476 0.29571551 0.25159201
-0.18636015 0.30174109 0.25159201
0.16762276 0.30975363 0.25159201
-0.091046751 0.3131097 0.25159201
-0.062703893 0.3174116 0.25159201
-0.010569585 0.31856573 0.25159201
0.000578098 0.31093252 0.25159201
0.13956846 0.31958181 0.25159201
0.22786354 0.31355238 0.25159201
-0.19297646 0.32434726 0.25159201
-0.087187842 0.32083315 0.25159201
0.12538502 0.32931232 0.25159201
-0.19912925 0.33295777 0.25159201
-0.16497014 0.33280852 0.25088346
-0.15107708 0.33119017 0.25159201
0.19935511 0.33191544 0.25159201
