# .PCD v0.7 - Point Cloud Data file format
VERSION 0.7
FIELDS x y z
SIZE 4 4 4
TYPE F F F
COUNT 1 1 1
WIDTH 983
HEIGHT 1
VIEWPOINT 0 0 0 1 0 0 0
POINTS 983
DATA ascii
-0.16008085 -0.37416407 -0.25513399
-0.022478037 -0.37578499 -0.25108448
0.021122193 -0.37578499 -0.25375402
0.086406231 -0.36844581 -0.25513399
-0.013567716 -0.359182 -0.25513399
0.073169038 -0.35723156 -0.25513399
0.17526871 -0.35363072 -0.25513399
0.065362208 -0.34069258 -0.25513399
-0.035905037 -0.33422473 -0.25513399
-0.022628225 -0.3350029 -0.25513399
0.08064013 -0.32950273 -0.25513399
-0.16970249 -0.3085731 -0.25513399
-0.073013835 -0.30283543 -0.25513399
0.021335296 -0.30266941 -0.25513399
0.15996954 -0.3002798 -0.25513399
0.052532382 -0.29149789 -0.25513399
0.04507681 -0.28786552 -0.25513399
0.17934401 -0.28658989 -0.25513399
0.087049156 -0.27285677 -0.25513399
-0.017914679 -0.26247787 -0.25513399
-0.002090916 -0.26191044 -0.25513399
0.17856561 -0.2604543 -0.25513399
-0.0040633269 -0.25292063 -0.25513399
0.010310061 -0.25296813 -0.25513399
0.16645759 -0.2464077 -0.25513399
-0.093834572 -0.23752584 -0.25513399
0.068925485 -0.23462315 -0.25513399
-0.079942882 -0.22105187 -0.25513399
-0.033846699 -0.21737128 -0.25513399
-0.087910175 -0.19667101 -0.25513399
0.10678772 -0.19482809 -0.25513399
-0.12994188 -0.17563727 -0.25513399
-0.096933529 -0.17448701 -0.25513399
0.18365744 -0.17741019 -0.25513399
-0.19286382 -0.16100872 -0.25513399
-0.043094814 -0.16565245 -0.25513399
0.082606599 -0.1674601 -0.25513399
0.14889495 -0.16117221 -0.25513399
-0.16215225 -0.15768397 -0.25513399
0.095911026 -0.14279142 -0.25513399
0.11649351 -0.14811273 -0.25513399
0.17292383 -0.13694134 -0.25513399
0.087567516 -0.12979949 -0.25513399
0.16849503 -0.12428087 -0.25513399
0.19187339 -0.12695736 -0.25513399
0.1488149 -0.1062654 -0.25513399
-0.20872334 -0.094596162 -0.25513399
-0.20597008 -0.085891917 -0.25513399
0.13770977 -0.08150968 -0.25513399
-0.055502526 -0.070482865 -0.25513399
0.0030023246 -0.055631064 -0.25513399
0.094012842 -0.052271482 -0.25513399
0.17111361 -0.055370025 -0.25513399
-0.17237157 -0.048449159 -0.25513399
-0.19256544 -0.037997756 -0.25513399
0.045885988 -0.019470133 -0.25513399
0.18457583 0.0068829656 -0.25513399
-0.087015256 0.021843512 -0.25513399
-0.071416453 0.024654575 -0.25513399
-0.11235075 0.039340746 -0.25513399
-0.068318352 0.034298725 -0.25513399
0.038223647 0.036561497 -0.25513399
-0.075299494 0.04731299 -0.25513399
0.01611083 0.043188095 -0.25513399
-0.1619736 0.059545763 -0.25513399
0.16340713 0.057110354 -0.25513399
0.090999901 0.069152601 -0.25513399
0.038225133 0.080578573 -0.25513399
0.17921121 0.082762048 -0.25513399
0.0091600958 0.090683706 -0.25513399
0.087699965 0.096793234 -0.25513399
0.16374975 0.093751252 -0.25513399
-0.018533401 0.10110848 -0.25513399
-0.20902601 0.11958416 -0.25480956
-0.060656376 0.17206141 -0.25513399
0.032581553 0.17699862 -0.25513399
0.069949411 0.17329003 -0.25513399
0.11852635 0.17214079 -0.25513399
0.087480515 0.18997914 -0.25513399
0.12226835 0.18562685 -0.25513399
-0.13927165 0.19310707 -0.25513399
-0.079596512 0.20032245 -0.25513399
-0.11473301 0.22930168 -0.25513399
-0.087145142 0.22252688 -0.25513399
-0.20175298 0.23504111 -0.25513399
-0.087160498 0.23391196 -0.25513399
-0.040296063 0.23085406 -0.25513399
-0.03964553 0.23567165 -0.25513399
0.017291933 0.23617473 -0.25513399
0.072975591 0.23719683 -0.25513399
-0.047417462 0.24760708 -0.25513399
0.13461089 0.24627414 -0.25513399
-0.078894928 0.25550118 -0.25513399
0.091428794 0.25507617 -0.25513399
0.11503929 0.25357127 -0.25513399
-0.041017137 0.2643047 -0.25513399
-0.20863329 0.27002737 -0.25513399
-0.095014706 0.27013695 -0.25513399
0.13989712 0.27316949 -0.25513399
-0.030063242 0.28588885 -0.25513399
-0.017399892 0.28875726 -0.25513399
-0.0079062805 0.28484046 -0.25513399
0.0078157261 0.28849876 -0.25513399
0.15299557 0.28039894 -0.25513399
-0.052785337 0.29123777 -0.25513399
0.087555766 0.31890157 -0.25513399
0.17926329 0.31349671 -0.25513399
0.19212 0.31875455 -0.25509435
0.074317917 0.33427626 -0.25513399
0.11792618 0.33249465 -0.25513399
-0.1384577 0.34889555 -0.25513399
0.07531859 0.34915316 -0.25513399
0.089470424 0.35515508 -0.25513399
0.035221249 0.36122447 -0.25513399
-0.17025855 0.37384003 -0.25513399
0.10374218 0.37578499 -0.25415593
-0.15098029 -0.37578499 -0.24290705
-0.02585198 -0.37578499 -0.24025589
0.19212 -0.3248072 -0.24039097
-0.20902599 -0.31644648 -0.24688819
-0.20902599 0.019363761 -0.2446952
-0.20902601 0.026631504 -0.24637982
0.19212 0.061653033 -0.24276088
0.19211999 0.13028799 -0.24979834
-0.20902601 0.1458831 -0.24132049
0.19211999 0.2004036 -0.24032508
-0.13089146 0.37578499 -0.24276249
-0.060970549 0.37578499 -0.24020211
0.04684183 0.37578499 -0.24584267
-0.10537893 -0.37578499 -0.23577142
-0.01500383 -0.37578499 -0.23698284
0.082901634 -0.37578499 -0.23191077
-0.20902599 -0.34952623 -0.23938321
0.19212 -0.32469872 -0.23856232
0.19212 -0.28035694 -0.23116471
0.19212 -0.26970986 -0.23477462
-0.20902599 -0.12405661 -0.23883498
0.19212 -0.047401346 -0.23459911
-0.20902599 -0.021329716 -0.23616385
-0.20902599 -0.018806532 -0.23566484
-0.20902599 0.062606812 -0.23844805
0.19212 0.15286058 -0.23337322
0.19212 0.29044527 -0.23204264
0.10589039 0.37578499 -0.23887254
0.059208013 -0.37578499 -0.22044352
0.11575058 -0.37578499 -0.22659341
0.1489832 -0.37578499 -0.22492412
0.19212 -0.34276479 -0.2294465
-0.20902599 -0.31633914 -0.224061
0.19211999 -0.23364817 -0.22725655
-0.20902599 -0.17881045 -0.22033753
0.19212 -0.14313492 -0.22943391
-0.20902598 -0.052442372 -0.2242018
0.19212 -0.036453504 -0.22639021
-0.20902598 0.15283692 -0.22353604
-0.20902599 0.16081996 -0.22286904
-0.20902598 0.19806086 -0.2249696
-0.20902601 0.22090197 -0.22025783
-0.20902599 0.31411403 -0.22810335
-0.14918754 0.37578499 -0.22651377
0.014556311 -0.37578499 -0.21943739
0.068574592 -0.37578499 -0.21388248
0.19212 -0.25503218 -0.21632764
0.19212 -0.13648242 -0.21944956
-0.20902599 -0.097687952 -0.21545872
0.19212 0.018224522 -0.2128235
0.19212 0.065793909 -0.21957098
-0.096830077 0.079667166 -0.21337974
-0.041475117 0.070098683 -0.21096988
0.10928146 0.082910001 -0.21358335
0.013159953 0.09725976 -0.21448439
-0.051522717 0.10719377 -0.21510816
-7.4371696e-05 0.12442382 -0.21619004
0.055727676 0.12570588 -0.21627057
-0.13297987 0.1526494 -0.21100062
-0.20902599 0.24350898 -0.2120354
-0.13071513 0.37578499 -0.21248817
-0.11926618 0.37578499 -0.21756971
-0.12199543 -0.37578499 -0.20862615
0.19212 -0.21660846 -0.20690504
-0.20902599 -0.19629133 -0.20732231
0.19212 -0.1412053 -0.20372151
-0.101435 0.067265533 -0.20187074
-0.097384572 0.06915845 -0.20794988
-0.20902599 0.11698411 -0.20760101
0.17675 0.11237203 -0.20058721
-0.20902598 0.15658934 -0.20278521
0.17675 0.15017912 -0.20994514
0.070919558 0.16565575 -0.20837647
-0.20902601 0.173123 -0.20760441
-0.10743167 0.17021076 -0.20745744
-0.080429628 0.18605034 -0.20277371
0.098739877 0.18817452 -0.20171896
0.13755214 0.18660221 -0.20249967
-0.20902598 0.22089224 -0.20500299
-0.20902598 0.23363644 -0.20391931
-0.18672709 0.37578499 -0.20653652
0.11826362 -0.37578499 -0.19615971
0.19211999 -0.23307745 -0.19923621
-0.20902601 -0.21746832 -0.1997012
0.054320559 0.064153992 -0.19187871
0.17675 0.08752425 -0.19175977
-0.13678899 0.18666291 -0.19580875
0.19212 0.18718445 -0.19643228
-0.13678899 0.19388875 -0.19494778
0.10726763 0.20803015 -0.1918595
-0.072475709 0.37578499 -0.19032805
-0.020299342 0.37578499 -0.19829656
0.024862565 0.37578499 -0.1929217
-0.019441023 -0.37578499 -0.18704069
0.19211999 -0.37239206 -0.18981385
0.19212 -0.27854967 -0.18403202
-0.20902599 -0.066839606 -0.18324862
-0.20902598 -0.044471964 -0.18080567
-0.20902598 0.002642855 -0.18231326
0.10506354 0.00307725 -0.18524545
-0.11536015 0.015946155 -0.18148312
0.11371689 0.017301345 -0.18083015
-0.10697737 0.061471879 -0.18326458
0.17675 0.099238485 -0.18313605
0.17675 0.13259882 -0.18836299
-0.13678899 0.14478925 -0.18251148
0.19212282 0.17859766 -0.18690023
0.096662283 0.21433978 -0.1887264
0.17675 0.21880682 -0.18370233
0.019881811 0.22057721 -0.18562916
0.11706565 0.22144161 -0.18519993
0.20902599 0.29689184 -0.18758202
-0.060043521 0.37578499 -0.18509418
0.1557807 0.37578499 -0.18124594
-0.10169251 -0.37578499 -0.17761581
0.068119526 -0.37578499 -0.17194873
0.19212 -0.29006714 -0.17949145
0.19212 -0.20140362 -0.17014791
0.19212 -0.14011098 -0.17499913
0.19212 -0.032530226 -0.17060512
-0.0016760677 -0.01420004 -0.17376927
0.011839122 0.027571987 -0.17588633
0.13885841 0.022886079 -0.17814164
-0.12593165 0.059349079 -0.17644727
0.17675 0.20608263 -0.17319179
0.19842055 0.20880821 -0.17230234
0.053573806 0.23405311 -0.17774314
-0.20902599 0.29702407 -0.17736129
0.053550661 0.37578499 -0.17123137
0.15225825 -0.37578499 -0.16461459
-0.20902599 -0.33715403 -0.16510692
0.19212 -0.33535737 -0.16380608
-0.20902598 -0.21878034 -0.16520327
0.19212 -0.13899043 -0.16908348
-0.20902599 -0.099424072 -0.16511813
-0.13678899 0.017722262 -0.16666625
-0.02712759 0.056679212 -0.16787308
0.0034242123 0.05528637 -0.16340001
0.0486116 0.056130085 -0.16610959
-0.20902599 0.079589754 -0.16246107
0.207489 0.1262704 -0.16451144
-0.13678899 0.14884211 -0.16136777
-0.20902601 0.18991338 -0.16411215
-0.13678899 0.18025318 -0.16625677
0.20067614 0.22038344 -0.1645222
0.0140511 0.2494923 -0.16412808
-0.20902599 0.25205511 -0.16908261
0.12652583 0.25129217 -0.16254084
-0.20902599 0.33560491 -0.16955566
-0.0024844483 0.37578499 -0.16652733
0.023773452 0.37578499 -0.16822526
-0.11804126 -0.37578499 -0.15350333
0.014330879 -0.37578499 -0.15574777
-0.20902599 -0.29073027 -0.15538086
-0.20902599 -0.26396787 -0.15795574
0.19212 -0.20326106 -0.15143828
0.19212 -0.1931189 -0.15187448
0.19212 -0.15341151 -0.15709586
-0.20902599 -0.12545469 -0.15177104
-0.12170115 -0.038036134 -0.15352398
-0.016375065 -0.037143558 -0.15453614
0.14045686 -0.035330504 -0.1565921
-0.13678899 -0.025691239 -0.15743458
0.17675 0.028187471 -0.15444382
-0.20902601 0.075930804 -0.15334204
0.17675 0.075438172 -0.15483074
-0.13678899 0.081627935 -0.15148573
0.17675 0.22103252 -0.15121417
0.13277805 0.2583093 -0.15635277
-0.20902598 0.27320898 -0.15694194
0.19212 0.36204377 -0.15471916
-0.16506016 0.37578499 -0.15556855
-0.07839179 0.37578499 -0.15135805
0.10207309 0.37578499 -0.15508945
0.011521237 -0.37578499 -0.14964473
-0.20902601 -0.25630331 -0.14131552
-0.20902599 -0.23568195 -0.14973302
0.19212 -0.15249249 -0.14648193
-0.06013206 -0.04166504 -0.14940891
-0.13678899 -0.038181953 -0.1442363
-0.20902601 -0.014678359 -0.14064939
0.17675 0.0028115199 -0.14025606
0.17675 0.15949923 -0.14629957
-0.13678899 0.24439615 -0.14024156
-0.20902599 0.26797014 -0.14382608
-0.051587533 0.27282572 -0.14352417
0.0007498078 0.37578499 -0.14930014
-0.15593454 -0.37578499 -0.13549879
0.053250395 -0.37578499 -0.13823913
-0.20902598 -0.20364146 -0.13283496
0.096174754 -0.053634733 -0.13583559
0.19490261 -0.034190174 -0.13512507
-0.20902601 0.011925451 -0.13743672
0.207489 0.012545987 -0.13760772
-0.20902598 0.12456352 -0.1355096
0.19344515 0.25047365 -0.13815986
0.19307762 0.335251 -0.13945177
-0.075396471 0.37578499 -0.13372962
0.00034226477 0.37578499 -0.13542713
0.19212 -0.35321072 -0.12182519
-0.029681116 -0.062223349 -0.12609631
0.075611934 -0.062319871 -0.12598686
-0.20902599 -0.015407801 -0.1275184
-0.13678899 -0.016957741 -0.12715934
-0.13678899 0.017962111 -0.12502439
0.201342 0.31119469 -0.12282951
-0.081201568 0.37578499 -0.12268505
-0.065829605 0.37578499 -0.12502882
-0.043279529 0.37578499 -0.12800704
-0.11822592 -0.37578499 -0.11645796
0.19212 -0.30141076 -0.11299451
0.19212 -0.19535051 -0.11661895
0.081004634 -0.071238443 -0.11085022
-0.13678899 0.1833723 -0.11426501
0.17675 0.25780901 -0.11036116
-0.13036883 0.2931703 -0.11289576
-0.20902599 0.30662146 -0.1155138
-0.14936365 0.37578499 -0.11401173
-0.012759693 0.37578499 -0.11576047
0.083568506 0.37578499 -0.11325043
-0.13194776 -0.37578499 -0.10086745
0.19212002 -0.28528696 -0.10266434
0.19211999 -0.091496676 -0.10174606
-0.022836 -0.073031493 -0.10723921
0.16267157 -0.075092971 -0.1030876
0.17675 -0.021216784 -0.10060002
-0.20902599 0.15539439 -0.10914757
-0.20902599 0.18454625 -0.10607673
-0.13678899 0.21608692 -0.10717143
-0.10098639 0.29643881 -0.10797511
-0.098019518 0.29520056 -0.10983926
0.056646213 0.29615045 -0.10840924
-0.035750933 0.37578499 -0.10994858
-0.049129546 -0.37578499 -0.092946589
-0.20902599 -0.27274433 -0.095220543
0.19211999 -0.25477213 -0.093869507
0.14511782 -0.078977615 -0.095264375
0.19772281 -0.058675546 -0.09869732
0.207489 -0.038554952 -0.099145204
0.17675 -0.027797025 -0.093464695
-0.13678899 0.18555522 -0.097336255
-0.13678899 0.2140944 -0.099625595
0.17853703 0.23570721 -0.090036668
0.207489 0.25253531 -0.099293351
-0.20902599 0.32484066 -0.098724723
0.14937074 0.37578499 -0.096483618
-0.20902601 -0.37387869 -0.088372461
-0.1882437 -0.37578499 -0.086105153
-0.13521662 -0.37578499 -0.083021939
0.15364315 -0.37578499 -0.089320898
0.19212 -0.29783219 -0.081856847
0.19212002 -0.11189708 -0.083656132
-0.073771194 -0.083690897 -0.085772358
-0.20902599 -0.021911331 -0.089468762
-0.20902601 -0.016578678 -0.084064543
-0.13678899 0.24351859 -0.080345683
0.035149224 0.30630922 -0.089199051
0.16083916 0.30808443 -0.083921976
-0.20902601 0.35809958 -0.088266522
-0.13144103 0.37578499 -0.085774869
-0.1673544 -0.37578499 -0.073673017
0.19212002 -0.34583342 -0.070826463
0.19212 -0.32913837 -0.07763125
-0.20902599 -0.25715506 -0.071734324
0.19212002 -0.10336925 -0.076358736
0.067645863 -0.088404186 -0.076280326
0.12683474 -0.087442294 -0.078217462
0.17675 -0.061995931 -0.076679528
-0.13678899 -0.0026042792 -0.073230274
-0.13678899 0.00053040264 -0.07999669
-0.13678899 0.19334427 -0.076205581
-0.13678899 0.2468994 -0.072680697
0.19558686 0.24263501 -0.076635182
-0.12133192 0.31117249 -0.074742243
0.034015678 0.31268913 -0.070233613
-0.080511808 0.37578499 -0.071473107
-0.020707175 0.37578499 -0.075570613
0.15138555 0.37578499 -0.078014955
0.080173939 -0.37578499 -0.063786007
0.092215165 -0.37578499 -0.06162063
0.19212002 -0.29787889 -0.060950391
0.19212 -0.26687077 -0.06306906
-0.09585724 -0.091943629 -0.064413622
0.098133639 -0.091912046 -0.064570181
0.1476891 -0.091995239 -0.064157926
0.17675 -0.071357526 -0.064786546
-0.13678899 -0.058815554 -0.06956701
-0.20902598 0.10811797 -0.063432664
-0.12130338 0.31503928 -0.063247465
0.10331999 0.31578079 -0.061043173
0.19212 0.32459179 -0.063568883
0.041092262 0.37578499 -0.062318183
0.066000454 0.37578499 -0.061509214
0.1133682 0.37578499 -0.065707244
0.188623 0.37025699 -0.069867335
-0.20902598 -0.37379777 -0.059304513
-0.13530156 -0.37578499 -0.052685738
-0.06997586 -0.37578499 -0.055856917
-0.20902599 -0.27530226 -0.05936639
0.19212 -0.2765803 -0.059861951
-0.20902601 -0.11292109 -0.051149331
0.14287059 -0.093782812 -0.055299029
0.19821957 -0.021113645 -0.054715283
-0.20902598 0.11056978 -0.052011494
-0.13678899 0.25136989 -0.055269256
-0.13678899 0.28771847 -0.050019115
0.17675 0.30457914 -0.050243862
0.032220569 0.31834903 -0.053408615
0.13026521 0.31821522 -0.053806346
-0.11572757 0.37578499 -0.059813548
0.12414667 0.37578499 -0.057086311
0.15945838 0.37578499 -0.057225741
0.19212 -0.26488668 -0.0440493
0.20748901 -0.029679518 -0.040466901
-0.20902599 0.023594469 -0.041259982
-0.20902599 0.12347287 -0.041676462
-0.13678899 0.13925698 -0.048343591
0.18450949 0.25592527 -0.043214474
0.13290422 0.31963584 -0.04958332
0.17664492 0.32139325 -0.044359166
0.19212 0.352938 -0.047816917
-0.09313067 0.37578499 -0.042592242
0.19212 -0.19922692 -0.035860017
-0.20902599 -0.17864215 -0.030478373
0.19212 -0.14970659 -0.032144736
-0.018915262 -0.096979447 -0.039457146
0.17632289 -0.097778589 -0.035496801
-0.20902599 0.052466374 -0.037887231
-0.056258239 0.31407148 -0.037656423
0.018302515 0.311104 -0.034984931
0.17675 0.32053286 -0.033018015
-0.15763336 0.37578499 -0.033042409
-0.086646594 0.37578499 -0.030583963
-0.19802149 -0.37578499 -0.023771711
-0.12624595 -0.37578499 -0.023266785
0.057620429 -0.10018031 -0.023594303
-0.083886892 -0.098934986 -0.029765889
0.035074756 -0.099252686 -0.028191462
0.17675 -0.07752981 -0.025398558
-0.20902599 -0.059390336 -0.020990625
-0.13678899 -0.025370736 -0.02705371
-0.20902599 -0.00041332282 -0.021194344
-0.046888929 0.29545078 -0.020893672
-0.10081461 0.30202821 -0.02681482
0.10861766 0.30137822 -0.026229471
0.14563188 0.30296984 -0.027662208
-0.20902599 0.33878422 -0.023087289
-0.026032822 0.37578499 -0.029926118
-0.017973691 0.37578499 -0.022688948
0.061142888 0.37578499 -0.025704918
-0.17544419 -0.37578499 -0.019763477
0.023149431 -0.37578499 -0.017986821
0.19211999 -0.31723595 -0.013169333
-0.20902601 -0.2179479 -0.010524251
-0.20902599 0.0026307995 -0.010867377
-0.20902599 0.1965106 -0.013840366
-0.054733194 0.28924805 -0.015309859
0.207489 0.28109875 -0.012101796
-0.20902599 0.36860615 -0.016287211
0.16176914 0.37578499 -0.011596021
0.19212002 -0.16635129 -0.0075586839
-0.015525954 -0.10027052 -0.00031567749
-0.13678899 -0.028970748 -0.00060343742
-0.20902599 0.06766969 -0.0050049052
-0.20902599 0.15305394 -0.009209007
-0.13678899 0.15515704 -0.00868263
-0.13678899 0.21742292 -0.0059228698
-0.20902598 0.25985909 -0.00042198226
-0.13678899 0.26144883 -0.0083343852
0.15612356 0.28056473 -0.0074928068
-0.20902601 0.32572031 -0.0077890456
-0.20549877 0.37578499 -0.0078419074
0.049139872 0.37578499 -0.00092551857
0.12218454 0.37578499 -0.0043101273
-0.13678899 -0.068331793 0.0071286559
-0.20902598 0.087442428 0.0091999397
0.073666096 0.26885426 0.0030491245
0.0041430593 0.27351302 0.0077216909
-0.011047326 0.37578499 0.0063726343
0.14595725 -0.37578499 0.018316276
-0.20902599 -0.29809609 0.012127861
0.19212 -0.18677039 0.018698934
-0.20902599 -0.13956647 0.019250341
0.19212 -0.11812168 0.018820215
0.032846518 -0.099142462 0.017647445
0.17675 -0.095856473 0.014603228
-0.13678899 -0.01698732 0.010361254
-0.13678899 0.057642251 0.014893143
-0.13678899 0.15337539 0.011937165
-0.095874354 0.28612947 0.013897756
0.12377167 0.28195038 0.011851806
-0.076973304 0.29127437 0.016416259
-0.044264354 0.29744419 0.019436508
-0.0047151698 0.29317451 0.017346423
-0.10560389 -0.37578499 0.029183112
-0.20902598 -0.23619093 0.02693516
0.19212 -0.17777011 0.029437285
-0.20902599 -0.12240565 0.025257401
0.016069865 -0.098462984 0.02846738
0.17675 -0.062792659 0.020769626
0.17675 -0.046635371 0.029825561
-0.20902598 -0.034432173 0.02733919
-0.20902599 0.0019777119 0.029658809
-0.20902601 0.12796277 0.023586184
-0.13678899 0.20576775 0.021003531
-0.13678899 0.28041551 0.025194947
0.20748901 0.29483211 0.020413416
0.081817254 0.30136651 0.021356247
-0.13270538 0.31221917 0.026669092
-0.11633935 0.31655055 0.028789388
-0.041978855 0.31450015 0.027785707
0.045923896 0.31779981 0.029400922
0.070121959 0.31665647 0.02884125
-0.020544967 0.37578499 0.029623982
0.084694408 0.37578499 0.021612115
0.093313068 0.37578499 0.029548958
-0.20743635 -0.37578499 0.036293447
-0.16084172 -0.37578499 0.032069951
-0.017511956 -0.37578499 0.037281014
0.16103181 -0.37578499 0.037789173
0.19212 -0.34719953 0.032230347
0.19212 -0.33581826 0.030582864
0.19212 -0.30073249 0.034704484
-0.20902601 -0.21103033 0.03852525
0.043033436 0.31957036 0.030267645
-0.012562096 0.32013655 0.035079848
0.19211999 0.34856033 0.03604934
-0.20902599 0.35949612 0.035793453
0.10194062 0.37578499 0.039923016
-0.12467901 -0.37578499 0.046128064
0.055722598 -0.37578499 0.04257632
0.18129984 -0.37578499 0.0404329
-0.20902599 -0.33665818 0.049019773
0.19212 -0.12124092 0.044109132
0.19212 -0.11005128 0.041073509
-0.043382794 -0.096056759 0.043319505
-0.0066995863 -0.095624626 0.044604059
-0.20902599 -0.016386092 0.04370632
-0.20902598 0.030329868 0.048013009
-0.20902599 0.076847821 0.046467062
-0.13678899 0.25734767 0.04742565
0.207489 0.2743378 0.047723033
-0.070817292 0.31818378 0.044759016
0.0012944229 0.31778085 0.046755292
0.099338487 0.31748068 0.048242807
0.19211999 0.31038082 0.049178112
-0.17741549 0.37578499 0.048276633
0.15749985 0.37578499 0.042226333
-0.093535453 -0.37578499 0.058532953
0.19212 -0.17331973 0.05462651
-0.20902598 -0.091959298 0.052418802
0.066602901 -0.091305174 0.057444096
-0.13678899 -0.030671585 0.05481584
-0.20902599 -0.0014650524 0.051000193
-0.13678899 0.027734715 0.052914396
-0.13678899 0.042873755 0.058248591
-0.20902599 0.060502566 0.052232176
-0.13678899 0.19198032 0.054312803
0.18609318 0.24574584 0.058340274
-0.13678899 0.30394703 0.05749961
0.091758013 0.31536239 0.058742568
-0.20902599 0.36292887 0.052176721
0.10907385 0.37578499 0.059898678
0.12090345 0.37578499 0.05640306
-0.20902599 -0.26981515 0.06013133
-0.055020805 -0.088603228 0.065475896
0.17675 -0.049361631 0.065240942
-0.20902599 0.15661943 0.065666832
-0.042692594 0.31478393 0.061609872
0.019478597 0.31507128 0.060185485
-0.031263873 0.37578499 0.06132647
0.040058251 0.37578499 0.064208247
-0.20902598 -0.31131846 0.072006375
-0.20902599 -0.22374086 0.079911143
-0.054451909 -0.084711418 0.077044748
0.17675 -0.081625573 0.073919296
-0.13678899 -0.034754682 0.079631954
-0.20902598 0.15269525 0.074828446
-0.20902599 0.19321226 0.07585752
-0.13678899 0.26028576 0.072562702
-0.062456541 0.30767876 0.078557655
-0.18740977 0.37578499 0.078771397
-0.13911155 0.37578499 0.075078472
-0.078090213 -0.37578499 0.083281733
0.19212 -0.32315403 0.087497272
0.19212 -0.30360901 0.081657007
-0.20902598 -0.23383793 0.080368489
0.19212 -0.084245168 0.08350049
-0.13678899 -0.066307165 0.08276616
0.20748898 0.25496069 0.082989514
-0.13678899 0.2849181 0.089614324
-0.050998066 0.30302182 0.087935574
0.10162883 0.30438739 0.085185647
-0.20902598 0.34835213 0.080453806
-0.19537467 0.37578499 0.084562473
0.15514913 0.37578499 0.081601731
-0.10558802 -0.37578499 0.097110622
-0.031424992 -0.37578499 0.095388353
0.19212 -0.35929233 0.099850446
-0.20902601 -0.34063751 0.099075094
0.19212 -0.31794369 0.096146502
0.047400586 -0.078202501 0.093629457
0.17675 -0.020902751 0.099623762
-0.13678899 0.0035994349 0.098845817
0.18942627 0.015546811 0.098138005
0.19279552 0.01427216 0.09672308
-0.13678899 0.059823684 0.097722918
0.19212 0.27209914 0.093618736
-0.20902599 0.28776234 0.090623498
0.064773284 0.29841417 0.097214222
0.17675 0.29617381 0.092529394
0.012799449 0.30134898 0.091304228
0.074968547 0.30038393 0.093247592
-0.097028874 0.37578499 0.093363181
0.013366524 0.37578499 0.094815962
0.14814846 0.37578499 0.098297685
-0.097849891 -0.37578499 0.10253912
-0.053744838 -0.37578499 0.10958978
0.19212 -0.20397067 0.10627492
-0.20902599 -0.17797261 0.10873646
-0.20902599 -0.16912453 0.10593669
-0.018621556 -0.072776467 0.10179833
0.016463488 -0.06900654 0.10747394
0.19211999 -0.04984045 0.10754957
0.17675 -0.0089677963 0.10809947
-0.13678899 0.12657763 0.10875753
-0.13678899 0.19766857 0.10272211
-0.13678899 0.22362155 0.10561654
0.19519401 0.29253256 0.1002001
-0.20902599 0.33481655 0.10923729
-0.18578346 0.37578499 0.10264073
-0.15222698 -0.37578499 0.11020357
0.085148826 -0.37578499 0.11472765
0.093588084 -0.37578499 0.11700991
0.13884346 -0.37578499 0.11990008
0.14408132 -0.37578499 0.11725938
0.19212 -0.086530805 0.1170586
-0.096204296 -0.067291215 0.11005636
-0.034690838 -0.064459473 0.11431955
-0.016688347 -0.061671957 0.11851618
0.11012071 -0.064484254 0.11428249
0.19679201 -0.030271377 0.11952262
-0.13678899 0.044307217 0.11695006
-0.13678899 0.098124705 0.1156232
-0.13678899 0.134794 0.11645411
-0.20902598 0.24555382 0.11156868
0.10166116 0.28827888 0.11691773
0.19519401 0.33305719 0.11349194
0.033908185 -0.37578499 0.12793016
-0.20902598 -0.26286221 0.12136725
0.19212 -0.21139862 0.12396614
0.19211999 -0.16997233 0.1200673
-0.20902599 -0.13883464 0.12113069
-0.20902601 -0.1023483 0.12998296
0.088451557 -0.056005917 0.12704676
0.17675 -0.050776448 0.12052704
-0.094021723 -0.012620353 0.12904125
0.10844965 -0.0082669165 0.12806523
-0.012901653 0.002499897 0.12565131
-0.0354506 0.019857667 0.12175972
0.019043438 0.015987745 0.12262735
0.17675 0.017850798 0.12596594
0.10742836 0.021175418 0.12146428
0.045165114 0.0328984 0.12040172
0.18432519 0.048646614 0.12205166
0.18009681 0.055279654 0.12554882
0.19764775 0.17383932 0.12574264
0.17675 0.19339256 0.12501913
0.20748898 0.20376512 0.12575096
0.20414533 0.24790049 0.12398331
0.13492566 0.28274986 0.1231875
0.19519402 0.29646766 0.12126399
-0.20902601 0.34248972 0.12070316
-0.14307375 0.37578499 0.1267651
-0.11303926 -0.37578499 0.13361628
-0.20902599 -0.17487989 0.13690051
0.085552245 -0.051845469 0.13331041
-0.0630254 -0.041941553 0.13561504
0.056507856 -0.044223372 0.13612662
0.11501685 -0.045582008 0.13643123
0.06365329 -0.017892098 0.13022318
0.14741905 -0.018113818 0.13027288
0.2058267 0.075652301 0.13469109
-0.13678899 0.080287695 0.13586694
0.19841674 0.09354531 0.13674483
0.15106164 0.27310476 0.13412482
0.19212 -0.095925346 0.146182
0.080998227 0.0328984 0.14511834
0.207489 0.077438779 0.14639847
0.17675 0.1846208 0.14233042
-0.098456785 0.26627687 0.1418675
-0.076522052 0.26598346 0.14220023
-0.010687351 0.26507992 0.14322484
-0.13536406 -0.37578499 0.15860498
-0.10947473 -0.37578499 0.15550128
0.19212 -0.025239907 0.15465125
-0.024185155 0.0328984 0.15197521
-0.20902599 0.1623202 0.1542777
-0.20902599 0.17622688 0.15322796
-0.20902599 0.19323809 0.15697306
-0.13678899 0.19822526 0.1525391
0.016809992 0.24987048 0.15938009
0.010293111 0.25223872 0.15778643
-0.20902601 0.27497452 0.15070292
0.19519401 0.28695202 0.15569116
0.19519401 0.31621215 0.15512393
0.13909344 0.37578499 0.15479377
0.19519401 0.37153721 0.15102972
-0.20206645 -0.37578499 0.16165698
0.13911939 -0.37578499 0.16351107
-0.20902599 -0.27436301 0.16125427
-0.20902598 -0.10879447 0.1699952
-0.20902599 0.10049592 0.16741815
0.207489 0.15585785 0.16884466
0.17675 0.23841199 0.16485831
-0.20902599 0.29143077 0.16670142
-0.20902599 0.33297056 0.16131127
-0.12498539 0.37578499 0.16132911
0.015166316 0.37578499 0.16173284
0.059731476 0.37578499 0.16793767
0.088077761 0.37578499 0.16057515
-0.15461628 -0.37578499 0.1787429
0.049682479 -0.37578499 0.17017163
0.092630714 -0.37578499 0.17572722
-0.20902599 -0.2479991 0.17472199
-0.20902599 -0.23442535 0.1776166
0.19212 -0.20943709 0.17123668
-0.20902599 -0.18560953 0.17899218
0.19212 -0.1232091 0.17334712
-0.20902601 0.0089857504 0.17342815
-0.027236108 0.0328984 0.17403054
0.19372039 0.14367817 0.17869462
0.19807468 0.16300224 0.17490599
0.19212002 0.22823194 0.17410521
-0.021845665 0.23218852 0.1711254
-0.20902599 0.25304103 0.17526761
0.19519401 0.3267293 0.17953533
0.061866086 0.37578499 0.17139405
0.13067375 0.37578499 0.17447473
0.02663023 -0.37578499 0.18295486
0.11576562 -0.37578499 0.18318774
0.18666312 -0.37578499 0.18654859
0.19212 -0.27800745 0.18896133
-0.20902601 -0.18459292 0.18347658
0.19212 -0.11666366 0.18023001
0.17675 0.024818437 0.18158492
-0.13678899 0.06926395 0.18487129
-0.13678899 0.099328816 0.18631884
0.17675 0.091982469 0.1853324
-0.20902598 0.17467076 0.18363914
-0.13678899 0.1805346 0.1850504
-0.031005118 0.20591286 0.1885792
0.12276318 0.20329705 0.18951575
0.089425705 0.218261 0.18037683
0.15271109 0.21204405 0.18450651
-0.20902599 0.25136271 0.18100275
-0.20902599 0.34416914 0.18372147
-0.16883504 0.37578499 0.18557948
0.19519401 0.37389535 0.18441218
-0.062934868 -0.37578499 0.19148467
0.14017484 -0.37578499 0.19007944
0.19212 -0.3577143 0.19033101
0.19212 -0.12302276 0.19676909
-0.13678899 0.034237485 0.19175215
-0.016063437 0.042636752 0.19895718
0.17675 0.073665723 0.19245195
-0.017071184 0.173801 0.19943762
0.068262607 0.17704107 0.19834772
0.13252494 0.18594086 0.19535401
0.083935067 0.19655983 0.19178203
0.15584888 0.19644842 0.19181949
0.17675 0.1989513 0.19070633
-0.20902599 0.30408412 0.19764955
-0.20902599 0.31084555 0.19468363
-0.072828971 0.37578499 0.19833304
-0.13405308 -0.37578502 0.20651874
-0.20902599 -0.27123386 0.20870265
-0.20902599 -0.2161451 0.20905632
-0.20902599 -0.16804749 0.20908198
-0.20902599 -0.1260428 0.20679548
0.19212 -0.11423975 0.20037001
0.007766746 0.052003622 0.20084707
0.093978509 0.05967829 0.20239556
-0.063059464 0.06430003 0.20332806
0.10867109 0.06933713 0.20434436
-0.13678899 0.096111566 0.20172594
-0.028665654 0.10264482 0.20962933
0.14468314 0.10445714 0.20951553
-0.13678899 0.11079154 0.20577604
0.033751532 0.12114623 0.2084676
0.14484762 0.12920733 0.20796144
-0.048739232 0.13455421 0.2076257
0.19212002 0.13794428 0.20147927
-0.10348769 0.15532675 0.20565197
-0.042618282 0.15569702 0.20552741
-0.080391377 0.17164436 0.20016307
-0.044332214 0.17014337 0.20066798
0.19519401 0.34140554 0.20099549
-0.20597085 -0.37578499 0.21118259
-0.14452156 -0.37578499 0.21354045
-0.086995743 -0.37578499 0.2192139
-0.068918251 -0.37578499 0.21202332
0.15083703 -0.37578499 0.21261495
0.19212 -0.3709017 0.21315615
-0.20902598 -0.11675294 0.21578623
0.19212002 -0.012593292 0.21092743
-0.09197107 0.37578499 0.21787049
0.19212 -0.36548728 0.22344008
0.19212 0.053249851 0.22901078
-0.20902599 0.13847522 0.22078428
-0.20902598 0.27912557 0.22463034
0.19519401 0.36996591 0.22710294
-0.081812225 0.37578499 0.22951777
0.14210932 0.37578499 0.22046953
-0.13829215 -0.37578499 0.23781183
-0.053973466 -0.37578499 0.23983872
0.12433298 -0.37578499 0.23927958
-0.20902599 -0.25116467 0.23002476
0.19212 -0.2321687 0.2341626
0.19211999 -0.21486261 0.23973024
0.19212002 0.093213983 0.23458436
0.19212 0.25006512 0.23309702
0.19519401 0.29274273 0.23642871
-0.18241519 0.37578499 0.2340484
-0.16456708 0.37578499 0.23285076
-0.12382391 -0.37578499 0.24017569
-0.069203041 -0.37578499 0.24959135
0.10873479 -0.37578499 0.2414766
0.19212 -0.35656172 0.24816567
0.19212 -0.20894648 0.24569534
0.19211999 -0.18068239 0.24079432
-0.20902599 -0.051132143 0.24445747
-0.20902598 0.12914115 0.24891981
0.19212 0.22882792 0.24502696
0.19378209 0.28139994 0.24430847
0.19519401 0.36991009 0.24886803
0.012073204 0.37578499 0.24390987
-0.19642356 -0.37578499 0.25064301
0.15595701 -0.37346074 0.25513399
0.047024406 -0.33622116 0.25513399
-0.19439702 -0.32430756 0.25513399
-0.19872679 -0.31819624 0.25513399
-0.0060911626 -0.31306547 0.25513399
0.061073549 -0.30441636 0.25513399
0.10177731 -0.30416054 0.25513399
-0.040479697 -0.29087234 0.25513399
0.19211999 -0.29605654 0.25352976
0.11006504 -0.28191212 0.25513399
0.14493451 -0.28111723 0.25513399
-0.18183297 -0.27152982 0.25513399
-0.14539813 -0.27929759 0.25513399
-0.015207037 -0.27223837 0.25513399
-0.17845972 -0.26760149 0.25513399
-0.1409722 -0.26745692 0.25513399
0.077621847 -0.26934877 0.25513399
0.11127251 -0.25790483 0.25513399
0.16831118 -0.25512949 0.25513399
0.13059971 -0.2431643 0.25513399
0.16427612 -0.24753562 0.25513399
0.18148401 -0.22641626 0.25513399
0.15789701 -0.21256466 0.25513399
-0.10406759 -0.20889106 0.25513399
-0.020065062 -0.19547944 0.25513399
0.12649643 -0.19177094 0.25513399
0.14648129 -0.19369766 0.25513399
-0.010123193 -0.18524092 0.25513399
0.14974743 -0.18704571 0.25513399
0.077680215 -0.17773499 0.25513399
-0.033829123 -0.15218358 0.25513399
0.055398006 -0.15618308 0.25513399
0.15612458 -0.1592035 0.25513399
0.16650459 -0.15157098 0.25513399
0.089494854 -0.14149287 0.25513399
0.1624244 -0.14337975 0.25513399
0.0058677029 -0.13821676 0.25513399
0.082804769 -0.12475742 0.25513399
-0.14846332 -0.10061386 0.25513399
0.15730396 -0.10769281 0.25513399
0.037390575 -0.092780046 0.25513399
0.088372126 -0.093451098 0.25513399
0.050870031 -0.066309012 0.25513399
0.067435689 -0.068110742 0.25513399
0.11447987 -0.065707803 0.25513399
0.15186664 -0.064576045 0.25513399
0.18464893 -0.059649438 0.25513399
0.10668092 -0.045498766 0.25513399
0.12703826 -0.049155429 0.25513399
-0.096506476 -0.035553381 0.25513399
-0.059807718 -0.034460023 0.25513399
-0.042048082 -0.027044648 0.25513399
0.019421401 -0.025432887 0.25513399
-0.080884382 -0.019250881 0.25513399
0.02431922 -0.0097497813 0.25513399
0.042874992 -0.0042009875 0.25513399
0.19212 -0.0045201629 0.25216061
0.17761688 5.4240227e-05 0.25513399
-0.14485843 0.014876761 0.25513399
-0.079390928 0.018997524 0.25513399
-0.066388398 0.01731953 0.25513399
0.18776186 0.016972825 0.25513399
-0.18899371 0.022854462 0.25513399
-0.17043263 0.02596809 0.25513399
-0.028242376 0.027206544 0.25513399
-0.18008888 0.030139783 0.25513399
-0.16030422 0.039307818 0.25513399
-0.09295778 0.037038274 0.25513399
0.0037775561 0.033107817 0.25513399
0.038744122 0.030769259 0.25513399
0.10345589 0.039793372 0.25513399
-0.058194384 0.047838375 0.25513399
0.10967052 0.041450098 0.25513399
-0.06220372 0.050144881 0.25513399
0.084801219 0.058348715 0.25513399
0.10538776 0.058949009 0.25513399
-0.20902598 0.069670275 0.25274283
-0.15368159 0.068623528 0.25513399
-0.11265594 0.065406464 0.25513399
0.013669549 0.062943265 0.25513399
0.13136026 0.060840189 0.25513399
0.094084069 0.077631995 0.25513399
-0.19467889 0.087208845 0.25513399
-0.078318544 0.083689451 0.25513399
0.045382425 0.084042452 0.25513399
-0.065236509 0.093158603 0.25513399
-0.051559851 0.10669973 0.25513399
0.080279879 0.10452565 0.25513399
-0.05451528 0.11659133 0.25513399
-0.090373933 0.12199792 0.25513399
0.017117489 0.12656528 0.25513399
0.026562884 0.13783793 0.25513399
0.065887377 0.1350995 0.25513399
0.19145674 0.13314009 0.25513399
-0.037710942 0.14974508 0.25513399
-0.029857408 0.14218876 0.25513399
-0.10411732 0.15169175 0.25513399
0.048158336 0.15583926 0.25513399
-0.12505247 0.1623649 0.25513399
-0.13706517 0.17316741 0.25513399
0.035999998 0.17041674 0.25513399
-0.19000386 0.19476613 0.25513399
-0.045563772 0.19956215 0.25513399
-0.035492852 0.22736287 0.25513399
0.069303632 0.22544378 0.25513399
0.13876127 0.23226278 0.25513399
-0.09505707 0.24037427 0.25513399
0.060512271 0.24652506 0.25513399
-0.1724505 0.25487563 0.25513399
0.19212 0.25365075 0.2510519
-0.20902599 0.2621586 0.25295535
-0.047065996 0.27609056 0.25513399
-0.14803936 0.28015763 0.25513399
-0.17800906 0.291518 0.25513399
0.11603439 0.29767728 0.25513399
-0.051432706 0.30798876 0.25513399
0.014406539 0.30632997 0.25513399
-0.1115952 0.31850344 0.25513399
0.096525155 0.31796801 0.25513399
0.10487832 0.31788027 0.25513399
-0.034762964 0.32697847 0.25513399
-0.016025841 0.32033065 0.25513399
-0.037440311 0.33178392 0.25513399
-0.20843183 0.34130338 0.25513399
0.10513239 0.34456378 0.25513399
-0.16683252 0.35143274 0.25513399
-0.10475063 0.35048169 0.25513399
-0.19211939 0.3693091 0.25513399
-0.15594205 0.36316565 0.25513399
