# .PCD v0.7 - Point Cloud Data file format
VERSION 0.7
FIELDS x y z
SIZE 4 4 4
TYPE F F F
COUNT 1 1 1
WIDTH 913
HEIGHT 1
VIEWPOINT 0 0 0 1 0 0 0
POINTS 913
DATA ascii
0.21686426 0.27503866 -0.21871711
0.2125778 0.28672242 -0.21968301
0.21696073 0.27412045 -0.20785804
0.21570724 0.2860477 -0.20023781
0.21144664 0.32658812 -0.19816369
0.21882838 0.25635171 -0.18727864
0.21610656 0.28224665 -0.18912104
-0.12004595 -0.00036974112 -0.17094609
-0.086351439 -0.0051740743 -0.17031358
-0.086899638 0.0052684397 -0.17168838
-0.02913616 0.0019160649 -0.17124702
0.015999485 0.0084816748 -0.17211139
0.054991752 0.0071584051 -0.17193718
0.094967812 0.0025733486 -0.17133355
0.1226748 0.0072381385 -0.17194769
-0.11198923 0.018068038 -0.17337348
-0.10671563 0.017181227 -0.17325673
-0.039746478 0.01296822 -0.17270207
-0.021230329 0.014044499 -0.17284377
0.073978364 0.014569532 -0.1729129
-0.132065 0.026584562 -0.17225674
-0.11820561 0.02121878 -0.17378828
-0.097373784 0.029503908 -0.17487906
-0.061969724 0.024639249 -0.17423861
-0.054016717 0.029422056 -0.17486829
0.0081200302 0.020645846 -0.17371285
0.043577347 0.027314739 -0.17459084
0.1116818 0.029766768 -0.17491366
-0.0068804845 0.03676638 -0.17583518
-0.070409924 0.048714552 -0.17440781
0.04411101 0.048043866 -0.17449611
0.094049156 0.043967493 -0.17503278
0.12800001 0.044125937 -0.17326568
-0.11922045 0.051413111 -0.17405254
-0.060905688 0.057262175 -0.17328249
0.010549195 0.051046982 -0.17410073
0.11632264 0.056918152 -0.17332777
0.12764573 0.052117601 -0.17395979
-0.11924413 0.061317753 -0.17274857
-0.031483341 0.068605661 -0.17178909
-0.0079888236 0.060332574 -0.17287825
0.030229609 0.064751826 -0.17229645
-0.061394624 0.07041166 -0.17155132
-0.01270421 0.078545377 -0.17048049
0.062791646 0.076330587 -0.17077208
0.10389543 0.075987257 -0.17081729
-0.090662755 0.080906041 -0.1701697
0.21330456 0.30890945 -0.17755513
0.21209256 0.32044193 -0.171452
-0.096583545 -0.027278904 -0.16201469
0.034224864 -0.023410406 -0.16361715
0.087171555 -0.023414399 -0.16361549
-0.07045868 -0.016629966 -0.16642582
-0.050015312 -0.012252992 -0.16823891
-0.034947611 -0.01635886 -0.16653813
-0.021299066 -0.015915411 -0.16672181
0.0032703504 -0.011610413 -0.16850507
0.060086995 -0.019496918 -0.16523823
0.097671367 -0.018017489 -0.16585107
0.0060027167 -0.0081551317 -0.16992112
0.12800001 -0.0072158631 -0.1635382
-0.10578599 0.086187221 -0.16853085
-0.016799904 0.084454924 -0.16924843
0.0037796171 0.082821101 -0.16991757
0.078478925 0.082850784 -0.16991293
-0.10027035 0.093857445 -0.16535355
-0.082076557 0.090551987 -0.16672279
-0.007445503 0.098485455 -0.16343644
0.038018379 0.091577217 -0.16629812
0.065717541 0.092084736 -0.16608788
0.083034948 0.10571324 -0.16044241
0.21362039 0.30590367 -0.16829036
-0.088185333 -0.041292723 -0.15620974
-0.033534531 -0.046665873 -0.15398401
0.010487435 -0.042514581 -0.1557036
0.029187948 -0.046082247 -0.15422577
0.092839576 -0.04258278 -0.15567535
-0.052643668 -0.033943426 -0.15925404
-0.032832436 -0.035331354 -0.15867913
0.12800001 -0.030413145 -0.15574744
0.12800001 -0.025882825 -0.15675753
0.12800001 -0.019639242 -0.15839154
0.12800001 -0.00030221127 -0.15684083
0.12800001 0.039813939 -0.15096378
-0.132065 0.067710206 -0.15290135
0.12800001 0.063338131 -0.15374061
-0.132065 0.10868194 -0.15819155
-0.09472651 0.1086264 -0.15923566
0.12800001 0.10480735 -0.15406021
-0.06523183 0.11159229 -0.15800707
-0.050590124 0.11407322 -0.1569794
0.072734326 0.11141776 -0.15807939
0.12800001 0.11124184 -0.1514437
-0.1118446 0.1282565 -0.15005085
-0.098247841 0.12093405 -0.15413737
-0.015765116 0.12581342 -0.15192534
-0.132065 -0.06499932 -0.14109139
-0.10196162 -0.061457213 -0.14403597
-0.024162307 -0.061153349 -0.14426912
0.036638457 -0.060821164 -0.14452399
-0.054589208 -0.05777625 -0.14686035
0.013466682 -0.055753879 -0.14841208
0.03915935 -0.05390026 -0.14983436
0.064416893 -0.054589242 -0.1493057
0.1154854 -0.058159195 -0.14656651
0.12800001 -0.052042633 -0.14669085
-0.132065 -0.049211893 -0.14497547
0.12800001 -0.045347441 -0.1493843
-0.132065 0.04214289 -0.14557534
0.12800001 0.046931244 -0.14920208
0.12800001 0.07227198 -0.14537811
0.12800001 0.09342932 -0.14906606
-0.132065 0.10481106 -0.14111528
-0.132065 0.11407797 -0.14828315
-0.12406699 0.12952802 -0.14907525
-0.041106321 0.12906241 -0.14943248
-0.0040358603 0.12952676 -0.14907621
0.035197571 0.12971309 -0.14893323
-0.132065 0.13470235 -0.14069161
-0.088418521 0.1392642 -0.14160496
-0.055983931 0.13671085 -0.14356405
-0.015005725 0.13462248 -0.14516641
0.026839957 0.13356237 -0.14597979
0.048941884 0.13276061 -0.14659497
0.053174101 0.13174504 -0.14737418
0.068787798 0.13762674 -0.14286132
0.10716757 0.13766311 -0.14283343
0.1174341 0.13180716 -0.14732651
0.12800001 0.1359119 -0.14131796
-0.10733774 0.14024204 -0.14085469
-0.13109738 -0.074775033 -0.1338173
-0.032444879 -0.073432744 -0.13484724
-0.0037734136 -0.074732609 -0.13384986
0.0086520147 -0.078421049 -0.13101974
0.04150321 -0.077760823 -0.13152632
0.095842652 -0.077102795 -0.13203123
-0.11279052 -0.067647412 -0.13928626
0.073279753 -0.069175422 -0.13811384
0.12800001 -0.069221854 -0.13324772
0.12800001 -0.02124068 -0.13803437
0.1295291 0.0091956528 -0.13066459
-0.132065 0.015219212 -0.13488796
0.12800001 0.033121936 -0.13413112
0.13593587 0.046377543 -0.13317387
0.12852547 0.050173126 -0.13267432
0.13385382 0.053694017 -0.13221094
0.12800001 0.064136297 -0.13715325
-0.132065 0.086412556 -0.13352749
-0.132065 0.10024273 -0.13778992
-0.132065 0.1101604 -0.13449384
-0.084043965 0.14397916 -0.13798729
-0.028117288 0.14375156 -0.13816193
-0.013302241 0.143438 -0.13840251
-0.0062664952 0.14635913 -0.13616122
0.0044262521 0.14847828 -0.13453525
0.020918559 0.1428501 -0.13885361
0.036002144 0.14686497 -0.13577311
0.12462182 0.14773233 -0.13290355
-0.063413993 0.15288311 -0.13115555
-0.015445616 0.1523191 -0.1315883
0.049258009 0.15331331 -0.13082547
0.076327428 0.15335883 -0.13079055
0.11905614 0.15314841 -0.13095199
0.21725972 0.2712757 -0.13585341
0.21037593 0.3367762 -0.13861834
-0.10291263 -0.082512066 -0.12788074
-0.034655556 -0.081927925 -0.12832895
0.027790856 -0.084290698 -0.12650433
0.11064066 -0.088691831 -0.12226798
0.12800001 -0.045475736 -0.1229453
-0.132065 -0.033309717 -0.12629662
-0.132065 -0.014718588 -0.12832409
-0.132065 0.010045301 -0.12270297
-0.132065 0.045527227 -0.124038
0.12975584 0.076325722 -0.12803702
0.13096732 0.070826925 -0.12995607
-0.132065 0.084941864 -0.12910014
0.12832224 0.089219362 -0.12269602
0.13197395 0.088317476 -0.12306961
-0.132065 0.11326031 -0.12742276
-0.0070371553 0.15630457 -0.12853035
0.019781619 0.15724647 -0.12780768
0.03460072 0.15875882 -0.12664729
0.12800001 0.15562278 -0.12659703
-0.022629883 0.16472667 -0.12044928
-0.013003297 0.16452631 -0.1207104
-0.0092636999 0.16163695 -0.12418187
0.030552752 0.16202146 -0.12397486
0.21663034 0.27726072 -0.12095244
0.21614788 0.28185099 -0.12664002
-0.12192887 -0.095197648 -0.113789
-0.086485416 -0.094939157 -0.11412589
0.12583716 -0.091170833 -0.11640075
0.12800001 -0.083013207 -0.11368729
-0.132065 -0.035652783 -0.11553721
-0.132065 0.019848932 -0.11716111
-0.132065 0.071146622 -0.1162286
-0.132065 0.14470746 -0.11887972
-0.132065 0.15361038 -0.11577076
0.12800001 0.15730909 -0.11181084
-0.018929629 0.16785172 -0.11637653
0.039933834 0.16725968 -0.11714812
0.076781526 0.1673896 -0.11697879
0.12800001 0.16142139 -0.11893348
0.028088724 0.17131898 -0.11185778
0.068143062 0.17024262 -0.11326058
0.219218 0.25264481 -0.11740217
-0.075596929 -0.10132426 -0.10580424
-0.052463938 -0.10431315 -0.10190885
0.0068791909 -0.10299684 -0.10362439
0.05895422 -0.10165863 -0.10536847
0.11544698 -0.10342842 -0.10306192
-0.12524912 -0.099083424 -0.1087247
-0.10560355 -0.098955773 -0.10889108
-0.036616348 -0.098187722 -0.10989206
0.074287333 -0.098594621 -0.10936177
-0.132065 -0.075864814 -0.10505891
-0.132065 -0.052116901 -0.10811368
0.12833074 -0.045536496 -0.10433941
-0.132065 0.028470356 -0.10188319
-0.132065 0.051220208 -0.10945001
-0.132065 0.10136303 -0.10376554
-0.11811075 0.17693487 -0.10453884
-0.088575289 0.17563874 -0.10622802
-0.034222845 0.17967719 -0.10096487
0.015930559 0.17773131 -0.1035009
0.049342647 0.179501 -0.10119451
0.083770424 0.17533483 -0.10662411
0.1077771 0.17993332 -0.10063109
0.21968968 0.24815288 -0.1078696
0.21946041 0.25033593 -0.10663436
0.21793678 0.26483768 -0.1070803
0.21710856 0.27271846 -0.10647731
0.215913 0.28409314 -0.10332817
-0.029637827 -0.11009286 -0.094376206
0.073326468 -0.110067 -0.094409905
0.054851364 -0.10652319 -0.099028528
0.07598938 -0.10823846 -0.096793041
0.097064681 -0.10888102 -0.09595558
-0.132065 -0.083230741 -0.092799515
0.13418964 -0.051252771 -0.099953242
-0.132065 0.01410472 -0.095636055
-0.132065 0.049651366 -0.093864202
-0.132065 0.052329648 -0.091609269
-0.132065 0.092774473 -0.097881556
-0.064422578 0.18231985 -0.097520798
-0.015410546 0.18311401 -0.096485823
-0.0038010683 0.1825648 -0.097201578
0.0033237245 0.18208314 -0.097829305
0.028402418 0.18296322 -0.09668234
0.042543367 0.18551643 -0.093354836
0.052309994 0.1841424 -0.095145583
0.11912205 0.18514396 -0.093840264
0.21811329 0.26315072 -0.095091015
0.21722704 0.27158618 -0.099443957
0.21389532 0.30328888 -0.097577915
0.21119173 0.32901391 -0.091802627
-0.024453089 -0.1147631 -0.087737389
-0.01207732 -0.11780217 -0.081239454
0.030317023 -0.11714484 -0.082826287
0.091783635 -0.11362143 -0.08977744
-0.132065 -0.082591429 -0.087030143
-0.132065 -0.066527762 -0.082709156
-0.132065 -0.054133628 -0.088919379
-0.132065 -0.025559343 -0.080954306
-0.132065 0.01645622 -0.087624639
-0.132065 0.023636077 -0.084914654
-0.132065 0.11284024 -0.085234806
0.13236433 0.14255275 -0.081690319
-0.132065 0.15758529 -0.081704564
-0.132065 0.17361547 -0.083033025
-0.080261871 0.18824239 -0.089802206
0.12749188 0.18965162 -0.087965608
-0.090227246 0.19284248 -0.080272213
-0.060470752 0.19081698 -0.085162446
-0.0046622828 0.19054028 -0.085830532
0.050742552 0.19021812 -0.086608291
0.06199887 0.19140498 -0.083742812
0.10037823 0.19047436 -0.085989647
0.21685815 0.27509654 -0.084507436
0.21564239 0.28666502 -0.087289229
-0.11319956 -0.12198398 -0.071144246
-0.092560381 -0.12160175 -0.072066985
-0.087419033 -0.12166735 -0.071908586
-0.034407236 -0.12188323 -0.071387462
-0.132065 -0.11938955 -0.076925293
-0.085961632 -0.11873184 -0.078995153
0.040174935 -0.11855403 -0.079424389
0.090878189 -0.11890651 -0.07857348
0.12800001 -0.1163945 -0.072459772
0.12800001 -0.085497037 -0.079552934
0.13452432 -0.075236723 -0.072147459
-0.132065 0.014589698 -0.07498084
-0.132065 0.061972026 -0.075325117
-0.132065 0.11013183 -0.074875697
0.12800001 0.14985146 -0.076456264
0.12800001 0.15692978 -0.073265366
-0.073973246 0.19500205 -0.075058244
-0.069488525 0.19578965 -0.07315667
0.039071754 0.19460173 -0.076024719
0.045213301 0.19514926 -0.074702822
0.051311705 0.19539979 -0.074097969
0.21307346 0.31110835 -0.071655057
-0.12343988 -0.12459163 -0.064849168
-0.082696497 -0.12396832 -0.066353872
-0.078262486 -0.12480143 -0.064342678
-0.029696647 -0.12620282 -0.06095963
0.031740546 -0.12565106 -0.062291615
0.074450977 -0.12386052 -0.066614106
0.081696659 -0.12453195 -0.064993218
-0.132065 -0.030337237 -0.061047293
-0.132065 -0.026595484 -0.069835208
-0.132065 0.0097761601 -0.064401232
-0.132065 0.039772324 -0.068145752
-0.132065 0.054613564 -0.063792922
-0.132065 0.064039364 -0.065362573
-0.132065 0.070787169 -0.063541852
-0.132065 0.084874973 -0.067262679
-0.132065 0.10508493 -0.063507408
-0.132065 0.17382772 -0.062335879
-0.12396267 0.19999103 -0.063013062
0.029591687 0.19830924 -0.067073502
0.07815551 0.19882676 -0.065824032
0.094924301 0.19887114 -0.065716863
-0.073466726 0.20042911 -0.06195537
0.0059746709 0.20082708 -0.060994528
0.035099015 0.20049289 -0.061801396
0.064935163 0.20095569 -0.06068401
0.10894095 0.20022324 -0.062452462
0.21657431 0.29603934 -0.06509503
-0.10846642 -0.13038637 -0.050860215
-0.016139012 -0.13019788 -0.051315241
-0.13150486 -0.12854451 -0.055306591
-0.093785591 -0.12880716 -0.054672547
-0.067572877 -0.12828524 -0.05593247
-0.029931597 -0.12667763 -0.059813347
-0.0057176426 -0.1270265 -0.05897123
0.057433873 -0.12849599 -0.05542374
0.086705416 -0.12691493 -0.059240513
-0.132065 -0.093220092 -0.059447166
-0.132065 -0.074066117 -0.050009701
-0.132065 0.00057473034 -0.054905474
-0.132065 0.05038346 -0.054564394
-0.132065 0.11748949 -0.052650802
-0.132065 0.15287897 -0.056419641
0.12800001 0.1741173 -0.051720485
-0.132065 0.18282619 -0.053395741
0.12800001 0.19534132 -0.053882252
-0.1060134 0.20178959 -0.058670744
-0.027643494 0.20234227 -0.057336293
0.019140659 0.2019341 -0.058321796
0.020479888 0.20515427 -0.050547168
0.03509035 0.203877 -0.053630967
0.054967102 0.20144756 -0.059496477
0.097636908 0.20271973 -0.056425028
0.10806093 0.20484844 -0.051285561
0.21800193 0.26421404 -0.053755634
0.21416441 0.30072722 -0.054326348
-0.080860414 -0.13286121 -0.043506369
-0.048853509 -0.13147315 -0.048236627
-0.032330114 -0.13296038 -0.04275319
0.05134894 -0.130925 -0.049559899
-0.132065 -0.056410696 -0.045598552
-0.132065 0.0044134557 -0.04598932
-0.132065 0.014882512 -0.047062241
-0.132065 0.068199277 -0.04061342
-0.132065 0.08373706 -0.043349702
-0.132065 0.095327049 -0.044977568
-0.132065 0.1010225 -0.049335256
-0.132065 0.11457803 -0.04421879
-0.132065 0.1968272 -0.043953195
-0.12162109 0.20602547 -0.048443809
-0.094491214 0.20746434 -0.043771509
-0.075321093 0.20790899 -0.040394679
-0.060188431 0.20736963 -0.044490814
-0.030014072 0.20571792 -0.049186356
-0.0099237487 0.20770875 -0.041915379
0.045355026 0.20729358 -0.045068264
0.056494832 0.20744058 -0.043951817
0.12800001 0.20571323 -0.044946067
0.21312013 0.24054551 -0.041687042
-0.11552239 -0.13354895 -0.038282532
-0.090103351 -0.13338003 -0.039565675
-0.084908441 -0.13434532 -0.032233462
-0.065008335 -0.13426189 -0.032867149
-0.017333981 -0.13447024 -0.031284537
0.018481093 -0.13376898 -0.036611162
0.047047131 -0.13453165 -0.030818149
-0.132065 -0.12759 -0.032812744
-0.132065 -0.10944976 -0.030057404
0.12800001 -0.091920435 -0.039527185
0.13370767 -0.092471212 -0.034754392
-0.132065 -0.045836385 -0.030893544
-0.132065 -0.039931815 -0.031838506
-0.132065 0.090370052 -0.036945056
-0.132065 0.15545979 -0.033603221
-0.132065 0.17079194 -0.035156678
0.12800001 0.17169955 -0.036350746
-0.12526599 0.20830989 -0.037350032
-0.094278902 0.20846283 -0.036188491
-0.079146788 0.20848627 -0.036010612
0.031232724 0.20927262 -0.030038588
0.057054818 0.20836043 -0.036966182
0.11578599 0.20828564 -0.037534099
0.21740356 0.26991048 -0.033942137
0.21651928 0.2783221 -0.034884665
0.078862131 -0.1356965 -0.021970356
0.10386145 -0.1359193 -0.020277977
0.12800001 -0.12251054 -0.029865552
-0.132065 -0.11723679 -0.022247432
-0.132065 -0.10294461 -0.024740107
-0.132065 -0.043436438 -0.022462578
-0.132065 0.04413671 -0.024064196
-0.132065 0.05721359 -0.026607824
-0.132065 0.14629917 -0.0248936
-0.132065 0.15111893 -0.023486134
-0.132065 0.16466162 -0.022793217
-0.132065 0.1721144 -0.024459902
0.12800001 0.18961635 -0.024015384
0.12800001 0.19992915 -0.02474457
-0.132065 0.2017023 -0.022183556
-0.074235544 0.2093484 -0.029463222
-0.022519553 0.20975044 -0.026409747
0.10794543 0.20948112 -0.028455149
0.12324071 0.20945922 -0.028621465
-0.12642036 0.21009511 -0.023792347
-0.09514834 0.21027669 -0.022413263
0.094339237 0.21029902 -0.022243619
0.21906973 0.25405261 -0.021677088
0.21205978 0.32075238 -0.027154367
-0.090222508 -0.13707343 -0.011511602
0.017879557 -0.13622496 -0.017956257
0.087035388 -0.13647446 -0.016061069
-0.132065 -0.11557015 -0.017462671
-0.132065 -0.10698575 -0.010743467
-0.132065 -0.063666046 -0.012420817
-0.132065 -0.0082007684 -0.017079491
-0.132065 0.040311031 -0.012707765
-0.132065 0.10847834 -0.01473416
-0.132065 0.14461072 -0.011895499
-0.132065 0.18794233 -0.019504022
0.12800001 0.18117255 -0.012360771
0.12800001 0.20549104 -0.016439658
-0.12650658 0.21115559 -0.015738511
-0.10562123 0.21134537 -0.014297234
-0.098607339 0.21163997 -0.012059929
-0.075454958 0.21144749 -0.013521745
-0.065374941 0.21061093 -0.019874934
0.11009377 0.21077794 -0.018606564
0.21744034 0.26955646 -0.010097275
0.21279432 0.31376293 -0.018103328
-0.07050585 -0.13801318 -0.0043733837
-0.044052117 -0.13755956 -0.0078189755
0.055715658 -0.1378437 -0.005660736
0.084190786 -0.13760546 -0.0074703363
-0.132065 -0.040394746 -0.0032132824
-0.132065 0.0033788681 -0.0028313817
-0.132065 0.034707405 -0.008723096
-0.132065 0.11664318 -0.00050930429
-0.132065 0.14051479 -0.0080075944
-0.132065 0.20036379 -0.0039042444
-0.132065 0.21165647 -0.0055548199
-0.080802821 0.21243702 -0.0060068076
-0.038860675 0.2128751 -0.002679883
-0.024022471 0.21225736 -0.00737121
-0.01481897 0.21225739 -0.0073708263
0.018110897 0.21250767 -0.0054703369
0.075448513 0.2120219 -0.009159294
0.086141646 0.21267177 -0.0042239241
0.11203783 0.21285008 -0.0028697993
0.21971565 0.24396275 -0.0083502224
0.22007751 0.24446124 -0.0012115797
0.21936974 0.25119635 -0.0029862651
0.21796195 0.26459277 -0.0086743999
-0.10447442 -0.13829304 0.0022482916
-0.093486056 -0.13751838 0.0081324633
-0.079592824 -0.13739938 0.0090362476
-0.062973388 -0.13760014 0.0075113522
-0.045629121 -0.13778359 0.0061180098
0.008686699 -0.1378042 0.0059613502
0.057680499 -0.13851544 0.00055896945
0.091203302 -0.13851117 0.00059143081
0.12799999 -0.13149351 0.0084753344
-0.132065 -0.075745225 0.0062422836
-0.132065 -0.063155897 0.0032202019
-0.132065 -0.049847689 0.0060873302
-0.132065 -0.0044838637 0.00012066601
-0.132065 0.098987296 0.007741299
-0.132065 0.14499971 0.0036492459
0.12800001 0.18756258 0.0096344249
-0.132065 0.19521673 0.0097899036
-0.12746881 0.21234152 0.0067325425
-0.081918851 0.21260548 0.004728015
0.01910653 0.21223174 0.0075663393
0.089894667 0.21269602 0.0040404471
0.21666995 0.27688682 0.0082490202
0.21275951 0.31409788 0.0092148408
-0.088646747 -0.1370289 0.011850327
-0.074136928 -0.13603407 0.019406745
-0.064738758 -0.13714087 0.010999817
-0.038351439 -0.1362731 0.017591203
0.0089601064 -0.13618788 0.018238461
0.014606013 -0.13625224 0.017749656
0.045625914 -0.13652754 0.015658522
0.11215024 -0.13685323 0.013184562
-0.132065 0.039265692 0.012170715
-0.132065 0.0476676 0.015842972
-0.132065 0.10718212 0.016053792
-0.132065 0.15261517 0.01667675
-0.132065 0.16313869 0.017975947
0.12800001 0.19530511 0.012276008
-0.096054271 0.21179034 0.010918498
-0.024436012 0.21071103 0.019115319
0.124869 0.21129748 0.014661642
-0.12016612 -0.13540557 0.024180681
-0.11362547 -0.13575707 0.021510687
-0.099797107 -0.13505104 0.026873494
0.024261575 -0.13565199 0.022308942
0.079375222 -0.13586441 0.020695426
0.092621148 -0.13593687 0.020145074
0.12800001 -0.11611115 0.02789106
-0.132065 -0.043294467 0.020483512
-0.132065 -0.020246603 0.022254823
-0.132065 -0.0033321232 0.025735972
-0.132065 0.065111965 0.02930769
-0.132065 0.093652241 0.024192592
-0.132065 0.12052012 0.026310697
-0.132065 0.15339735 0.023770539
0.12800001 0.17508042 0.028340576
-0.11426394 0.20974696 0.026436893
0.10594436 0.20960343 0.027526787
0.054460548 0.21032411 0.022053659
0.21388751 0.24129066 0.025769195
0.21853532 0.25913575 0.021224964
0.21155412 0.32556719 0.027529517
-0.030062856 -0.13393193 0.035373881
0.042591706 -0.13389976 0.035618249
-0.132065 -0.12645572 0.037991643
0.12800001 -0.11172187 0.0354013
-0.132065 -0.10569113 0.032526359
0.12800001 -0.10626922 0.036500387
-0.132065 -0.055841181 0.03829094
-0.132065 -0.047083937 0.031153146
-0.132065 -0.0095083155 0.038342535
-0.132065 0.073578224 0.035281125
-0.132065 0.15478446 0.030599128
-0.132065 0.16038315 0.039724924
-0.132065 0.17714465 0.0391954
-0.060866065 0.20799845 0.039715841
-0.0064035095 0.20883536 0.03335987
0.038555793 0.20898044 0.032258052
0.047646392 0.20895314 0.032465499
-0.13105124 -0.1331031 0.041669507
-0.10582434 -0.13322595 0.040736418
-0.035038956 -0.13250494 0.045330819
0.018899575 -0.13326907 0.040408961
0.042080466 -0.13285272 0.04357136
0.054420628 -0.13197227 0.04703223
0.11018751 -0.13308898 0.041776847
0.12800001 -0.093680046 0.041560262
-0.132065 -0.08130379 0.047296647
-0.132065 -0.06397365 0.04319628
-0.132065 -0.051082626 0.045044892
-0.132065 0.051977273 0.047808751
-0.132065 0.072235614 0.044533614
-0.132065 0.085787989 0.041623645
-0.132065 0.14216267 0.043228973
0.12852934 0.16478153 0.040393308
0.12800001 0.19027218 0.041661222
0.031305261 0.20715754 0.045711085
0.054770354 0.20741805 0.044123445
0.065840393 0.20746982 0.043730449
0.21361919 0.30591542 0.047423329
0.2122902 0.31856209 0.043272771
0.2110403 0.3304548 0.04564691
-0.057291407 -0.13012463 0.051492583
-0.029595528 -0.13061802 0.050301477
-0.00016188622 -0.13046844 0.050662592
-0.12729503 -0.12930398 0.0534737
0.016364202 -0.12933049 0.053409711
0.026391804 -0.12794678 0.056750122
0.095827229 -0.12964311 0.052654997
0.11805917 -0.12803836 0.056528989
0.12800001 -0.10331438 0.05913325
-0.132065 -0.067508765 0.056657337
-0.132065 -0.05114514 0.058863115
-0.132065 -0.037366439 0.054438587
-0.068014011 0.201598 0.059133787
-0.053862117 0.20236939 0.057271369
-0.041945092 0.20160569 0.059115238
0.0057789334 0.20379849 0.053821027
0.066807553 0.2018992 0.058406584
0.077983782 0.20354541 0.054432072
0.089810967 0.20390049 0.053574741
0.10594571 0.20283416 0.0561493
0.21204671 0.32087824 0.056738421
-0.12126943 -0.1229195 0.068886377
-0.068661138 -0.1247279 0.064520717
0.015609812 -0.12495697 0.063967764
0.026425131 -0.12348823 0.067513399
0.066460729 -0.12289922 0.068935312
0.092878215 -0.1248772 0.064160325
-0.132065 -0.11232227 0.063388944
-0.132065 -0.063025981 0.061101023
-0.132065 0.061272528 0.066270106
-0.132065 0.074172035 0.06724529
-0.132065 0.081603646 0.067723811
0.12800001 0.185422 0.068804786
-0.020492952 0.1972588 0.069610201
0.00025689602 0.19980334 0.06346675
0.066350847 0.20067956 0.061351247
0.10904077 0.20029777 0.062273018
0.21658017 0.24677576 0.06582661
0.21199912 0.3213309 0.06456621
-0.01153877 -0.12071661 0.074204326
0.0080158338 -0.12044472 0.074860685
0.071406864 -0.12015735 0.075554416
-0.080198169 -0.11970107 0.076655932
0.00037531555 -0.1199846 0.075971484
-0.132065 -0.097322911 0.076689214
0.12800001 -0.072606429 0.078212216
-0.132065 0.0129245 0.073115692
-0.132065 0.058325358 0.073651083
0.12800001 0.15820959 0.0776309
-0.132065 0.16663706 0.073856391
-0.066625014 0.19460523 0.076016858
-0.02795643 0.19519317 0.074597321
0.0028282255 0.19638824 0.071712032
0.040463898 0.1938446 0.077853322
0.05411271 0.19413629 0.077149019
0.10119814 0.19382206 0.077907719
0.12800001 0.19392134 0.071836047
0.215083 0.25560829 0.070737675
0.2114853 0.28478283 0.072780088
0.21143903 0.2939477 0.072276212
-0.132065 -0.11558091 0.081025273
-0.039037436 -0.11562601 0.086493447
0.050877843 -0.11811952 0.080473885
0.11052216 -0.11378009 0.08957129
0.13277909 -0.068043202 0.081522442
-0.132065 0.046377964 0.083568566
-0.132065 0.053478032 0.089975759
-0.132065 0.065134458 0.089850709
-0.132065 0.13597651 0.082228869
0.12800001 0.14028493 0.086560272
0.12800001 0.1613465 0.081238061
-0.12446285 0.18947187 0.088200487
-0.05411325 0.18901941 0.088790163
-0.097300783 0.1905725 0.085753344
-0.033100825 0.19138454 0.083792746
0.059536394 0.19095516 0.084829405
0.06185307 0.19040781 0.0861509
0.21948132 0.25013965 0.08944913
0.21833442 0.26105186 0.083325475
0.21668574 0.27673921 0.088863946
0.21548122 0.28819981 0.080736846
-0.081333235 -0.11126167 0.092853554
-0.079473205 -0.11066189 0.093635254
-0.05921356 -0.11338249 0.090089485
0.074610755 -0.11218768 0.091646686
0.11095311 -0.11228069 0.091525458
-0.10186077 -0.10909644 0.095675521
-0.0070622377 -0.1070798 0.098303802
0.10736036 -0.10720971 0.098134488
-0.132065 -0.092651419 0.092038922
0.12800001 -0.072823644 0.094984636
0.12800001 -0.05843126 0.099178515
0.13043876 -0.052870508 0.098711938
-0.132065 0.03619428 0.099592119
-0.132065 0.079379745 0.095324472
0.13090599 0.1283603 0.098058708
-0.132065 0.13712293 0.097172916
0.12800001 0.1465653 0.099464729
-0.132065 0.15621005 0.095692679
0.12800001 0.17099939 0.090335116
-0.091189854 0.18086314 0.099419981
0.05446985 0.18432638 0.094906479
0.070333414 0.18551284 0.093360186
0.081811115 0.18484059 0.094236329
0.21734926 0.27042609 0.090979345
0.21602616 0.28301516 0.093179144
0.2147719 0.29494935 0.093513705
0.21142571 0.32678789 0.098644987
0.21057446 0.33488733 0.093429349
-0.12967302 -0.10492616 0.10111065
-0.05661349 -0.10173376 0.10527134
-0.046752684 -0.10106421 0.10614397
-0.025113393 -0.10212064 0.10476712
0.12800001 -0.070864625 0.10414002
0.12800001 -0.051362913 0.1061701
-0.132065 -0.021356616 0.10524958
-0.132065 0.0035142582 0.10748151
-0.132065 0.093362227 0.10936207
-0.132065 0.10476246 0.10120907
0.12800001 0.11850508 0.10962415
-0.132065 0.15009278 0.10638501
-0.132065 0.17697816 0.10262245
-0.11415495 0.17437024 0.10788203
0.0052969586 0.17313614 0.10949038
0.014699955 0.17746277 0.10385163
0.055604972 0.17801486 0.1031321
-0.015881132 0.18009882 0.10041613
0.21709697 0.27282637 0.1059008
-0.048335657 -0.092195153 0.11770306
-0.036973085 -0.094715595 0.11441816
-0.029544907 -0.09193439 0.11804292
-0.0087036639 -0.097791135 0.11040978
0.014339354 -0.095148474 0.11385398
0.078973912 -0.091074288 0.11916389
0.1180146 -0.097791038 0.11040992
-0.132065 0.057760239 0.11033411
-0.132065 0.08336921 0.11478636
-0.132065 0.14708751 0.11970135
-0.076751783 0.16537723 0.1196024
-0.068204053 0.1655858 0.11933057
-0.0033590645 0.16616809 0.11857168
0.01882018 0.16911393 0.11473244
0.10559803 0.16798274 0.11620668
0.0043143742 0.1710005 0.11227375
0.086369321 0.17086039 0.11245631
-0.12526315 -0.085868895 0.12469462
-0.11115111 -0.081726663 0.12848423
-0.10276727 -0.083591044 0.12705377
-0.029080885 -0.088189036 0.12275724
-0.0067860894 -0.087546289 0.12376197
0.017277241 -0.081818357 0.12841387
0.033424981 -0.087962635 0.12321933
0.078782171 -0.089793131 0.12083363
0.12379743 -0.084779024 0.12614225
0.12800001 -0.030561071 0.12871456
0.12800001 0.083427891 0.12548132
-0.013259992 0.1582019 0.12707548
0.016190395 0.15750656 0.127609
0.050307915 0.15934105 0.1262015
0.085710518 0.1550476 0.12949562
0.090612672 0.15894881 0.12650244
0.21383345 0.30387846 0.12826395
-0.11752696 -0.078108922 0.13125999
-0.086779155 -0.076398671 0.1325722
-0.073948905 -0.071716294 0.13616483
-0.040694311 -0.078216575 0.1311774
-0.020275112 -0.072195865 0.13579687
0.0050214268 -0.076552778 0.13245398
0.019208476 -0.078105807 0.13126239
0.10777897 -0.076418802 0.13255677
-0.132065 -0.057622425 0.13724251
-0.132065 -0.0068979859 0.13649847
0.12800001 4.9065391e-05 0.13078222
-0.132065 0.011894992 0.13698453
0.12957425 0.023613924 0.1325628
0.13507421 0.035338391 0.1341062
-0.132065 0.11829181 0.13613179
-0.085477456 0.14676231 0.13585246
-0.065712087 0.14424971 0.13778022
-0.052811541 0.14454687 0.13755225
-0.042422764 0.14450942 0.13758096
-0.027695414 0.14330563 0.13850458
0.012324728 0.14825347 0.13470837
0.06478814 0.14644161 0.1360985
0.09689334 0.14171581 0.13972434
-0.057146855 0.15385629 0.13040964
0.039742492 0.15009569 0.13329494
0.063705795 0.15251553 0.13143833
0.21875434 0.25705805 0.13323912
0.21387285 0.30350357 0.13192303
0.21247882 0.31676751 0.13800173
-0.12365604 -0.065980896 0.1405654
-0.0070450492 -0.06007906 0.14509366
0.022812175 -0.064100683 0.14200802
0.048283901 -0.06427148 0.14187698
0.07795509 -0.062617719 0.14314584
0.093623288 -0.054758318 0.14917609
0.12800001 -0.022928156 0.145816
0.12800001 0.015752876 0.14778334
-0.132065 0.023486882 0.14563394
-0.132065 0.032082953 0.14350417
0.12800001 0.031382449 0.14178938
0.12800001 0.048574299 0.14246777
0.12800001 0.054743774 0.14417757
0.12800001 0.082753293 0.14974944
-0.018797297 0.12864076 0.1497561
-0.12280063 0.13245188 0.14683205
-0.10012977 0.13246807 0.14681962
-0.083535202 0.13781902 0.14271414
-0.079615824 0.13896127 0.14183776
-0.054352596 0.13727547 0.14313117
-0.026421614 0.13937849 0.14151764
0.0081672743 0.13805866 0.14253028
0.057505738 0.13819836 0.14242309
0.077581108 0.1365571 0.14368233
-0.036866251 0.14050153 0.14065601
-0.023343207 0.14119324 0.1401253
0.21786228 0.25642684 0.14326614
-0.10348147 -0.051917166 0.15135601
-0.072756127 -0.053535551 0.15011427
-0.031436644 -0.051473778 0.15169621
-0.016035879 -0.051688373 0.15153155
0.040359914 -0.050271269 0.15249054
-0.132065 -0.046715043 0.1504254
-0.10625064 -0.049800534 0.15268554
-0.080623791 -0.045272589 0.15456115
-0.073116347 -0.048863549 0.15307367
-0.041316472 -0.048297875 0.15330799
-0.035360344 -0.043272421 0.15538967
0.088870823 -0.043245737 0.15540074
0.099165298 -0.045557942 0.15444294
0.11337542 -0.048217874 0.15334111
0.094294474 -0.035911459 0.15843883
0.10726845 -0.034516033 0.15901685
0.12800001 -0.034981057 0.15344879
0.12800001 -0.026768664 0.15738368
0.12800001 -0.017078256 0.15312549
-0.132065 -0.008909801 0.15796798
-0.132065 0.011906751 0.15447447
-0.132065 0.040715851 0.15499321
-0.132065 0.067382127 0.15319476
0.12800001 0.089518212 0.15709776
-0.132065 0.10149974 0.1587836
-0.10195088 0.10826261 0.15938637
-0.093489587 0.10711613 0.15986128
0.077116385 0.10854085 0.15927112
0.12800001 0.10872512 0.15573943
-0.079746597 0.11246888 0.15764396
-0.018404163 0.1156971 0.1563067
-0.0095909834 0.11221921 0.15774739
-0.13139199 0.12112533 0.15405813
-0.033411689 0.12228514 0.15357769
-0.022637054 0.12023892 0.15442531
0.0552308 0.12325805 0.1530008
0.086231254 0.12824924 0.1500565
0.091404803 0.12530908 0.15231231
0.21765915 0.26747701 0.15289709
-0.10186143 -0.03140917 0.16030382
-0.090443313 -0.022131927 0.16414674
-0.071349867 -0.026882194 0.16217902
0.038676046 -0.022849288 0.16384959
0.044167154 -0.023589574 0.16354294
0.066810817 -0.027637083 0.16186632
0.12568671 -0.028890431 0.16134715
-0.12492645 -0.017533783 0.16605143
-0.11473349 -0.014451132 0.16732836
0.11054748 -0.01189997 0.16838513
0.032208424 -0.0077559771 0.16997367
-0.132065 0.0041293986 0.16661382
-0.132065 0.010036875 0.1690107
0.12800001 0.038094774 0.16083111
0.12800001 0.079684637 0.1662849
-0.098220974 0.082660228 0.16993876
0.098841898 0.083181597 0.1697759
-0.12276047 0.091916077 0.16615775
-0.08410947 0.095101997 0.164838
-0.034765504 0.098688439 0.16335236
0.079516724 0.099242039 0.16312304
0.11372997 0.094693989 0.16500703
-0.037018962 0.10489243 0.16078241
0.0044922829 0.10390837 0.16119006
0.076581366 0.10372806 0.16126475
-0.059828933 -0.0030633025 0.17059158
-0.033448376 -0.0020580501 0.17072394
0.072669089 -0.0045661805 0.17039369
0.099870071 -0.0028278304 0.17062259
-0.093188137 0.0012049912 0.1711536
-0.080373414 0.0013450594 0.17117205
-0.061369862 0.0089969924 0.17217962
-0.012615904 0.0096783023 0.17226934
0.021750795 0.0067848098 0.17188834
0.062276807 0.0072038611 0.17194352
0.10982078 0.0098033119 0.1722858
-0.10965884 0.019150311 0.17351657
-0.050457578 0.016494323 0.17316686
-0.036091894 0.017277379 0.17326994
0.047187559 0.010539633 0.17238274
-0.13107784 0.029261293 0.17484795
-0.12697929 0.028861465 0.17479528
-0.012518894 0.020311782 0.1736695
0.027561937 0.020266276 0.17366351
0.048974875 0.020712063 0.17372221
0.11582266 0.025816528 0.17439434
0.12726758 0.027573502 0.17462569
-0.11217536 0.030678328 0.17503452
-0.10594723 0.032595426 0.17528695
-0.018761829 0.035919018 0.1757246
0.037397142 0.033502541 0.17540638
0.080191895 0.030628186 0.17502792
0.10384908 0.036308587 0.17577589
-0.132065 0.043813996 0.17500263
0.056151811 0.044873312 0.17491435
0.095733017 0.044172414 0.17500664
0.10312547 0.048645221 0.17441767
0.11331832 0.04818866 0.1744778
0.12682731 0.041731365 0.17532806
-0.01805108 0.058706973 0.17309281
-0.0064751273 0.053813923 0.17373709
0.037711415 0.059563819 0.17297998
0.1071978 0.059472378 0.17299202
0.12670153 0.051669084 0.17401952
-0.087711729 0.063639574 0.1724433
-0.044882778 0.06272614 0.17256358
0.01584636 0.063308224 0.17248693
0.027688596 0.065637887 0.17218018
0.1063089 0.069412746 0.17168313
-0.10465167 0.074443862 0.17102064
0.029628485 0.075799204 0.17084217
0.05368118 0.071693137 0.17138284
0.079725891 0.072631702 0.17125927
0.21374072 0.26046267 0.17286724
0.21142501 0.32679453 0.17567742
0.21720892 0.27175778 0.18558617
0.21590665 0.28415018 0.18250349
0.21157947 0.32532471 0.18069831
0.213911 0.30313849 0.19932669
0.21254517 0.31613642 0.19673879
0.21261421 0.28014067 0.216721
