# .PCD v0.7 - Point Cloud Data file format
VERSION 0.7
FIELDS x y z
SIZE 4 4 4
TYPE F F F
COUNT 1 1 1
WIDTH 978
HEIGHT 1
VIEWPOINT 0 0 0 1 0 0 0
POINTS 978
DATA ascii
-0.20694841 -0.35191068 -0.2563445
-0.016031317 -0.35109776 -0.25423512
0.13793498 -0.35508028 -0.252534
-0.16892667 -0.3433117 -0.25592431
0.10074919 -0.3452332 -0.25294486
0.038941331 -0.33291775 -0.25362775
0.04142075 -0.32364333 -0.25359979
0.15656498 -0.32686934 -0.25232816
0.14078236 -0.31595856 -0.25250256
-0.18640187 -0.29326779 -0.25611743
0.048968725 -0.29025599 -0.25351638
0.0057813711 -0.28378397 -0.25399363
0.062913105 -0.2811029 -0.2533623
0.16585104 -0.28616905 -0.25222471
-0.20699827 -0.27061021 -0.25634506
-0.17286742 -0.27709872 -0.25596789
-0.063085467 -0.27891922 -0.25475466
-0.22054254 -0.26848939 -0.25056985
-0.12069535 -0.26395401 -0.25539133
-0.054438733 -0.26873466 -0.25465915
0.065270118 -0.26549557 -0.25333625
0.12807812 -0.26304001 -0.25264215
-0.036789738 -0.25308594 -0.25446409
-0.0056519955 -0.25823069 -0.25411999
0.0065478981 -0.25784326 -0.25398517
0.21068709 -0.25897318 -0.25172925
-0.18308799 -0.24291427 -0.25608084
-0.17941281 -0.24680054 -0.25604019
-0.0047294386 -0.24592093 -0.2541098
0.051257208 -0.24589749 -0.2534911
0.018903553 -0.23778068 -0.25384864
-0.012237376 -0.2143715 -0.25419277
0.14695638 -0.21967678 -0.25243354
-0.1313753 -0.20355293 -0.25550935
-0.0068195425 -0.20771858 -0.2541329
-0.14653277 -0.18863298 -0.25567684
-0.12413076 -0.1895116 -0.25542927
-0.063544229 -0.18535313 -0.25475973
0.019744288 -0.1890903 -0.25383931
0.039189365 -0.18172893 -0.25362447
-0.11087302 -0.17763449 -0.25528276
-0.087217078 -0.17412621 -0.25502136
-0.0092626847 -0.17078125 -0.2541599
-0.18537052 -0.16468592 -0.25610605
0.17714949 -0.16141057 -0.25209987
-0.15873708 -0.15406367 -0.25581172
-0.046023712 -0.15554111 -0.25456613
0.10231271 -0.15898241 -0.25292686
0.15648413 -0.1564793 -0.25232825
0.18788396 -0.15493582 -0.25198126
-0.069774956 -0.1419251 -0.2548286
-0.055832811 -0.14294767 -0.25467455
0.021249432 -0.14111805 -0.25382271
0.10208271 -0.142408 -0.25292945
-0.20647757 -0.13623348 -0.25633928
-0.17312148 -0.12512532 -0.25597066
-0.16068491 -0.12338152 -0.25583324
-0.086640224 -0.12289646 -0.25501499
0.098679781 -0.12074255 -0.25296703
-0.13341209 -0.10160048 -0.25553185
0.05849269 -0.10424902 -0.25341111
0.12899546 -0.098704472 -0.25263202
0.1836938 -0.096555077 -0.25202754
0.007080026 -0.088857375 -0.2539793
0.14045864 -0.084040254 -0.25250533
-0.14692573 -0.070508286 -0.25568119
-0.05325561 -0.075880677 -0.25464606
-0.0017159283 -0.079774283 -0.25407648
-0.20909062 -0.066223383 -0.25636816
-0.067349903 -0.061178222 -0.25480181
0.19464692 -0.068151057 -0.25190651
-0.13305172 -0.056177534 -0.25552788
-0.049917623 -0.056573458 -0.25460917
0.10788402 -0.059853479 -0.25286531
0.21775407 -0.051592037 -0.25029838
-0.20543617 -0.040140092 -0.25632778
-0.11337346 -0.046682887 -0.25531042
0.15393195 -0.049675524 -0.25235647
0.19616407 -0.046142049 -0.25188977
0.20126216 -0.047550242 -0.25183338
-0.11773628 -0.03283903 -0.25535864
-0.082569055 -0.037815478 -0.25496998
0.11665769 -0.015060615 -0.25276837
0.15522674 -0.01695329 -0.25234216
-0.038113251 -0.0013464093 -0.25447869
0.010026008 -0.0081339926 -0.25394672
0.073166266 -0.0062754452 -0.25324899
-0.21151063 0.0090834647 -0.25639492
0.11668438 0.0018195733 -0.25276807
0.0079799723 0.02981839 -0.25396934
0.016849313 0.024859812 -0.25387132
-0.042669542 0.034809209 -0.25452909
-0.20614524 0.042410538 -0.25633562
-0.015341819 0.045358177 -0.25422707
-0.0095230266 0.049802929 -0.25416279
0.13817662 0.042576566 -0.25253057
0.21749038 0.045504808 -0.25165409
0.031186037 0.0574928 -0.25371289
0.17694515 0.056557506 -0.25210214
0.20879531 0.059936114 -0.25175017
0.217172 0.054708377 -0.25165758
-0.13340066 0.066877723 -0.25553173
-0.086301267 0.068153419 -0.25501123
0.19612417 0.068853699 -0.25189018
0.19063102 0.077423058 -0.25195089
-0.22050786 0.087081805 -0.25365534
-0.21553054 0.087003335 -0.25643933
0.015754886 0.096204676 -0.25388342
0.12673515 0.099864371 -0.252657
0.1769481 0.09603633 -0.25210211
0.034440435 0.10639434 -0.25367692
-0.19276515 0.1162829 -0.25618774
-0.12487891 0.11567917 -0.25543755
0.097855866 0.1112785 -0.25297612
0.13959464 0.11971135 -0.2525149
-0.22051713 0.12145625 -0.25280976
-0.077161446 0.12947179 -0.25491023
-0.14657055 0.13345715 -0.25567725
0.17471386 0.13033994 -0.25212678
-0.022555374 0.14257836 -0.25430679
0.18075366 0.14432639 -0.25206006
-0.19456923 0.1547738 -0.2562077
-0.057751641 0.15899402 -0.25469574
-0.17649013 0.16136959 -0.25600791
0.010533322 0.16535351 -0.25394112
-0.20540436 0.1724271 -0.25632742
-0.19052252 0.17052945 -0.25616297
0.1677264 0.17849809 -0.252204
-0.15368073 0.18745023 -0.25575584
0.1334365 0.18024558 -0.25258294
-0.079111591 0.19540945 -0.25493178
-0.22049874 0.20317265 -0.25446242
-0.14697686 0.21426326 -0.25568175
-0.20267101 0.23762855 -0.25629723
-0.09717457 0.23406193 -0.25513142
-0.088954017 0.23135392 -0.25504056
0.083436489 0.23244062 -0.25313547
0.094740137 0.23465259 -0.25301057
-0.019336797 0.25096673 -0.25427121
0.0053361356 0.25787163 -0.25399858
0.16668969 0.25693777 -0.25221628
0.17087157 0.26366848 -0.25217009
0.20460077 0.26104581 -0.25179744
-0.19726068 0.27025706 -0.25623745
0.1169094 0.27474308 -0.25276631
-0.14452547 0.28136832 -0.25565469
0.0086837197 0.28279823 -0.25396156
-0.095172226 0.29619998 -0.25510928
-0.070451453 0.29786515 -0.25483608
-0.032094806 0.29351634 -0.2544122
0.0084407069 0.29177877 -0.25396425
-0.13989611 0.30911055 -0.25560349
-0.046165623 0.30040067 -0.25456771
0.12953743 0.30701491 -0.25262678
0.13430513 0.30902675 -0.25257412
0.21777302 0.30066568 -0.25165188
0.069210142 0.31343088 -0.25329334
0.18127893 0.31475326 -0.25205514
0.22608654 0.31198534 -0.25124767
-0.15492538 0.32160443 -0.25576961
0.15363933 0.32135618 -0.25236049
0.055348035 0.33951065 -0.25344649
-0.035192803 0.34725103 -0.25444686
-0.087439835 0.35063452 -0.25502411
0.016422357 0.35292453 -0.25387657
0.073538855 0.35234022 -0.2532455
-0.22047797 0.36365235 -0.25631511
-0.12028185 0.36482 -0.25506124
-0.11097813 0.36482 -0.2538867
0.05469308 0.36482 -0.25211021
0.22598302 -0.33474821 -0.24187818
0.21767963 -0.11401166 -0.24356252
0.21766815 -0.051762171 -0.24252151
-0.22064891 -0.0050370246 -0.2409035
-0.22056115 0.074410677 -0.24883372
0.22598343 0.26447538 -0.24191487
-0.22065341 0.33986366 -0.24044295
-0.033194408 0.36482 -0.24251582
0.012771059 0.36482 -0.24288844
0.22587425 -0.35424319 -0.23203503
0.21760839 -0.18521839 -0.23711267
0.21753067 -0.16152039 -0.23007813
-0.22069426 -0.11934772 -0.23681697
0.2176398 -0.026445232 -0.23995638
-0.22070488 0.053132415 -0.23582822
-0.22074223 0.28820786 -0.23241258
-0.22068299 0.3291741 -0.23776749
0.22593822 0.32730734 -0.23782331
-0.058214549 0.36482 -0.2395104
0.22290462 0.36482 -0.23674211
-0.14603293 -0.35688451 -0.2279399
-0.090578251 -0.35694337 -0.22438189
-0.22085837 -0.30835187 -0.22199608
-0.22085866 -0.23003066 -0.22195527
-0.22080588 -0.17621401 -0.2267243
0.21751457 -0.069398791 -0.22862002
0.21751979 -0.050938614 -0.22909448
-0.22078753 -0.0031340122 -0.22835964
-0.22085789 0.21369788 -0.22195733
-0.070426978 0.36482 -0.22637559
0.033649847 -0.35710287 -0.21474428
0.11322606 -0.35702205 -0.21962813
0.22245675 -0.302953 -0.21403463
-0.22091454 -0.22273767 -0.21689862
-0.22093096 -0.10864697 -0.21539441
-0.22088557 -0.04748942 -0.21949151
-0.22091565 0.081443906 -0.21675131
0.21741417 0.16333042 -0.21954994
0.22563139 0.34245846 -0.2100568
-0.17460375 0.36482 -0.2107747
-0.12674421 0.36482 -0.21668814
0.082155287 0.36482 -0.21790516
-0.071323305 -0.35731098 -0.20216767
-0.0067633241 -0.35729107 -0.20337045
0.024739213 -0.35718167 -0.20998259
0.13437779 -0.35734072 -0.20037037
0.21726364 -0.20642449 -0.20589215
-0.22102073 -0.12771007 -0.20727511
-0.22107199 -0.10184872 -0.20263083
-0.22099948 -0.070735261 -0.20918876
0.217204 0.045422472 -0.20050918
0.21729453 0.13263954 -0.20871899
0.2255732 0.2891621 -0.20479006
0.22560827 0.33196485 -0.20796478
-0.080810294 0.36482 -0.20328501
0.22420287 0.36482 -0.20577462
0.061660834 -0.35747027 -0.19254099
0.22159736 -0.3565 -0.19198972
0.21719202 -0.22285591 -0.19941288
-0.22113584 -0.16410251 -0.19686189
-0.22114022 -0.11192996 -0.19645756
0.21715075 0.028665371 -0.19568847
-0.22112754 0.057723768 -0.19757947
0.21709117 0.1602312 -0.19024569
-0.22113672 0.23403937 -0.1967212
-0.22111282 0.27464241 -0.19887833
0.22548506 0.31925035 -0.19681519
-0.19691512 -0.35762489 -0.18319941
0.046972249 -0.35751718 -0.18970665
0.13787785 -0.35760981 -0.18410657
0.22533694 -0.31680179 -0.18341023
0.21708563 0.088432118 -0.18981217
-0.22125074 0.10041452 -0.18642391
0.21702287 0.13046411 -0.18405643
0.2169908 0.21103497 -0.18120681
-0.22131915 0.23473802 -0.18021199
-0.18167077 0.36482 -0.18161502
0.012924794 0.36482 -0.18172112
0.054011498 0.36482 -0.18552774
0.085370526 0.36482 -0.18345192
0.10923918 0.36482 -0.18165892
0.1265555 0.36482 -0.18013112
-0.11288023 -0.35769451 -0.17898846
-0.065459907 -0.35780618 -0.17224109
0.17664289 -0.35718283 -0.17680573
-0.22135726 -0.34483516 -0.17683809
0.22529447 -0.34896511 -0.17956574
-0.22138618 -0.22678158 -0.17421751
0.21694717 0.096276589 -0.1773057
-0.22137296 0.17588703 -0.17535126
0.21686974 0.19500625 -0.17028864
-0.22142477 0.28916451 -0.17064323
-0.077033594 0.36482 -0.17422774
0.20316771 0.36482 -0.17281815
-0.19169196 -0.35796246 -0.16279647
-0.092449248 -0.35794497 -0.16385634
-0.079167888 -0.35795239 -0.16340524
-0.021045763 -0.35793853 -0.16424358
0.14183055 -0.35785222 -0.16284736
-0.22151589 -0.26674062 -0.16247882
0.21676549 -0.19407278 -0.16080892
-0.22143899 -0.17132455 -0.16942945
0.21678559 -0.15968746 -0.16261087
0.21676116 -0.076287188 -0.16037665
-0.22148001 0.015599966 -0.16568843
0.21680367 0.10072269 -0.16420552
0.21677902 0.20253223 -0.16201118
-0.22154085 0.36434656 -0.16012776
-0.15105717 0.36482 -0.16933462
-0.079925224 0.36482 -0.16908549
-0.1006369 -0.35812017 -0.15326536
0.050414149 -0.35809922 -0.15453163
-0.22159374 -0.32768226 -0.15543321
-0.22162175 -0.27555355 -0.15289633
0.21673606 -0.077871844 -0.1581081
0.21804702 -0.043670651 -0.151499
-0.22158989 0.29728127 -0.15570116
-0.22158752 0.31867519 -0.15591073
-0.11368512 0.36482 -0.15617761
-0.079226211 -0.35826808 -0.14432882
-0.22168323 -0.22220358 -0.14733185
0.21656036 -0.076777495 -0.14221598
-0.22170334 -0.015625678 -0.14548072
0.22494347 0.00021594018 -0.14781064
-0.22172454 0.020771429 -0.14355752
-0.22174075 0.077352822 -0.14208157
0.22495925 0.077467084 -0.14922521
-0.22170301 0.14329799 -0.14548716
0.00031640381 0.36482 -0.14943041
0.098100454 0.36482 -0.14464141
0.16916449 0.36482 -0.14825325
0.13617957 -0.35796088 -0.13905305
-0.22185954 -0.28391346 -0.13137245
-0.22186716 -0.19137353 -0.13068321
0.21652594 -0.10194729 -0.13909666
-0.22185808 -0.080254704 -0.13148825
0.22483474 -0.055635683 -0.13798849
0.22478208 -0.043551859 -0.13322094
0.22478798 0.0055015162 -0.13374777
0.22484675 0.02343181 -0.13906167
-0.22180982 0.1359857 -0.13582253
0.072625279 -0.35863814 -0.12196477
0.22468063 -0.31331679 -0.12401482
-0.22194031 -0.24121016 -0.12406069
-0.22195303 -0.1257425 -0.12290283
0.22463907 -0.057547323 -0.12026869
-0.22189251 -0.0012070686 -0.12835971
-0.22196881 0.019337758 -0.12145167
0.22466955 0.14695457 -0.12299584
-0.22196588 0.17720604 -0.12169351
0.21638128 0.21245363 -0.12601738
-0.19340707 0.36482 -0.12605214
-0.093832366 0.36482 -0.12135944
-0.011979561 0.36482 -0.12825581
-0.10541359 -0.35867268 -0.11987705
0.091645442 -0.35874248 -0.11565796
0.22458123 -0.30637228 -0.11502068
0.21631271 -0.28147578 -0.11986141
0.21629544 -0.22624783 -0.11827908
-0.2220514 -0.1387158 -0.1140026
-0.22208959 -0.026942611 -0.11052901
-0.2220771 0.092966959 -0.11164033
-0.2220597 0.14246975 -0.11320905
0.21620737 0.1739517 -0.11034989
-0.22201031 0.21454656 -0.1176668
0.21655244 0.22341144 -0.1149985
0.22458258 0.26745468 -0.11514369
0.22461884 0.29612696 -0.11842214
0.22455737 0.32058546 -0.11286058
-0.11817219 0.36482 -0.11851452
0.00066483766 0.36482 -0.11005221
0.072837591 0.36482 -0.11696126
-0.050267152 -0.35893399 -0.10408529
0.21618484 -0.20833322 -0.10826029
0.21610358 -0.19937074 -0.10091554
0.21618694 -0.14702639 -0.10845081
-0.22214913 -0.11857899 -0.10515556
0.22450165 0.23052362 -0.10781788
-0.22217569 0.34960303 -0.10267857
0.10681156 0.36482 -0.10792172
0.11076196 0.36482 -0.10847318
0.16124561 0.36482 -0.10724626
0.19717164 -0.3567881 -0.094206519
-0.22228289 -0.054473892 -0.093040079
0.22433186 0.076108247 -0.092527203
-0.13670447 0.36482 -0.093435481
0.047773182 0.36482 -0.095712751
0.2141583 0.36482 -0.099389419
-0.22233047 -0.35056445 -0.088743769
-0.023388164 -0.35920084 -0.087958023
0.22419535 -0.040693909 -0.080134414
0.22423245 0.10437959 -0.083480567
-0.22232714 0.15211621 -0.089002863
-0.22232378 0.29348093 -0.089286417
-0.14052923 0.36482 -0.088925079
0.14449024 0.36482 -0.086327985
-0.14270599 -0.35945344 -0.072692521
-0.061020091 -0.35947949 -0.071117453
0.015815243 -0.35940993 -0.07532157
0.21586233 -0.1654366 -0.079081059
-0.22248754 -0.053189322 -0.074519128
0.22414243 0.051080815 -0.075331688
0.22416313 0.085008845 -0.077191994
-0.22250354 0.093443632 -0.073048554
-0.22243658 0.22883236 -0.079088315
0.22409832 0.32707974 -0.071317323
-0.22252378 0.33030245 -0.071180552
0.093694076 0.36482 -0.079842679
0.14712131 0.36482 -0.074571691
-0.095489115 -0.35952061 -0.068635263
0.1561043 -0.3575778 -0.06095919
0.21567041 -0.24196942 -0.061730735
0.22405972 -0.065825202 -0.067883544
0.2239899 -0.025064562 -0.061541118
-0.22259393 0.013031397 -0.064881504
-0.22255071 0.11076345 -0.068777576
0.22397818 0.14906171 -0.060462803
-0.22264105 0.18974757 -0.06058947
0.21754383 0.22558999 -0.060629893
0.22275881 0.22559001 -0.068970598
0.22403368 0.24952385 -0.065467268
-0.22258724 0.26307693 -0.065448679
0.22404526 0.31258881 -0.066515386
-0.19582462 0.36482 -0.065769047
-0.046104208 0.36482 -0.066495679
-0.017627895 0.36482 -0.069731079
0.15774748 0.36482 -0.064248174
-0.055322669 -0.35979289 -0.05217902
0.13547447 -0.35797447 -0.055363812
0.22030035 -0.3565 -0.051266618
-0.22275627 -0.32333905 -0.050203323
0.21558537 -0.24584293 -0.054035239
0.22393429 0.027421497 -0.056485444
0.2238854 0.12933221 -0.05205496
-0.22272351 0.19519968 -0.053125519
0.21560353 0.21053892 -0.055633124
0.22393396 0.22828735 -0.056443803
0.22389661 0.26241562 -0.053061731
0.22394741 0.33797121 -0.057660393
0.055769399 0.36482 -0.05745247
0.078116775 -0.35907739 -0.044575244
0.16096875 -0.35748422 -0.041891381
0.18878388 -0.35694939 -0.045670234
0.21546446 -0.24480306 -0.043093517
0.21549928 -0.19531369 -0.046245128
-0.22286783 -0.058028549 -0.040105008
-0.22285454 0.0020496137 -0.041299593
0.22382551 0.04642377 -0.046628758
0.22383325 0.057065804 -0.04733064
-0.22280957 0.16499442 -0.045342308
-0.2227786 0.17604446 -0.048142977
-0.22279003 0.28695101 -0.047092885
0.22383055 0.35616058 -0.047084548
-0.15050535 0.36482 -0.044627406
-0.14861527 0.36482 -0.04294394
-0.064070597 0.36482 -0.049063157
0.10670751 0.36482 -0.04333267
-0.0090440642 -0.36004582 -0.036894221
0.16016385 -0.35749972 -0.037276641
0.22368118 -0.30935782 -0.033568032
0.21532249 -0.13265905 -0.030221296
0.21884209 -0.12999356 -0.039015427
0.2236955 -0.084823884 -0.034845322
-0.2229059 -0.045662582 -0.036658362
-0.22292191 -0.027521268 -0.035205044
-0.22292462 -0.016490243 -0.034959823
-0.22294301 0.15011092 -0.033269949
0.22368014 0.2514531 -0.033472173
-0.22286977 0.29142615 -0.039876062
-0.22296456 0.34714985 -0.031288944
-0.1795776 0.36482 -0.032595471
-0.20117387 -0.36029947 -0.021566417
-0.1094984 -0.36024496 -0.024859861
0.0039922157 -0.36018759 -0.02832865
0.012239382 -0.36022067 -0.026328027
0.03382954 -0.35992894 -0.02814462
0.049895927 -0.35962 -0.023486495
-0.22308451 -0.33267519 -0.020489804
0.2180759 -0.302953 -0.020809161
0.21526471 -0.2422982 -0.025016053
-0.22298126 -0.23031491 -0.029837497
0.22356912 -0.10521717 -0.023398723
-0.22306114 0.010574758 -0.022598632
0.22355796 0.046383802 -0.022394415
-0.22299716 0.079216652 -0.02838055
0.22363655 0.1919305 -0.029555121
0.21925104 0.21143453 -0.027797189
-0.22300363 0.26698232 -0.027764648
-0.14546533 0.36482 -0.023233652
-0.12708038 0.36482 -0.024114415
-0.0048370324 0.36482 -0.020896159
0.070831329 0.36482 -0.026275277
-0.15466896 -0.36048681 -0.010243274
-0.030057095 -0.36049035 -0.010030285
0.21511719 -0.20133403 -0.011666443
-0.22319844 -0.16394874 -0.010177907
0.12049279 -0.35826254 -0.0096961409
0.18767868 -0.35697064 -0.008439213
0.22332639 -0.31106353 -0.0014591068
0.22338362 -0.1072398 -0.0066050803
0.22334231 -0.052121177 -0.0028769581
0.2233274 -0.013233595 -0.0015316319
-0.22324534 0.024758361 -0.0059281182
-0.22327876 0.24386573 -0.0028697774
0.22332337 0.24243769 -0.0011873692
-0.22324675 0.27145186 -0.0057622008
0.052425258 0.36482 -0.0089180619
0.17569052 0.36482 -0.0082010403
0.18478118 0.36482 -0.0052462295
-0.22218554 -0.36078212 0.0075830296
0.21498775 -0.26038229 4.4882298e-05
0.21498397 -0.23247945 0.00038991868
-0.22340983 -0.12112673 0.0089552104
0.22327842 -0.057208393 0.0029130448
0.22328644 0.058317915 0.0021662377
0.22327498 0.078996561 0.0031983359
-0.22333413 0.11138369 0.0021196082
-0.22335234 0.20819935 0.0037832558
0.22326195 0.32595789 0.0043709725
-0.10155712 0.36482 0.0084649473
-0.2200231 -0.36091706 0.01575692
0.050130002 -0.3596155 0.014202876
-0.223445 -0.28543574 0.012139842
0.21483096 -0.23326802 0.01423575
-0.22352254 -0.19795346 0.019157175
0.21486205 -0.16306803 0.011425126
0.22314364 -0.11177812 0.015144343
0.22316681 -0.10977264 0.013044822
0.22317079 0.10159697 0.012636914
-0.22342151 0.15799816 0.010036774
0.22315127 0.17965074 0.014384914
-0.22352694 0.2049706 0.019583631
-0.16601186 0.36482 0.010098256
0.048514534 -0.35964656 0.02611468
0.14367966 -0.35781667 0.021460757
0.2147367 -0.30147827 0.022764742
-0.22361058 -0.28858554 0.02712664
-0.2235879 -0.20612189 0.025075577
0.22302331 -0.10198741 0.025997512
-0.22360617 -0.093285032 0.026728567
-0.22361627 -0.024175793 0.027642742
0.22298421 0.097265691 0.029514343
-0.22354475 0.1152366 0.021179527
0.2230272 0.14854586 0.025624728
0.22308803 0.20988598 0.020104367
-0.22363779 0.24995255 0.029622771
-0.16267513 0.36482 0.025763445
-0.052321471 0.36482 0.028661856
-0.016442468 0.36482 0.02488423
-0.14194073 -0.36127639 0.037471123
-0.061911568 -0.3612369 0.035084225
-0.22373234 -0.20134087 0.038147576
0.21460891 -0.16396528 0.034334086
-0.22374171 -0.0029053092 0.038996086
0.22287035 -0.004827816 0.039793793
-0.22368732 0.014242202 0.034073979
-0.22370939 0.16119711 0.036088753
0.21715674 0.21141665 0.032860935
-0.22370461 0.24437597 0.035668924
-0.22365186 0.35693908 0.030912273
0.080621511 -0.3590292 0.04443533
-0.22383559 -0.3222332 0.047495283
0.22285166 -0.32585716 0.041502841
-0.22383462 -0.30008861 0.047408521
-0.22378871 -0.28296831 0.04325217
0.21452716 -0.14210138 0.041731574
-0.22385307 0.11285762 0.049083412
0.22282965 0.18168332 0.043485273
0.21774724 0.20798242 0.047396954
-0.22382897 0.29772529 0.046930596
0.22282809 0.33097851 0.043633863
-0.22375342 0.35125446 0.040101871
0.015599165 0.36482 0.042725459
0.17238161 0.36482 0.042471461
-0.15067531 -0.36158371 0.056042701
0.044616915 -0.35972151 0.057875067
0.17633277 -0.35718882 0.057363849
0.22271834 -0.33728325 0.053567253
-0.2238681 -0.28714329 0.050438382
0.21442783 -0.16733506 0.050721228
0.22266681 -0.093989715 0.058179293
-0.22388355 -0.085970722 0.051836044
-0.22389951 -0.052583963 0.05327959
-0.22396749 -0.013715487 0.059434731
-0.22389799 0.026941076 0.05314178
-0.22388151 0.062045522 0.051652178
-0.22390746 0.11020424 0.054004308
-0.22387001 0.12993553 0.050619304
0.22271854 0.1863476 0.053537823
-0.22394779 0.19858544 0.057667755
0.22268799 0.24125257 0.056313179
-0.22394419 0.30930206 0.057359278
-0.22388726 0.33166724 0.052210838
-0.18146624 0.36482 0.054006755
0.082131162 0.36482 0.051557407
0.22064364 0.36482 0.051921062
-0.13741806 -0.36171302 0.063858628
0.21425261 -0.30281118 0.066574052
0.21432021 -0.27815482 0.060456604
0.22257951 -0.11995743 0.066095859
-0.22401863 -0.077157974 0.064064711
0.22259477 -0.022558916 0.064715676
0.22257295 -0.011835627 0.066696078
0.22258213 0.051789913 0.065870546
0.21428585 0.20603134 0.063630372
-0.22157629 -0.36182922 0.070868418
-0.15985367 -0.36194131 0.07765457
-0.11886523 -0.36185107 0.072200924
0.18668351 -0.35698977 0.074210025
0.22247143 -0.34217456 0.075911343
-0.22413069 -0.24695435 0.074206591
-0.22418776 -0.22416523 0.079373173
0.2224986 0.17136557 0.073454663
0.22248398 0.18067865 0.07477735
-0.22409138 0.28205824 0.070675731
-0.19261348 0.36482 0.074857466
0.058684282 0.36482 0.07215023
-0.043702066 -0.36141974 0.081083745
0.21402691 -0.15049115 0.087003961
0.21959822 -0.11164652 0.088890821
0.22239201 -0.079298913 0.08310391
0.22237584 0.1390648 0.084549665
-0.2242585 0.1622549 0.085779935
-0.22423811 0.18057218 0.083940297
-0.21163078 0.36482 0.086671293
-0.012280669 0.36482 0.089718103
0.16384764 0.36482 0.089281052
-0.19920628 -0.36221346 0.094101131
-0.17860952 -0.36224294 0.095881701
0.091726787 -0.35881567 0.092567183
0.20778199 -0.35658407 0.095052242
-0.22431137 -0.34297672 0.090561315
-0.2243914 -0.32815349 0.097803645
-0.2243524 -0.18273839 0.094275683
-0.22440414 -0.025810838 0.098958887
0.21394616 0.22527906 0.094307259
-0.19425589 0.36482 0.091472358
0.010424763 0.36482 0.091860726
-0.17290634 -0.36242616 0.10695596
0.064944454 -0.35933062 0.10874988
-0.22449641 -0.34634578 0.10731032
-0.22447111 -0.32412779 0.10501961
-0.22446816 -0.23008774 0.10475385
0.21378019 -0.14611369 0.1093322
0.22216994 -0.054998014 0.10319998
-0.13623013 0.36482 0.10823436
-0.073634908 0.36482 0.10295182
0.023081396 -0.36013561 0.11831677
0.14107174 -0.35786682 0.11365061
0.21370468 -0.21658893 0.11616246
-0.22463143 -0.13259864 0.1195337
0.22201343 -0.059960108 0.11732659
0.22203329 -0.035505217 0.11552966
-0.22454545 -0.023909345 0.11175113
-0.2246055 -0.010039538 0.11718612
0.22200046 0.13751172 0.11849089
-0.22455275 0.14771633 0.1124111
0.22209013 0.24516153 0.11041888
0.2220197 0.26629949 0.11679353
-0.2246307 0.36439613 0.11949695
0.016841842 0.36482 0.1111228
0.13684542 0.36482 0.11190626
0.2220183 0.36326164 0.11692031
0.0053253286 -0.36047703 0.12392371
0.02345233 -0.36012846 0.12998983
0.15986374 -0.35750547 0.12651409
0.20229405 -0.35668963 0.12757635
-0.22469963 -0.30086154 0.1257076
-0.22472779 -0.077552877 0.12825529
0.22188903 0.079005048 0.12859261
0.22194065 0.12938693 0.12390067
0.2135649 0.19301537 0.12885682
0.21362019 0.21439706 0.12384555
-0.22465648 0.26376849 0.12181327
0.049357962 0.36482 0.12590595
0.096238457 0.36482 0.12726414
0.21644524 0.36482 0.12529406
-0.2111152 -0.36282748 0.13120688
-0.13465312 -0.36284909 0.13251413
-0.12080859 -0.3629024 0.13682845
-0.06962467 -0.36191818 0.13115554
0.043199573 -0.35974875 0.13575599
0.21346676 -0.29590154 0.13769098
-0.22480053 -0.14405484 0.13483839
0.21355098 -0.14036027 0.13009445
-0.2247958 -0.026025474 0.13441119
0.22176838 0.021457411 0.13952835
0.22184469 0.28791705 0.13263041
-0.13008177 -0.36308074 0.14933795
-0.067857355 -0.36188421 0.14044002
-0.042101044 -0.36138895 0.14910814
-0.028649881 -0.3611303 0.14873278
0.13587475 -0.35796678 0.14513049
-0.22495298 -0.32095566 0.14863825
-0.22492446 -0.22274816 0.14605668
0.22165313 0.34033135 0.14996743
-0.13511428 0.36482 0.14988905
0.20268589 0.36482 0.14865458
-0.13817021 -0.36323571 0.15587917
-0.027868137 -0.36111528 0.15227327
0.1071713 -0.35851869 0.15373081
0.15506539 -0.35759774 0.1557208
0.21461092 -0.3565 0.1503001
0.22154713 -0.33217016 0.15956077
-0.22500864 -0.30932471 0.15367609
-0.22506817 -0.26482669 0.15906501
-0.22503671 -0.25609875 0.1562161
-0.2250022 -0.19883063 0.15309322
0.21332756 0.14517482 0.1503987
-0.22502156 0.18920016 0.154847
0.22159564 0.32774219 0.15516876
-0.17357147 0.36482 0.15290609
0.188651 0.36482 0.15980041
0.011592567 -0.36035651 0.16295364
0.12079014 -0.35825682 0.16541073
0.22151893 -0.33148307 0.16211072
-0.22517867 -0.24054338 0.16906703
-0.22516331 -0.10423175 0.16767693
0.21313442 -0.070832282 0.16785294
-0.22513613 0.11931942 0.16521731
0.22153191 0.24674115 0.16093624
-0.16234297 0.36482 0.16755377
-0.078913651 0.36482 0.16813128
-0.14219584 -0.36331362 0.17083026
-0.12727518 -0.36302674 0.17794007
-0.22522071 -0.35855752 0.17287149
0.21490356 -0.302953 0.17565404
-0.22520068 0.010055803 0.17105919
0.21983381 0.047020398 0.17632034
-0.22526123 0.07255885 0.17654112
0.21300268 0.071439318 0.17970008
0.2131059 0.19543324 0.17037822
-0.22520608 0.20361024 0.17154881
-0.22524391 0.2756561 0.17497641
-0.2101232 0.36482 0.17043026
-0.010748416 0.36482 0.17266017
0.057823062 0.36482 0.17798413
0.16403581 0.36482 0.17527531
-0.20852469 -0.36373812 0.18624042
-0.0091365874 -0.36075509 0.18825981
0.013053499 -0.36032844 0.18221661
0.097538345 -0.35870391 0.18983492
0.12516786 -0.35817263 0.18607165
0.19049177 -0.35691655 0.18547772
-0.22531004 -0.17803831 0.18095931
-0.22538087 -0.16400154 0.18737008
0.21298535 -0.071945913 0.18126735
-0.22539942 0.072329924 0.18904898
-0.22536261 0.15262349 0.18571748
-0.22531182 0.17073981 0.18111946
0.22125697 0.23825911 0.18581845
-0.22533277 0.30951673 0.18302278
-0.12504536 0.36482 0.18235712
0.02725096 0.36482 0.18662927
0.19806236 0.36482 0.18832383
0.081675641 -0.35900894 0.19555731
0.11711723 -0.35832745 0.1949742
0.22114481 -0.31816614 0.19596817
0.21287972 -0.29850021 0.19081715
-0.22541702 -0.01336053 0.19064316
0.22108015 0.22559001 0.19016734
-0.22550082 0.34912258 0.19823651
-0.17422959 0.36482 0.1970789
-0.025480956 0.36482 0.19206196
0.026038816 -0.36007872 0.20149095
0.054416619 -0.35953307 0.20153643
0.16336568 -0.35743815 0.20234713
0.19545801 -0.35682109 0.20247009
0.21270795 -0.2767517 0.20636256
-0.22555646 -0.26140216 0.20326415
-0.22556387 0.054033227 0.20393401
0.21274224 0.082997166 0.20328932
-0.22558874 0.098044425 0.20618673
-0.22558847 0.14470237 0.20616147
-0.017696552 0.36482 0.20497723
0.11470946 0.36482 0.20527035
-0.089018732 -0.36229113 0.2121745
0.040719032 -0.35979646 0.21768731
0.10293026 -0.35860023 0.21149032
0.21263181 -0.15421 0.21325633
-0.2256617 -0.11270465 0.21279204
0.22095753 0.27555758 0.21291524
-0.17558636 0.36482 0.21282914
-0.082467481 0.36482 0.21534647
0.15662359 0.36482 0.21707124
0.032718983 -0.3599503 0.22991909
-0.22575797 -0.31410125 0.22150561
0.21251847 -0.25055894 0.22352795
-0.2258167 -0.24342653 0.22682041
0.21254306 -0.17838612 0.22128628
0.21248271 -0.033132941 0.22674817
-0.22575146 0.041034967 0.2209146
-0.22584334 0.18912458 0.22923131
0.023460723 0.36482 0.22612011
-0.16615699 -0.36377439 0.23448947
-0.14281122 -0.36332548 0.23920992
-0.023484267 -0.361031 0.23696434
0.18242085 -0.35707176 0.23568968
-0.22587061 -0.21891785 0.23170015
-0.22591855 -0.18163338 0.23603968
0.21235144 -0.14287546 0.23862654
0.21234217 -0.046273366 0.23946504
0.2123661 -0.027316995 0.23729941
0.21244405 -0.018328078 0.23024613
0.22070906 0.30224419 0.23540415
0.046641052 0.36482 0.23111278
-0.15323122 -0.36352584 0.24392207
0.051476568 -0.35958961 0.24533769
0.062578201 -0.35937613 0.24390069
0.2205891 -0.34779266 0.24625865
0.22055592 -0.32871562 0.2492615
-0.22602236 -0.13415736 0.24543655
-0.22606614 -0.093496904 0.24940011
-0.22597378 0.034547701 0.24104005
0.21233273 0.20615506 0.2403307
-0.22606629 0.25454465 0.24941251
0.22057897 0.25166312 0.24717554
-0.19325957 -0.36429551 0.25107911
-0.13898262 -0.35507786 0.2525216
0.030457024 -0.35999382 0.2537356
0.042903155 -0.35121801 0.25453162
0.054242726 -0.35953641 0.2545642
0.14708567 -0.35775119 0.25563407
0.166024 -0.35419255 0.25589222
0.19204858 -0.35580099 0.25617978
-0.19250962 -0.34544933 0.25193009
0.22050427 -0.34326193 0.25393707
-0.14474152 -0.33498478 0.25245798
-0.035158701 -0.33875108 0.25366896
0.043884505 -0.33359876 0.25454244
0.13159181 -0.33113354 0.25551167
-0.16057719 -0.32177946 0.25228295
0.006359065 -0.3239705 0.25412774
0.10660183 -0.32390475 0.25523552
-0.16529816 -0.31420475 0.25223079
-0.027555101 -0.31080231 0.25375298
0.18815337 -0.31799775 0.25613675
0.010607187 -0.30769297 0.25417471
0.17145739 -0.3057155 0.25595227
-0.22411385 -0.2940782 0.25158083
0.09400747 -0.29292634 0.25509635
0.14165202 -0.29131171 0.25562286
-0.10695906 -0.2851567 0.25287548
-0.2203998 -0.27094862 0.25162187
0.094895035 -0.27434289 0.25510618
-0.16788633 -0.2672461 0.25220221
-0.079224989 -0.26727295 0.25318199
0.18213853 -0.26162842 0.25607029
-0.19257325 -0.25775248 0.2519294
-0.087562531 -0.25405407 0.25308985
0.033047289 -0.25923499 0.25442269
-0.105016 -0.24146451 0.25289696
0.074233085 -0.24416992 0.25487784
0.14528896 -0.24108121 0.25566307
0.15253678 -0.2419645 0.25574315
0.17040166 -0.24933937 0.25594059
-0.22442651 -0.23564783 0.25157738
-0.16292323 -0.2398385 0.25225705
-0.024638522 -0.23931995 0.25378522
0.15016377 -0.23995084 0.25571692
0.13918486 -0.22629893 0.25559559
-0.13911249 -0.2159525 0.25252017
0.18231794 -0.21748966 0.25607225
-0.16853693 -0.20854028 0.252195
0.087708443 -0.2061241 0.25502676
0.031171404 -0.18464951 0.25440198
-0.12877315 -0.17206481 0.25263441
0.15701902 -0.17076638 0.25579268
0.2000415 -0.17922464 0.25626811
-0.15379068 -0.16960353 0.25235796
0.059476815 -0.1663731 0.25471476
0.081484869 -0.16816351 0.25495797
0.032583587 -0.15146926 0.25441757
0.014629729 -0.14913478 0.25421914
-0.2239019 -0.13481295 0.25158316
0.13995931 -0.13320756 0.25560418
0.18370765 -0.13601783 0.25608763
0.04183232 -0.12199122 0.25451976
0.20308712 -0.12070203 0.25630179
-0.039289139 -0.10516424 0.25362331
0.0028219968 -0.10332306 0.25408867
-0.031858481 -0.096985087 0.25370541
0.022272274 -0.093051463 0.2543036
0.047353849 -0.098091632 0.2545808
0.065284319 -0.092427775 0.25477892
-0.027061351 -0.089630038 0.25375843
-0.0014745034 -0.086738825 0.25404119
0.02092734 -0.085784495 0.25428873
0.067368858 -0.08463835 0.25480196
0.1529468 -0.083719164 0.25574768
0.17676601 -0.081033178 0.25601089
0.18115385 -0.065761663 0.25605938
-0.19103545 -0.047897875 0.25194639
-0.095706657 -0.04368104 0.25299984
-0.064362228 -0.040555209 0.25334623
0.00018917769 -0.033574 0.25405955
0.093855709 -0.038239323 0.25509468
-0.088570356 -0.028465528 0.2530787
-0.019037237 -0.027708128 0.25384709
-0.16571134 -0.011138588 0.25222623
-0.12095274 -0.019125044 0.25272086
0.05033724 -0.016451031 0.25461376
0.17023933 -0.013429008 0.25593877
-0.1149826 -0.00092855096 0.25278682
-0.07394141 -0.0054454878 0.25324038
-0.032104768 -0.0055089593 0.2537027
0.02481867 -0.0020895447 0.25433177
0.03997609 -0.0054896176 0.25449926
-0.12021175 0.001661025 0.25272903
0.20386483 0.0072631002 0.25631037
-0.18833256 0.011495069 0.25197622
0.037341595 0.011566892 0.25447014
-0.16720259 0.025390476 0.25220975
-0.046901591 0.02396543 0.25353917
0.17112118 0.026510935 0.25594854
-0.050534707 0.034173809 0.25349906
0.061810724 0.035400424 0.25474054
0.20779335 0.0322937 0.2563538
0.21220973 0.038635164 0.2514495
0.016262501 0.046371564 0.2542372
0.097281411 0.046149675 0.25513253
-0.11202499 0.055262625 0.25281951
0.15748961 0.050470009 0.25579789
0.17861106 0.05653204 0.2560313
-0.10995731 0.06070916 0.25284234
0.068552978 0.066616468 0.25481507
-0.038092669 0.079789706 0.25363651
0.19873586 0.071914479 0.25625369
-0.1652672 0.085541375 0.25223112
-0.09111879 0.083680883 0.25305054
0.20843078 0.085829832 0.25636083
0.11386656 0.095745422 0.25531581
0.20117117 0.099255592 0.2562806
-0.20302008 0.10134523 0.25181395
-0.058901779 0.10863543 0.25340655
0.0053009093 0.10912298 0.25411606
0.11773241 0.10332811 0.25535855
-0.18417302 0.11432238 0.25202221
-0.042909294 0.11314653 0.25358331
-0.035999037 0.11982477 0.25365964
0.031685174 0.11868595 0.25440764
-0.18447453 0.12725112 0.25201887
0.17708932 0.12427858 0.2560145
-0.10677084 0.13522193 0.25287756
-0.068575546 0.13054951 0.25329968
-0.051091969 0.13410076 0.25349286
-0.019177765 0.13570331 0.25384557
0.16386941 0.13937333 0.25586838
-0.20134936 0.1499102 0.2518324
0.022632964 0.14951289 0.2543076
0.033023223 0.14892747 0.25442243
0.13588563 0.14322567 0.25555915
0.14302082 0.14892437 0.255638
-0.18953753 0.15019825 0.25196293
-0.066231668 0.1534265 0.25332555
0.0021768585 0.15744753 0.25408155
0.10345099 0.15105562 0.25520074
0.11882443 0.158103 0.25537059
-0.18254173 0.1637076 0.25204024
-0.17171571 0.16549942 0.25215986
-0.031762168 0.17191523 0.25370649
-0.14265774 0.18668586 0.25248098
0.032400392 0.18801568 0.25441554
0.075300694 0.1825664 0.25488961
0.087681115 0.19029784 0.25502646
-0.18432535 0.20128958 0.25202054
0.10183226 0.20573366 0.2551828
-0.21751989 0.21516599 0.2516537
-0.17699401 0.21037814 0.25210157
-0.15735336 0.21907237 0.25231859
-0.12016124 0.21890576 0.25272959
0.059195492 0.21336184 0.25471163
0.20829791 0.21021065 0.25635937
-0.18716198 0.22296488 0.25198919
0.12195124 0.22949901 0.25540516
0.14141352 0.22923607 0.25562024
0.059451148 0.23314261 0.25471446
0.1758004 0.23991852 0.25600025
-0.1789638 0.24405608 0.25207978
0.038772792 0.24372685 0.25448596
-0.041645713 0.25552583 0.25359726
0.11957707 0.2535134 0.2553789
0.20193228 0.25453138 0.25628904
0.11246318 0.26590854 0.25530031
-0.13954192 0.2724202 0.25251541
-0.12688869 0.27613398 0.25265527
0.18711671 0.27839094 0.25612533
-0.1960732 0.28880599 0.25189072
0.09644486 0.28887734 0.25512332
0.2160567 0.28450423 0.25644514
0.076989055 0.30317813 0.25490832
-0.054575045 0.31655839 0.25345436
-0.011714794 0.31889638 0.25392804
0.22049025 0.31931803 0.25520533
-0.13820383 0.32772884 0.25253022
0.020587597 0.32892421 0.25428501
-0.1066098 0.33330503 0.25287935
0.030647568 0.33118278 0.25439617
0.11213754 0.33150488 0.25529674
0.14307408 0.33376518 0.25563863
-0.0018572807 0.34259659 0.25403696
0.010532893 0.34916282 0.2541739
0.15249297 0.34593546 0.2557427
-0.07859385 0.35760689 0.25318897
-0.02383931 0.36100054 0.25379407
0.028922595 0.36426827 0.25437713
0.08271227 0.36482 0.25050938
0.18194813 0.36375964 0.2560682
