# .PCD v0.7 - Point Cloud Data file format
VERSION 0.7
FIELDS x y z
SIZE 4 4 4
TYPE F F F
COUNT 1 1 1
WIDTH 983
HEIGHT 1
VIEWPOINT 0 0 0 1 0 0 0
POINTS 983
DATA ascii
0.012436241 -0.35337001 -0.28005368
-0.039580725 -0.34143662 -0.28630999
-0.1310925 -0.32803997 -0.28631002
-0.058448132 -0.31860492 -0.28630999
-0.10013895 -0.30189663 -0.28631002
0.0899636 -0.30275881 -0.28630999
-0.14492813 -0.27867493 -0.28630999
-0.18297757 -0.26260099 -0.28630999
0.11797075 -0.26410154 -0.28631002
-0.046146072 -0.25858986 -0.28630999
0.017610531 -0.24166372 -0.28630999
0.077009104 -0.24232498 -0.28630999
0.079358101 -0.23660968 -0.28630999
-0.025588464 -0.22095419 -0.28630999
0.093952388 -0.22540106 -0.28630999
0.14801477 -0.2253117 -0.28630999
0.16308817 -0.21600167 -0.28630999
-0.10736373 -0.19476244 -0.28630999
0.14643255 -0.19961119 -0.28630999
-0.11614179 -0.18025005 -0.28630999
-0.0027169548 -0.18682426 -0.28630999
-0.036000594 -0.1749371 -0.28630999
0.085670888 -0.17047387 -0.28630999
0.11923157 -0.16660187 -0.28630999
0.042008974 -0.13889554 -0.28630999
0.0026138574 -0.12186622 -0.28630999
0.1278396 -0.12027679 -0.28630999
0.0090491204 -0.11401267 -0.28630999
0.088026673 -0.11783551 -0.28630999
0.037120432 -0.1053789 -0.28630999
-0.13543497 -0.098307043 -0.28630999
0.068910807 -0.096307948 -0.28630999
0.15346628 -0.091072939 -0.28630999
-0.085386723 -0.089717552 -0.28630999
0.16210786 -0.085544385 -0.28630999
-0.12293871 -0.068904944 -0.28630999
-0.12598568 -0.056437824 -0.28630999
-0.043858193 -0.044739306 -0.28630999
0.036740668 -0.042050593 -0.28630999
0.083926931 -0.049030676 -0.28630999
-0.10562664 -0.034134649 -0.28630999
0.014537234 -0.029635213 -0.28630999
0.074921377 0.0077574104 -0.28630999
0.14079218 0.021880411 -0.28630999
0.12385374 0.03668645 -0.28630999
-0.17194238 0.072758555 -0.28630996
-0.011475176 0.072371319 -0.28630999
-0.076708317 0.081180468 -0.28630996
-0.0018271878 0.080140941 -0.28630999
-0.1498225 0.10834968 -0.28630999
-0.023386098 0.10813082 -0.28630999
-0.18773046 0.11634273 -0.28630999
-0.12928239 0.1275132 -0.28630999
-0.0065415949 0.13839039 -0.28630999
0.11550588 0.13476193 -0.28630999
0.1551588 0.13785267 -0.28630999
0.036260054 0.15604149 -0.28630999
0.030559517 0.1660115 -0.28630999
-0.16687988 0.17790374 -0.28630999
-0.10525768 0.17496277 -0.28630999
0.17155324 0.17326605 -0.28630999
-0.10872549 0.19272816 -0.28630999
0.07379742 0.20387837 -0.28630999
-0.041796938 0.216968 -0.2847614
0.00051446259 0.216968 -0.28176564
0.17280219 0.21310934 -0.28630999
-0.13860044 0.23778695 -0.28631002
-0.12141961 0.23488352 -0.28630996
-0.19926634 0.24878348 -0.28630999
-0.017102249 0.2595602 -0.28630999
-0.13682532 0.26458594 -0.28630999
-0.038142592 0.269651 -0.28630999
-0.012337156 0.28940269 -0.28630999
-0.0046085566 0.28767687 -0.28630999
0.0047387183 0.28380424 -0.28630999
-0.13267687 0.32516575 -0.28630999
0.052189939 0.32626557 -0.28630999
-0.051091872 0.33770299 -0.28562981
0.1695316 0.33770299 -0.28397891
-0.20239201 0.34996021 -0.28268582
0.093179852 0.34711701 -0.28483284
-0.14803827 -0.35337001 -0.27115074
-0.035279796 -0.35337001 -0.27228254
-0.0057469979 -0.35337001 -0.27815837
0.1406018 -0.35337001 -0.27384859
-0.20774001 -0.10477464 -0.27778429
0.10062766 0.216968 -0.27098376
0.12521812 0.216968 -0.27258897
0.049047448 0.35337001 -0.27360216
-0.040146414 -0.35337001 -0.26291361
0.028736599 -0.35337001 -0.26366004
0.16514117 -0.35337001 -0.26430368
0.181548 -0.33527201 -0.26902226
-0.20773999 -0.2844947 -0.26460204
0.181548 -0.12730137 -0.2647377
0.181548 0.14423576 -0.26867479
-0.20774001 0.1574297 -0.2677989
-0.20773999 0.20710222 -0.26624754
-0.12505652 0.216968 -0.26952389
0.0037886705 0.216968 -0.26961389
0.080964781 0.216968 -0.26458141
0.028613217 -0.35337001 -0.25999171
-0.20773998 -0.29328996 -0.25759402
-0.20773999 -0.23826423 -0.25355214
0.181548 -0.1850173 -0.2575675
-0.20773999 -0.17828238 -0.25376514
-0.20773999 0.18222123 -0.25645778
-0.16587834 0.216968 -0.25240862
-0.11318927 0.33770299 -0.25661913
-0.022007868 0.35198599 -0.2538271
-0.070665419 -0.35337001 -0.2471555
-0.20773999 -0.24925891 -0.24005103
0.095279135 -0.086057715 -0.24134089
0.11609195 -0.089091048 -0.24108343
-0.17284645 -0.078610167 -0.24197307
-0.20773999 -0.066471778 -0.24295656
0.069107778 -0.068629161 -0.24282028
0.082413346 -0.059977207 -0.2435547
0.14348906 -0.056759793 -0.24378495
-0.15812726 -0.046787772 -0.24199991
0.072283804 -0.043725334 -0.24145173
-0.20774001 -0.021356417 -0.24311513
-0.20773998 -0.017087953 -0.24567521
-0.20773999 -0.0098112077 -0.24390666
0.181548 0.022048304 -0.24218619
0.181548 0.052015066 -0.24763018
-0.078756921 0.216968 -0.24738052
0.181548 0.32773066 -0.24008818
-0.076197833 0.35198599 -0.24763523
0.072409272 0.35198599 -0.24868552
0.024375595 -0.35337001 -0.23304683
0.082111597 -0.14034286 -0.23122859
-0.13846138 -0.1225542 -0.23765087
-0.04280163 -0.12929957 -0.23521557
-0.019616 -0.12734969 -0.23591955
0.07508035 -0.12782055 -0.23574954
0.028613225 -0.11570466 -0.2388244
0.03958527 -0.11918002 -0.23852938
0.018403627 -0.029300347 -0.23886961
-0.10187393 -0.015770327 -0.23644766
-0.12397149 -0.0079912134 -0.23505518
-0.20773998 0.083036609 -0.23887023
-0.20773999 0.20222721 -0.23264548
0.181548 0.20048571 -0.23696852
-0.071773887 0.216968 -0.23793145
0.09709008 0.216968 -0.23411915
0.12976657 0.33770299 -0.23355159
-0.17072597 0.35198599 -0.2385923
0.094248004 0.35198599 -0.23081221
-0.20773999 -0.28326279 -0.22490878
-0.20774001 -0.25866452 -0.22689308
-0.20773999 -0.20768254 -0.22836907
-0.20773999 -0.19063313 -0.22390506
-0.12769932 -0.16911796 -0.22083987
0.13241665 -0.16448957 -0.22251087
-0.076457456 -0.14660271 -0.22896859
0.181548 -0.017942226 -0.22777277
-0.1782793 0.014088911 -0.22869422
0.059679411 0.013666228 -0.22889265
0.15247177 0.012879753 -0.2292619
0.11019044 0.025677918 -0.22325343
0.181548 0.023590917 -0.22301441
-0.1074407 0.031660862 -0.22044457
-0.13606682 0.216968 -0.22012937
0.18469805 0.28927341 -0.22911116
-0.0092777014 0.33770299 -0.22913608
0.13925785 0.33770299 -0.22789514
0.12925044 0.35198599 -0.22640342
0.070948027 -0.35337001 -0.21809226
0.12236415 -0.35337001 -0.21552722
0.18058567 -0.35337001 -0.21644272
-0.20774001 -0.20227829 -0.21446928
-0.20773999 -0.1765992 -0.21736944
0.036810301 -0.173089 -0.2194062
0.1328802 -0.17362294 -0.21921343
0.20022714 -0.070358932 -0.21152264
-0.20773999 -0.066737019 -0.2164655
-0.18341583 0.033696596 -0.21948884
-0.0062638149 0.039725654 -0.21665834
0.181548 0.03484074 -0.21758312
0.090521134 0.046243574 -0.21359831
0.047493279 0.05271114 -0.21056193
0.13113837 0.216968 -0.21330611
0.187913 0.28216282 -0.21882457
0.18590984 0.30641648 -0.21582308
-0.10705894 -0.35337001 -0.20949942
0.015297079 -0.35337001 -0.20341063
-0.16154751 -0.20234188 -0.20146771
0.13242507 -0.20203523 -0.20168124
-0.090249948 -0.19085981 -0.20946324
-0.020728808 -0.19945034 -0.20348123
0.1355309 -0.19551438 -0.20622203
0.1418853 -0.1959178 -0.20594111
0.20480746 -0.074060574 -0.20008445
0.181548 0.0021619098 -0.20614079
0.181548 0.038110647 -0.2029098
0.181548 0.049196046 -0.20633528
-0.051831871 0.061975587 -0.20621249
-0.026514329 0.066878468 -0.20263727
-0.20773999 0.077941202 -0.20383339
0.181548 0.13348523 -0.20526576
0.181548 0.14394976 -0.20319873
-0.20773999 0.21180266 -0.20353186
-0.0024327785 0.216968 -0.20989606
0.10745066 0.216968 -0.20557231
0.10484476 0.35198599 -0.20264769
0.15831231 0.35198599 -0.20013702
-0.16661996 -0.35337001 -0.19081509
-0.034564592 -0.35337001 -0.19514722
0.013144553 -0.35337001 -0.19290897
0.037863642 -0.21425943 -0.19316894
-0.087959096 -0.20496485 -0.19964123
0.20112358 -0.095922276 -0.19333169
-0.20773999 -0.066459194 -0.1917941
0.073536396 0.078607947 -0.19274321
0.095828071 0.071691446 -0.19857742
-0.060476411 0.08141312 -0.19037697
-0.087405011 0.216968 -0.19295993
0.181548 0.21482284 -0.19432858
-0.20774001 0.29755366 -0.19235106
-0.1511846 0.33770299 -0.19151285
0.0085148327 0.35198599 -0.19654086
0.12546816 0.35198599 -0.19112277
0.13594376 0.35198599 -0.19033393
0.181548 -0.30278784 -0.18809907
0.181548 -0.2803677 -0.18123332
-0.070307665 -0.2198444 -0.18927985
0.18667166 -0.11716418 -0.18533611
-0.20773999 0.0010696878 -0.18314491
-0.17832798 0.085136786 -0.18723598
-0.067833439 0.084422626 -0.18783841
0.10703952 0.090170138 -0.18299025
0.13977571 0.093672231 -0.18003617
0.181548 0.13370274 -0.18893661
-0.20098618 0.216968 -0.18141058
-0.20774001 0.23709245 -0.18796618
0.181548 -0.32528767 -0.17706247
0.181548 -0.27025622 -0.1713154
-0.20773999 -0.22637121 -0.17338975
-0.20773999 0.023800448 -0.17746925
0.181548 0.072272152 -0.17578804
-0.18752447 0.0943489 -0.17946538
-0.17624919 0.09468589 -0.17918111
-0.11806376 0.097430795 -0.17686574
-0.10429599 0.099750929 -0.17490864
-0.058455683 0.095159806 -0.17878136
-0.047862239 0.10345244 -0.17178634
0.181548 -0.3216151 -0.16329521
-0.19435202 -0.24369067 -0.16726343
-0.1292295 -0.24806333 -0.16207977
0.031393118 0.1124576 -0.16402404
0.070301101 0.11366106 -0.16229582
0.181548 0.14095989 -0.16510476
-0.18858396 0.33770299 -0.16318452
-0.10518151 0.33770299 -0.16082007
-0.049109761 0.33770299 -0.16652951
-0.12120157 0.35198599 -0.16224195
0.032424875 0.35198599 -0.16247049
0.080129713 0.35198599 -0.16233721
-0.1728086 -0.35337001 -0.1560671
-0.13039197 -0.25020337 -0.1595428
-0.045749269 -0.25475222 -0.15415025
-0.20774001 -0.17063083 -0.15212251
0.16629115 -0.087418981 -0.15500371
-0.20773999 -0.051229589 -0.15704799
0.19481209 -0.012121506 -0.1567173
0.181548 0.10736485 -0.15328768
0.11824541 0.11883137 -0.15487099
-0.088863149 0.12055741 -0.15239231
-0.072975412 0.216968 -0.15513121
-0.20773999 0.32824296 -0.15970704
-0.17231712 0.33770299 -0.15454766
-0.13239492 -0.35337001 -0.14255573
-0.20774001 -0.29294345 -0.14792022
-0.1765562 -0.26303047 -0.14433654
-0.068339303 -0.26505536 -0.14193605
-0.0056045875 -0.26005092 -0.14786874
0.16331989 -0.26333123 -0.14398
0.18045165 -0.26491666 -0.14210053
0.15242697 -0.089693002 -0.14991713
0.14481096 -0.029019458 -0.14221117
-0.14134815 0.12701637 -0.14311694
0.040064678 0.1231896 -0.14861235
0.181548 0.29980782 -0.14534974
-0.17108297 0.35198599 -0.14528729
-0.10712569 0.35198599 -0.14936656
-0.031464394 0.35198599 -0.1418356
0.12512508 0.35198599 -0.14511679
-0.18288177 -0.35337001 -0.13241856
-0.17892222 -0.35337001 -0.13194109
-0.12482653 -0.35337001 -0.13766775
0.080355033 -0.35337001 -0.13779753
-0.029902294 -0.26975968 -0.13635921
0.014259767 -0.26714635 -0.13945726
0.181548 -0.24723476 -0.13967103
-0.16846569 0.13191849 -0.13607724
-0.04960376 0.13449103 -0.13238294
0.093432009 0.216968 -0.13068852
0.035297345 0.33770299 -0.13275129
0.05904685 0.33770299 -0.1334933
0.12670602 0.33770299 -0.13159434
0.14465222 0.35198599 -0.13685608
-0.065340027 -0.35337001 -0.1248349
0.17719081 -0.35337001 -0.12899862
-0.19387229 -0.27904633 -0.12031011
-0.095009118 -0.27536124 -0.12815985
-0.20774001 -0.19371404 -0.12155589
0.095871374 -0.090102039 -0.12858942
0.13423815 -0.0011379656 -0.12716435
0.19041841 0.065780163 -0.12408231
0.181548 0.21304096 -0.1253632
0.181548 0.24027942 -0.12754275
0.181548 0.32983297 -0.12056871
-0.13079584 0.33770299 -0.12367149
0.10030232 0.35198599 -0.12111457
0.17058378 0.35330352 -0.12918119
-0.03791061 -0.35337001 -0.11586316
0.075210102 -0.35337001 -0.11342198
-0.091413282 -0.28263122 -0.11267386
-0.20773999 -0.18275368 -0.11571099
-0.20773999 -0.0011576898 -0.1133992
0.10169895 0.0016312706 -0.11212389
0.1860611 0.08584597 -0.11880451
0.10674822 0.216968 -0.11319291
0.181548 0.25853071 -0.1167822
-0.033867676 0.33770299 -0.11970406
0.040560052 0.35198599 -0.11101237
0.12895733 0.35198599 -0.1127913
-0.099205904 -0.35337001 -0.1097972
-0.047076799 -0.35337001 -0.10864779
0.089684755 -0.35337001 -0.10204897
-0.089106515 -0.28803533 -0.10116249
-0.051510498 -0.28711286 -0.10312749
0.0074601844 -0.28827763 -0.10064632
0.045393113 -0.28850141 -0.10016966
0.14453408 -0.28708851 -0.10317936
-0.20774001 0.051188197 -0.10494773
-0.20774001 0.19854867 -0.1006164
-0.17040053 0.216968 -0.10023543
0.026378147 0.216968 -0.10430416
-0.18153431 0.33770299 -0.10550407
-0.12807271 0.35198599 -0.1095666
0.083501935 0.35198599 -0.10357367
0.13823868 -0.35337001 -0.09215802
0.049436446 -0.29215923 -0.092378132
-0.0029877052 -0.2887682 -0.099601366
0.12736058 -0.17182031 -0.09631294
-0.20773999 -0.14846504 -0.094448052
-0.20773999 -0.050060287 -0.091155462
-0.058619905 0.15383931 -0.097593367
-0.20773998 0.21182592 -0.090149812
0.10992045 0.216968 -0.093166769
0.16138005 0.216968 -0.096626751
0.181548 0.21479103 -0.093669899
0.181548 0.316163 -0.097085692
-0.05779665 0.33770299 -0.09220466
0.11106439 0.35198599 -0.094448343
-0.1035936 -0.35337001 -0.082778022
-0.20773999 -0.33194691 -0.087537408
-0.11910599 -0.29777163 -0.080422983
-0.022764012 -0.29640785 -0.083327994
-0.20773998 -0.25243524 -0.084420629
-0.20773999 -0.21052101 -0.087266274
0.065944597 -0.00018727337 -0.080730572
0.12784339 0.042864576 -0.089512527
0.14110823 0.216968 -0.082675464
-0.20773999 0.33879623 -0.083972082
-0.088681266 0.33770299 -0.08440268
0.086410046 0.33770299 -0.089192174
0.044805709 0.35198599 -0.083172746
0.10815342 -0.18338639 -0.070295818
0.073379867 -0.16188911 -0.078688733
-0.20773998 -0.10212932 -0.074916199
0.15434653 0.061949868 -0.077079341
0.19096075 0.09556634 -0.07880833
-0.029805511 0.16273774 -0.072945468
0.0072811879 0.16354834 -0.070700221
0.072091497 0.16206977 -0.074795708
-0.099103093 0.216968 -0.071580313
0.097379588 0.33770299 -0.075235538
-0.12169683 -0.35337001 -0.068460368
-0.016991995 -0.30181074 -0.068284214
-0.20773999 -0.22476809 -0.061509944
-0.20773999 -0.12054166 -0.068979308
0.065944597 -0.060167193 -0.060952038
0.065944597 -0.022606187 -0.068292804
0.181548 0.1916855 -0.068410985
-0.11078838 0.216968 -0.069150329
0.046608228 0.216968 -0.062682331
0.1835409 0.31396541 -0.069009751
-0.15307193 0.33770299 -0.060227498
0.030042954 0.33770299 -0.064756848
0.10153575 0.33770299 -0.060847789
-0.12448007 0.35198599 -0.061167017
0.036235858 0.35198599 -0.069839865
0.1705246 0.3533074 -0.068822771
-0.068033889 -0.35337001 -0.057594337
0.019445524 -0.35337001 -0.058635712
-0.20773998 -0.17717692 -0.054177199
-0.20773998 -0.11461539 -0.052656412
-0.010044131 0.16742343 -0.059966553
0.15912507 0.1676736 -0.059273563
0.11000288 0.216968 -0.05912365
0.188466 0.29602331 -0.050455213
-0.20773999 0.32746369 -0.05989483
-0.019559272 0.35198599 -0.058929987
0.15312454 0.35198599 -0.056165032
0.015034449 -0.35337001 -0.043996725
0.056794763 -0.35337001 -0.049449805
0.15552416 -0.35337001 -0.041001894
0.11783659 -0.30667162 -0.04112909
0.065944597 -0.0055204462 -0.045715801
0.065944597 0.03554865 -0.047539555
-0.17772125 0.33770299 -0.044798061
0.087499626 -0.35337001 -0.036248505
-0.20773998 -0.30322838 -0.036738794
-0.10935977 -0.30821431 -0.032511093
-0.059200041 -0.30796528 -0.033901993
-0.20773999 -0.29059845 -0.035736021
0.065944597 -0.066000283 -0.036545578
-0.20773999 -0.033875644 -0.030623041
0.065944597 -0.026372928 -0.032021523
0.181548 0.17650095 -0.035473257
-0.16098008 0.216968 -0.035988726
-0.10737509 0.216968 -0.032749128
0.181548 0.28170919 -0.031228798
-0.068030298 0.33770299 -0.031688213
-0.0032760203 0.33770299 -0.031645775
0.00082204491 0.33770299 -0.031283647
0.032705959 0.33770299 -0.036719389
0.010127053 0.35198599 -0.036533657
-0.20773999 -0.35103065 -0.028996646
-0.20774001 -0.33343887 -0.026811983
-0.20773998 -0.32047868 -0.027181592
0.071821891 0.051089428 -0.027782712
-0.20773999 0.15039827 -0.022383468
0.10806254 0.17289746 -0.020713277
-0.043764256 0.216968 -0.020184714
0.10121496 0.216968 -0.026109859
0.14895888 0.216968 -0.022178471
0.17086878 0.216968 -0.026676506
0.181548 0.22285298 -0.02335301
-0.20773999 0.23142384 -0.020605259
0.181548 0.23474562 -0.027218506
0.181548 0.30247247 -0.02118735
-0.19757648 0.35321698 -0.022505395
-0.081075393 0.35198599 -0.020808049
0.15302363 0.35198599 -0.025008507
-0.12393384 -0.35337001 -0.01281926
0.11427888 -0.35337001 -0.013506174
-0.16563267 -0.31068802 -0.018691631
0.073418751 -0.31074607 -0.01836725
-0.20773999 -0.16488363 -0.013036251
0.065944597 -0.1168599 -0.01376113
-0.20774001 0.016674737 -0.010235779
-0.20773999 0.042212944 -0.016622707
-0.062093623 0.1736009 -0.012426033
0.18094163 0.173538 -0.013166904
-0.1576997 0.33770299 -0.013447866
-0.20490219 0.34909347 -0.012640316
-0.18754137 0.35198599 -0.011536747
-0.11729322 0.35198599 -0.010545768
0.11847226 0.35198599 -0.012579806
-0.14877634 -0.35337001 -0.0044250414
-0.062906712 -0.35337001 -0.0070425645
0.072889224 -0.35337001 -0.0021459535
0.171691 -0.35337001 -0.0073010474
0.15128034 -0.31157368 -0.0060794922
0.181548 -0.3135792 -0.00062057842
0.181548 -0.27575284 -0.0082279239
0.065944597 -0.084189139 -0.005369883
0.026677975 0.17434576 -0.0036508013
0.181548 0.29918295 -0.00068164058
0.17964061 0.34783068 -0.0044974051
-0.090375677 0.35198599 -0.0049860962
-0.086883739 0.35198599 -0.0053216517
-0.044899456 -0.35337001 0.0016753227
0.10695969 -0.35337001 0.0061207116
0.113942 -0.35337001 0.0090816244
-0.035493948 -0.31036368 0.008175768
-0.20773998 -0.28856921 0.0022078194
0.065944597 -0.032769684 0.0093361177
-0.20773999 0.30183476 0.0017113723
-0.19366559 -0.35337001 0.018174127
-0.0085236635 -0.35337001 0.016352013
0.17113298 -0.3101033 0.01124318
0.085089125 -0.30976734 0.015201168
0.11621415 -0.30994546 0.013102369
0.065944597 -0.10386658 0.014849987
-0.20773998 -0.043829817 0.017288394
0.065944597 -0.03724914 0.018744493
0.08119902 0.058102049 0.010140119
-0.20773998 0.15188095 0.014813229
0.12872079 0.17475224 0.016087215
-0.20774001 0.23526673 0.014474172
0.181548 0.26660427 0.011113405
-0.20773999 0.30363768 0.017176248
-0.14278686 0.33770299 0.01265195
-0.074409842 0.33770299 0.017960131
-0.00067034212 0.33770299 0.012807857
0.11839008 0.33770299 0.014651954
0.17429778 0.33770299 0.011793882
-0.075579941 0.35198599 0.019685566
0.10863307 -0.35337001 0.026783518
-0.20773999 -0.31235516 0.027103057
0.16481024 -0.3086381 0.02850461
0.18605974 -0.26103273 0.024684196
-0.20773999 -0.23664641 0.020391688
0.13134959 0.074068867 0.024226218
-0.20773999 0.088216253 0.023659339
-0.16294183 0.216968 0.020554423
0.181548 0.2749238 0.02469114
0.14248455 0.33770299 0.022937253
0.18027434 0.34670576 0.027081095
-0.16238478 0.35198599 0.021733046
0.181548 -0.35190767 0.032217368
-0.088855214 -0.30824909 0.033087648
-0.048696898 -0.30840075 0.031300828
0.18384928 -0.2646333 0.035566926
0.19482917 0.099510066 0.03587234
0.014204629 0.1704926 0.039883759
0.024981022 0.17169133 0.033187058
0.06236212 0.33770299 0.03778667
-0.20351067 -0.35337001 0.049547419
-0.083382003 -0.35337001 0.042727932
0.13814011 -0.35337001 0.042521596
0.181548 -0.31585366 0.047866605
0.14946643 -0.30743918 0.042628691
-0.20773998 -0.24512748 0.045085743
-0.20774001 -0.20139992 0.04560522
-0.18826069 0.16988598 0.04327273
-0.14543703 0.16986717 0.043377731
-0.19723967 0.216968 0.045373566
-0.17757079 0.216968 0.04240682
-0.0043048188 0.216968 0.04183656
0.18000536 0.216968 0.040728308
0.181548 0.22180755 0.046676956
-0.10550769 0.33770299 0.044599891
0.00058651157 0.35198599 0.047795851
-0.17395312 -0.35337001 0.059455626
0.15733616 -0.35337001 0.055848792
0.181548 -0.35036612 0.051696256
0.16341382 -0.21473704 0.05110202
0.13438866 -0.2023683 0.058153633
0.065944597 -0.1143119 0.054612953
-0.20773999 0.028677793 0.050309978
-0.079570182 0.16753884 0.056385122
0.054411791 0.16769664 0.055503551
0.13633667 0.16816974 0.052860599
0.099694356 0.216968 0.051764667
0.181548 0.23908775 0.057677522
-0.030788202 -0.30258065 0.063414373
0.0063234679 -0.30107373 0.067588449
-0.20773999 -0.054055132 0.067714654
0.065944597 -0.0011381423 0.068970621
0.065944597 0.0051208166 0.064818613
0.1635287 0.16557842 0.067336947
0.069471389 0.216968 0.065685362
-0.20773999 0.30936188 0.060053073
0.181548 0.30267894 0.068957262
-0.20773999 0.32067961 0.067479044
-0.17133752 0.35198599 0.063155569
-0.029992007 -0.35337001 0.077566743
0.12935123 -0.35337001 0.076411664
-0.060108192 -0.29978684 0.071153037
0.087498114 -0.29931688 0.072454818
0.13777044 -0.29754943 0.077350482
0.181548 -0.27167764 0.072115436
0.18898717 -0.23813209 0.078053236
-0.20773999 -0.22353098 0.076648273
0.065944597 -0.15892874 0.073701665
0.065944597 -0.11255886 0.076460168
-0.20773999 -0.079037935 0.074840672
0.065944597 -0.056949496 0.076379463
0.097396724 0.041455589 0.075608343
-0.17847236 0.35198599 0.076629743
0.17743421 0.35038999 0.073119566
0.025949985 -0.29565239 0.082605168
0.094718486 -0.29347605 0.088633463
0.1853513 -0.24606447 0.082389668
-0.20773999 -0.12897916 0.085815169
0.065944597 -0.10181285 0.088873819
-0.20773999 0.10831235 0.086977907
-0.13542658 0.15779269 0.0880429
0.0062877946 0.216968 0.089867055
-0.04248726 0.33770299 0.082293481
0.054243311 0.33770299 0.085577741
0.075464167 0.33770299 0.089904457
0.15693279 0.33770299 0.086320914
0.15631866 -0.18710086 0.097512558
-0.20773999 -0.12207516 0.095140167
-0.20774001 -0.11613449 0.098318793
-0.20773999 -0.074694872 0.093040988
-0.20773999 0.10461639 0.098850496
0.12682587 0.15279466 0.098689161
-0.20774001 0.18897474 0.093372896
0.054482721 0.216968 0.093458317
-0.14540587 0.33770299 0.098536097
-0.13644202 0.33770299 0.098463729
0.11589863 0.33770299 0.09547399
-0.01283727 0.35198599 0.092606455
-0.10814849 -0.35337001 0.10312312
0.16071403 -0.35337001 0.10536826
-0.19576788 -0.28751686 0.1051398
-0.0160948 -0.28751615 0.10514186
-0.20773999 -0.27133435 0.10640509
0.17413226 0.052376322 0.10371928
-0.032777566 0.14835455 0.10814697
-0.16394737 0.15102375 0.10246134
-0.20773999 0.17011188 0.10275331
0.0091969371 0.216968 0.10704429
0.08116769 0.216968 0.10897702
-0.20774001 0.27516153 0.10123448
0.17053303 -0.35337001 0.11651221
-0.09573406 -0.28098196 0.11789474
-0.089398891 -0.28140438 0.11728816
0.0037735351 -0.28336069 0.11447879
0.17718896 -0.17715387 0.11694204
-0.20773999 -0.043572135 0.1139276
0.11364928 0.003066902 0.11890484
0.17421687 0.045104526 0.11125427
0.16775361 0.14401034 0.11740054
0.18009956 0.14644441 0.11221572
0.073658302 0.216968 0.11506885
0.1585353 0.33770299 0.11705193
-0.0043294244 0.35198599 0.11302619
0.14368869 0.35198599 0.11841041
0.057867933 -0.35337001 0.12998396
0.15407075 -0.35337001 0.12717688
-0.19192401 -0.27845979 0.12151672
0.05314526 -0.27929682 0.12031469
0.085669413 -0.11827724 0.12013012
0.084682353 -0.090787888 0.12750363
-0.20773999 0.07142286 0.12698647
-0.1040702 0.13911958 0.12781827
0.035737038 0.14112824 0.12353966
-0.10393092 0.216968 0.12874675
0.030857008 0.216968 0.12298106
0.12642798 0.216968 0.12366983
-0.093916051 0.33770299 0.12885571
0.14247584 0.33770299 0.12053437
0.15494066 0.33770299 0.12916702
0.17821038 0.34966457 0.12671372
-0.0062495954 0.35198599 0.12966344
-0.16345038 -0.35337001 0.13682052
-0.14322086 -0.35337001 0.13471326
-0.099016212 -0.35337001 0.13725454
-0.010518219 -0.35337001 0.1362523
0.03550927 -0.35337001 0.13706547
0.12044071 -0.35337001 0.13632551
-0.044995729 -0.26907939 0.13498744
0.10689107 -0.032934416 0.1319067
-0.16112134 0.216968 0.13158785
-0.11212071 0.216968 0.13130787
-0.11753862 0.33770299 0.13324071
-0.096052006 0.33770299 0.13559705
0.12221451 0.33770299 0.13902606
-0.082606271 -0.35337001 0.14196506
0.043222427 -0.35337001 0.14897549
-0.20774001 -0.17484592 0.14897822
0.16600506 -0.13597617 0.140954
0.1542933 -0.12462056 0.14280975
-0.20774001 -0.10482983 0.14679489
-0.20773998 -0.087769933 0.14678596
-0.20773998 0.07691928 0.14547451
0.181548 0.093722336 0.14699394
0.181548 0.12294571 0.1443356
-0.054204963 0.216968 0.14356256
0.088398665 0.216968 0.14994349
0.063601784 0.35198599 0.14257215
-0.20709634 -0.35337001 0.1570394
0.078785196 -0.25739658 0.15176454
-0.20773999 -0.10711636 0.15596308
-0.06006711 0.11470378 0.15847294
0.13498482 0.11476738 0.15839754
0.181548 0.12727463 0.1582326
-0.20773998 0.18765193 0.15677071
-0.15621793 0.216968 0.15205601
0.181548 0.31060517 0.15933268
-0.20773999 0.33929148 0.15206814
-0.053086758 0.33770299 0.15742224
0.11625955 0.33770299 0.15966132
0.14833666 0.33770299 0.15091449
0.17122641 0.33770299 0.15808865
0.10265619 0.35198599 0.15074909
0.07534273 -0.35337001 0.16702643
-0.20773999 -0.31218249 0.16936122
0.12928018 -0.24224095 0.1697733
0.181548 -0.21390978 0.16899264
-0.20773999 -0.11261483 0.16099021
-0.20774001 -0.045171771 0.16464813
-0.20773999 0.042101543 0.16894841
-0.20773999 0.21165879 0.16017485
0.181548 0.2378252 0.16677231
0.071018219 0.33770299 0.16422448
-0.091444448 0.35198599 0.16152641
0.085131079 0.35198599 0.16270617
0.10727429 0.35198599 0.16138123
-0.13390349 -0.35337001 0.17732495
0.046381619 -0.35337001 0.17835617
0.180372 -0.3008613 0.17814974
-0.13107172 -0.23867707 0.17277949
-0.07591486 -0.2389034 0.17258856
0.12127632 -0.23015672 0.17996657
0.10469846 0.1000726 0.17581783
0.181548 0.12315699 0.17837939
-0.20773999 0.16772042 0.17504705
0.084939502 0.216968 0.1745027
0.11006355 0.216968 0.17798567
-0.14471105 0.33770299 0.17680511
0.041630752 0.33770299 0.17088383
-0.11405016 0.35198599 0.17702864
-0.18267708 -0.35337001 0.18301751
-0.20693301 -0.22087929 0.1877923
-0.19553483 -0.22722733 0.18243757
0.1153413 -0.22362004 0.18548042
0.18962339 -0.067688093 0.18434079
-0.093767405 0.085101232 0.18812452
0.181548 0.16709286 0.18619603
-0.1563061 0.216968 0.18349124
0.17356803 0.24781001 0.18666014
-0.20774001 0.25547376 0.18095867
0.161485 0.2566056 0.18746053
-0.14639297 0.33770299 0.18895012
-0.1774686 -0.21682349 0.19121344
0.0094966795 -0.21620283 0.19173698
0.181548 -0.16097158 0.19134071
-0.18188271 0.07220982 0.19710129
-0.11271599 0.076398328 0.19418468
0.14513089 0.076415658 0.19417261
0.15783939 0.080337346 0.19144179
0.18154798 0.20643556 0.19941333
-0.11302175 0.216968 0.19545886
-0.10936151 0.216968 0.19894142
-0.069512963 0.216968 0.19096568
0.099342704 0.35198599 0.19468457
0.10500826 0.35198599 0.19224581
0.006840162 -0.35337001 0.20864153
-0.20773999 -0.21010949 0.20968172
-0.094844997 -0.20500974 0.20117858
-0.13715921 -0.19319969 0.20864338
0.181548 0.0780771 0.20809427
0.181548 0.11497107 0.20068842
-0.20774001 0.12388318 0.20446034
-0.20244442 0.216968 0.20934381
-0.047142148 0.216968 0.20531097
0.12874666 0.216968 0.20058431
-0.20773999 0.30035287 0.20820361
-0.2060779 0.33770299 0.20218307
0.032195162 0.33770299 0.20975235
0.059548616 0.33770299 0.20780346
0.1609261 0.33770299 0.20898938
-0.15087537 0.35198599 0.20465827
-0.14374752 0.35198599 0.20831525
0.089226708 0.35198599 0.20672414
-0.042093739 -0.18875369 0.21073067
0.066136897 -0.18433613 0.21280462
0.181548 -0.12735927 0.21045186
-0.085992426 0.049587965 0.21285373
-0.057479449 0.043261707 0.21703216
0.011804007 0.041881301 0.21753055
-0.20773999 0.074936748 0.217456
0.181548 0.10790063 0.21250041
-0.20773999 0.157629 0.21970075
0.039775379 0.216968 0.21488306
-0.15319595 0.33770299 0.21331251
0.13575733 0.33770299 0.21348515
0.12850657 0.35198599 0.21329679
0.021537349 -0.35337001 0.22449368
0.054134883 -0.35337001 0.22460794
-0.20773998 -0.28839821 0.22830671
0.181548 -0.22934091 0.22801879
-0.20773999 -0.20526794 0.22953337
0.181548 -0.19047058 0.22276697
-0.11802512 -0.1643497 0.22218776
-0.11341573 -0.15146244 0.22823803
-0.05865363 -0.1560179 0.22609934
0.035889961 -0.15783316 0.22524711
0.080294937 -0.15734529 0.22547616
0.181548 -0.12806782 0.22344989
-0.072645381 0.012006998 0.22831628
-0.069603905 0.011237976 0.22859393
-0.016557962 0.011290257 0.22857505
-0.20774001 0.026918983 0.22575358
-0.20773999 0.22116964 0.22210711
0.181548 0.28236389 0.22768503
0.181548 -0.25323063 0.23837401
-0.20773999 -0.21383306 0.23180145
0.181548 -0.18035896 0.23326072
-0.12217876 -0.1404774 0.23289517
-0.13907719 -0.13745202 0.23343673
-0.12618113 -0.13807294 0.23332557
0.04411567 -0.13597424 0.23370126
-0.036399767 -0.12755649 0.23520806
-0.02206099 -0.12857005 0.23502663
-0.07096339 -0.11050374 0.23826058
-0.16307443 -0.10188517 0.23980334
-0.039984666 -0.106245 0.23902293
-0.015992537 -0.031666957 0.23975551
0.088978291 -0.028366048 0.23947534
-0.20710984 -0.015972013 0.23841776
0.084249765 -0.012950889 0.23732701
-0.20735447 -0.0075589996 0.23538034
-0.13753627 -0.007106957 0.23521712
-0.084240779 -0.0019566275 0.23335768
0.083347626 -0.0011759643 0.23307583
-0.12663919 0.00025334 0.2325598
-0.20773998 0.050323464 0.23146355
-0.20773998 0.070137218 0.23334649
-0.16767737 0.216968 0.2385954
0.10879131 0.216968 0.23175421
0.11895034 0.216968 0.23963395
0.17858317 0.216968 0.23698798
0.10544547 0.33770299 0.23917066
-0.075456947 -0.35337001 0.24532349
-0.20773998 -0.29697201 0.24025138
-0.15320367 -0.095588878 0.24093041
-0.0049047396 -0.095836416 0.24088609
0.11306846 -0.094724432 0.24108516
0.053559683 -0.077466883 0.24364313
-0.10586005 -0.053617567 0.24161875
0.14556347 -0.051828612 0.24146688
-0.096120656 -0.04636389 0.24100304
-0.080975592 -0.041318431 0.24057478
0.1164488 -0.047837578 0.24112813
0.035089329 -0.038665976 0.24034962
-0.20773999 0.060183842 0.24325301
-0.20773999 0.1136748 0.24494694
-0.20773999 0.20187302 0.24100894
0.049182553 0.216968 0.24248077
0.063125007 0.216968 0.24600063
0.181548 0.24507648 0.24209583
-0.12565714 0.33770299 0.24261791
0.09471488 0.33770299 0.24961643
-0.16171351 0.35198599 0.24409798
-0.0086786337 -0.35337001 0.2563242
0.035991117 -0.35337001 0.25574726
0.16740043 -0.35337001 0.2580125
-0.20773999 -0.17686252 0.2553823
-0.20773999 -0.163664 0.25643364
0.181548 -0.16351819 0.25370476
0.181548 -0.050565191 0.25615957
-0.20773999 0.0682576 0.25153077
-0.20773999 0.11901203 0.25838557
-0.13285214 0.33770299 0.2573835
0.181548 0.33369967 0.25898314
-0.04703011 0.35198599 0.25050393
0.0060305344 0.35198599 0.25369546
0.027065678 0.35198599 0.25686762
0.14470619 0.35198599 0.25777239
-0.090686046 -0.35337001 0.26788321
0.11307752 -0.35337001 0.2669616
0.12859389 -0.35337001 0.26807275
0.16939008 -0.35337001 0.26649839
0.181548 -0.028518923 0.26744324
0.181548 0.024192858 0.26203126
0.181548 0.045977436 0.26407579
-0.14195678 0.216968 0.2685183
0.031078869 0.216968 0.2691457
0.11290509 0.216968 0.26687118
0.181548 0.32115677 0.26709569
0.042505793 0.35198599 0.26840329
0.15297201 0.35323435 0.26927099
0.181548 -0.19115429 0.27468109
0.181548 -0.044259928 0.27054009
-0.20774001 -0.028791815 0.2704612
0.181548 0.046195261 0.27139974
-0.20773999 0.18252937 0.27059752
0.181548 0.18387598 0.27487105
0.181548 0.19495183 0.27504867
-0.11944479 0.216968 0.27048224
-0.052944388 0.33770299 0.27379212
0.10113666 0.33770299 0.27477387
-0.20264032 0.35116851 0.27839878
-0.16574898 0.35275769 0.27796739
-0.02440647 0.35337001 0.2723873
0.12862042 0.35334831 0.27466005
-0.061327152 -0.35092083 0.28630999
-0.049182862 -0.3506974 0.28630996
0.033821926 -0.35337001 0.28595796
0.1476579 -0.35160625 0.28630999
-0.11469406 -0.3308408 0.28630999
-0.098123454 -0.33576381 0.28630999
-0.20716339 -0.32720324 0.28630999
-0.18695462 -0.32213399 0.28630999
-0.15767367 -0.31927541 0.28630999
0.021682635 -0.30577457 0.28630999
0.098859906 -0.30186796 0.28630999
-0.20604163 -0.29333448 0.28630999
-0.20524006 -0.28791261 0.28630999
-0.051459257 -0.28054976 0.28630999
0.026407331 -0.28426296 0.28630999
-0.12204187 -0.27127367 0.28630996
0.12556483 -0.27259961 0.28630999
-0.17224568 -0.2616165 0.28630999
0.083043516 -0.26826459 0.28630999
-0.076747604 -0.24520652 0.28630999
-0.051176816 -0.23368102 0.28630999
0.062696233 -0.22046956 0.28630999
-0.077275567 -0.21059561 0.28630999
0.039916977 -0.2134859 0.28630999
-0.16271861 -0.2007663 0.28630999
0.084411211 -0.20092826 0.28630999
0.1230578 -0.2038559 0.28630999
-0.12624875 -0.19141357 0.28630999
0.17223471 -0.19551115 0.28630999
-0.10593246 -0.18331411 0.28630999
-0.087459691 -0.1897245 0.28630999
-0.073852085 -0.18712577 0.28630999
0.16261394 -0.18672243 0.28630999
-0.072840638 -0.17072326 0.28630999
-0.20773999 -0.16981155 0.28579244
0.10279424 -0.15751949 0.28630999
-0.0064381808 -0.14455307 0.28630999
-0.19381697 -0.1343805 0.28630999
0.17797948 -0.13860826 0.28630999
-0.01692453 -0.1217678 0.28630999
0.16128163 -0.12299152 0.28630999
-0.096530162 -0.11967333 0.28630999
0.14807275 -0.11222415 0.28630999
-0.014120378 -0.10135131 0.28630999
0.16098945 -0.10664019 0.28630999
0.077681951 -0.095181122 0.28630999
-0.18992871 -0.085940368 0.28630996
-0.069318816 -0.081344128 0.28630999
0.1012864 -0.082809761 0.28630999
-0.029976487 -0.052493293 0.28630999
0.056880407 -0.056911595 0.28630999
0.037807144 -0.048494801 0.28630999
-0.19576529 -0.031512588 0.28630999
-0.018000104 -0.035487019 0.28630999
0.054545663 -0.038371794 0.28630999
-0.071096845 -0.026137184 0.28630999
0.0033586901 -0.011502044 0.28630999
-0.067461357 -0.0033938363 0.28630999
0.011809976 -0.0053787874 0.28630999
0.16523951 0.02437862 0.28630999
-0.029676285 0.037998065 0.28630999
-0.037721992 0.047285344 0.28630999
0.030183487 0.041314647 0.28630999
0.057992641 0.04095817 0.28630999
-0.025942178 0.056492094 0.28630999
0.015233137 0.068522245 0.28630999
-0.013282221 0.079176597 0.28630999
0.12856393 0.08105354 0.28630999
-0.10588419 0.090318516 0.28630999
-0.12919506 0.10377428 0.28630999
0.181548 0.10678972 0.28442872
-0.14999165 0.11509602 0.28631002
-0.10431764 0.12287669 0.28630999
0.13086447 0.13263285 0.28630999
-0.1562705 0.14122096 0.28630999
-0.00014578551 0.14033112 0.28630999
0.0029494241 0.14229359 0.28630999
0.09387587 0.16261491 0.28630999
-0.16644001 0.18880716 0.28630999
-0.15771402 0.20956269 0.28630999
0.076287635 0.20996934 0.28630999
-0.13883905 0.2148031 0.28630999
-0.12780763 0.21932904 0.28630999
0.045858257 0.216968 0.28009006
0.16931811 0.216968 0.28127024
-0.099998526 0.2289654 0.28630999
-0.018846564 0.22737005 0.28630999
0.12476328 0.22620177 0.28631002
-0.11185421 0.23995331 0.28630999
0.15924796 0.23501654 0.28630999
-0.084032953 0.24984002 0.28630999
0.14025158 0.24978817 0.28630999
0.17723256 0.24096578 0.28630999
-0.20540723 0.26765817 0.28630999
0.010179749 0.26152343 0.28630999
-0.20262766 0.27296495 0.28630999
-0.13418613 0.27944028 0.28630999
0.0071088746 0.27930713 0.28630999
0.040616259 0.27047813 0.28630999
0.16719811 0.31550813 0.28630999
-0.025997907 0.32406229 0.28630999
0.089400895 0.3261047 0.28630999
0.012310512 0.33792365 0.28630999
0.032147959 0.33770299 0.28479594
0.05432415 0.33770299 0.28485757
0.088244982 0.33770299 0.28022256
