# .PCD v0.7 - Point Cloud Data file format
VERSION 0.7
FIELDS x y z
SIZE 4 4 4
TYPE F F F
COUNT 1 1 1
WIDTH 978
HEIGHT 1
VIEWPOINT 0 0 0 1 0 0 0
POINTS 978
DATA ascii
-0.10918546 -0.32565355 -0.23851401
-0.081459731 -0.32731399 -0.23011772
0.029856155 -0.32731399 -0.23722392
-0.13851783 -0.31998697 -0.23851401
-0.11030526 -0.30879119 -0.23851401
0.097675532 -0.2967 -0.23851401
-0.096979827 -0.28110814 -0.23851401
0.043261267 -0.28659928 -0.23851401
0.058829255 -0.28809249 -0.23851401
0.067803375 -0.27116272 -0.23851401
0.018510155 -0.26224935 -0.23851401
0.044621654 -0.26060924 -0.23851401
-0.29321796 -0.25469786 -0.23019217
-0.18318862 -0.2525818 -0.23851401
0.0017234385 -0.25964588 -0.23851401
0.036572374 -0.2569702 -0.23851401
-0.27516291 -0.2497616 -0.23851401
-0.024885133 -0.24316609 -0.23851401
-0.26645881 -0.23730899 -0.23851401
-0.19868404 -0.23826621 -0.23851401
0.16629443 -0.23897403 -0.23851402
0.21865693 -0.23624848 -0.23851401
-0.16761167 -0.22324376 -0.23851401
-0.090824112 -0.22398567 -0.23851401
0.17415324 -0.22415261 -0.23851401
-0.23001544 -0.21386296 -0.23851401
-0.17514646 -0.2121738 -0.23851401
0.24218731 -0.21876793 -0.23851401
-0.26113921 -0.20694791 -0.23851401
-0.17690092 -0.20528227 -0.23851401
0.077031553 -0.20367612 -0.23851401
0.085168839 -0.2074191 -0.23851401
0.090214275 -0.20188604 -0.23851401
0.18435135 -0.20418775 -0.23851401
-0.13327914 -0.19792444 -0.23851401
-0.19877657 -0.1825273 -0.23851401
0.030854717 -0.18381038 -0.23851401
0.22693019 -0.18928319 -0.23851401
-0.15825281 -0.17737457 -0.23851401
0.11936854 -0.17563106 -0.23851401
0.22157709 -0.17283645 -0.23851401
0.16002968 -0.16916193 -0.23851399
0.19081825 -0.16078302 -0.23851401
-0.20739059 -0.15893672 -0.23851401
-0.26252231 -0.14014164 -0.23851401
-0.25472981 -0.14766575 -0.23851401
-0.19564207 -0.14313263 -0.23851401
-0.0222858 -0.14871886 -0.23851401
-0.013770819 -0.14459306 -0.23851401
0.10524777 -0.14730984 -0.23851401
-0.25992957 -0.13381556 -0.23851401
-0.23669913 -0.13779673 -0.23851401
0.12168577 -0.1394991 -0.23851401
0.12201536 -0.12092692 -0.23851401
-0.17762071 -0.1162618 -0.23851401
0.20921917 -0.11305567 -0.23851401
-0.29321802 -0.10247033 -0.2377454
-0.27266389 -0.103215 -0.23851401
-0.19825451 -0.10914734 -0.23851401
0.22647414 -0.10169345 -0.23851401
-0.25761142 -0.098683409 -0.23851401
-0.17038223 -0.090607733 -0.23851401
-0.10906851 -0.09783379 -0.23851401
0.041928343 -0.094705254 -0.23851401
0.17594066 -0.094761506 -0.23851401
-0.12900783 -0.084244646 -0.23851401
0.04618717 -0.080097847 -0.23851401
0.064797945 -0.081734784 -0.23851401
-0.044066012 -0.076225266 -0.23851401
-0.28128925 -0.055332184 -0.23851401
-0.28101355 -0.045919806 -0.23851401
-0.12081257 -0.04319831 -0.23851401
-0.27480394 -0.033124864 -0.23851401
-0.29321799 -0.023196414 -0.23033011
-0.029634515 -0.01464212 -0.23851401
0.054698482 -0.015158109 -0.23851401
0.011437746 -0.0074282438 -0.23851401
0.12233015 -0.0043348074 -0.23851401
-0.25570694 0.0099926293 -0.23851401
0.17972912 0.0078267157 -0.23851401
-0.013631618 0.013941851 -0.23851401
-0.01262789 0.028404679 -0.23851401
0.2180583 0.02841235 -0.23851401
-0.16120443 0.044970781 -0.23851401
0.21655223 0.047771096 -0.23851401
-0.23000664 0.052932829 -0.23851401
-0.15559851 0.058018435 -0.23851401
-0.11601695 0.053386733 -0.23851401
-0.10417272 0.05346714 -0.23851401
0.045981217 0.052698601 -0.23851401
-0.18088374 0.064453147 -0.23851401
-0.15297523 0.066726081 -0.23851401
-0.074062064 0.074031033 -0.23851401
0.19461016 0.076161765 -0.23851401
0.26840812 0.076082364 -0.23851401
0.1730967 0.087533362 -0.23851401
-0.012126174 0.10043173 -0.23851401
0.00076112151 0.10784726 -0.23851401
0.11885235 0.10486636 -0.23851401
0.0047566183 0.11478038 -0.23851401
0.23083687 0.11688872 -0.23851401
0.19269362 0.12215941 -0.23851401
0.2319898 0.12061383 -0.23851401
0.11869641 0.1304757 -0.23851401
0.14983802 0.14144675 -0.23851401
0.25920656 0.14448369 -0.23851401
-0.21388766 0.15044068 -0.23851401
-0.081662692 0.15176332 -0.23851401
0.19099766 0.15214069 -0.23851401
0.16156982 0.16831312 -0.23851401
-0.15238562 0.17713976 -0.23851401
-0.02059564 0.17631897 -0.23851401
-0.021823257 0.18218753 -0.23851401
-0.00066269934 0.18044055 -0.23851401
0.12154356 0.18385196 -0.23851401
0.040434331 0.19749574 -0.23851401
0.082336619 0.19470863 -0.23851401
-0.21636276 0.2013424 -0.23851399
-0.071293242 0.20842296 -0.23851401
-0.27482659 0.21194094 -0.23851401
-0.15395337 0.21054116 -0.23851401
0.062833183 0.21183172 -0.23851401
0.18808819 0.21894042 -0.23851401
-0.24517693 0.22837609 -0.23851402
0.26749274 0.22834378 -0.23851401
-0.2404546 0.23231058 -0.23851401
-0.013640635 0.23389155 -0.23851401
0.021660194 0.23195745 -0.23851401
0.014368452 0.24611557 -0.23851401
-0.23204421 0.26053321 -0.23851401
-0.17716433 0.26300043 -0.23851401
-0.14137316 0.26633781 -0.23851401
-0.099311016 0.2663334 -0.23851401
-0.017183751 0.26195189 -0.23851401
-0.0015077218 0.2629531 -0.23851401
-0.19410998 0.2720224 -0.23851401
0.061532378 0.27641419 -0.23851401
-0.28296927 0.28745013 -0.23851401
-0.12617379 0.28677666 -0.23851401
0.02763205 0.28763077 -0.23851401
0.12231353 0.28267324 -0.23851401
0.15465033 0.28114566 -0.23851401
0.053000152 0.29707298 -0.23851401
0.070917733 0.29031247 -0.23851401
-0.12259714 0.30640382 -0.23851401
0.0033755898 0.30265695 -0.23851401
0.082398519 0.30959249 -0.23851401
-0.0086720586 0.31392199 -0.23851401
0.22543754 0.31673536 -0.23851401
-0.27583596 0.32464904 -0.23851401
-0.23865049 0.32731399 -0.23636299
-0.22391737 0.32418764 -0.23541713
-0.19355103 0.32731402 -0.23670329
-0.11573726 0.32731399 -0.23613226
-0.10125911 0.3268978 -0.23851401
0.043301515 0.32653642 -0.23851401
-0.12531577 -0.32731399 -0.2210336
-0.29321799 -0.29825449 -0.2276307
-0.29321799 -0.28338301 -0.22902688
-0.29321799 -0.25536439 -0.22172187
-0.29321799 -0.089252532 -0.2232253
0.26989701 -0.0019556675 -0.22609606
0.26989701 0.0041113049 -0.2295084
0.26989701 0.042692356 -0.22323093
0.26989701 0.15807618 -0.2223416
0.26989701 0.16248509 -0.22216967
-0.29321799 0.26233482 -0.22913474
0.26989701 0.29293874 -0.22294497
-0.18869072 0.32731399 -0.22001788
0.15427282 0.32731399 -0.22918548
-0.26738256 -0.32731399 -0.21733478
-0.29321796 -0.20295095 -0.21184742
-0.29321799 0.098884463 -0.21223903
0.26989701 0.15118647 -0.21154618
-0.29321799 0.17180869 -0.2199166
-0.29321799 0.27389205 -0.21621636
-0.20262647 -0.32731399 -0.205266
-0.13331263 -0.32731396 -0.20291263
-0.074364938 -0.32731399 -0.2085509
-0.047503434 -0.32731399 -0.2097268
0.020639189 -0.32731399 -0.20514277
0.083319724 -0.32731399 -0.20608336
-0.29321799 -0.28400537 -0.2001524
0.26989701 -0.23015009 -0.20413028
0.26989701 -0.2218964 -0.20831212
0.26989701 0.20040205 -0.20057376
0.26989701 0.28269759 -0.20458585
-0.21107745 0.32731402 -0.20203115
-0.038114153 0.32731399 -0.20566224
0.10682894 0.32731399 -0.20944133
-0.150911 -0.32731399 -0.19074586
0.096468218 -0.32731399 -0.19994971
-0.29321796 -0.20342432 -0.19198866
0.26989701 -0.075188614 -0.19743028
-0.0033421442 0.32731399 -0.19741519
0.10372261 0.32731399 -0.19872676
0.15984696 0.32731399 -0.196141
-0.024637163 -0.32731399 -0.18061221
0.26989701 -0.31500527 -0.18108483
-0.29321799 -0.26096395 -0.18893336
0.26989698 -0.26382461 -0.18929437
-0.29321799 -0.18857382 -0.18311146
-0.29321799 -0.13639152 -0.18957534
0.26989701 0.17333266 -0.18176875
0.26989701 0.289096 -0.18347299
0.14998393 0.32731402 -0.18507321
-0.28555781 -0.32731399 -0.1743964
-0.19806091 -0.32731399 -0.1727258
0.21623228 -0.32731396 -0.17654248
0.26989701 -0.1859327 -0.17181647
-0.29321799 -0.011911355 -0.17763536
0.26989701 -0.0070891776 -0.17545165
0.26989701 0.015499052 -0.1774005
-0.29321799 0.11005814 -0.17012629
-0.29321799 0.19782771 -0.17822315
-0.10450645 0.32731399 -0.17656207
0.007072337 0.32731399 -0.17441528
0.19661504 0.32731399 -0.17446576
-0.14254692 -0.32731399 -0.16604553
-0.039411463 -0.32731402 -0.16153255
0.2141256 0.012380178 -0.16031952
0.05198881 0.022437492 -0.16223052
0.24554062 0.020703336 -0.16190101
-0.15063876 0.0316482 -0.16250937
0.26989701 0.16533174 -0.16182297
-0.26096043 0.32731396 -0.16720356
-0.10748015 0.32731402 -0.16392654
0.092676729 0.32731399 -0.16336234
0.22728136 0.32731399 -0.16993576
-0.21881756 -0.32731402 -0.15285958
-0.060666382 -0.32731399 -0.15611377
0.014158748 -0.32731399 -0.15557277
-0.29321799 -0.26555011 -0.15228787
0.26989701 -0.26796305 -0.15863296
0.26989701 -0.15885255 -0.1599579
0.10682484 -0.0307036 -0.15213315
0.092470378 -0.023667473 -0.15347008
0.13770013 -0.026989384 -0.1528389
0.20582685 -0.026180441 -0.15299261
-0.049782328 -0.017912308 -0.15456362
-0.0075032376 -0.013015096 -0.15549415
-0.10248031 -0.0056071295 -0.15690175
-0.093472347 -0.0036458354 -0.15727441
0.074205808 -0.0084465425 -0.15636222
-0.033391625 0.0090746572 -0.15969144
0.12033961 0.0081385979 -0.15951358
0.27527452 0.008013241 -0.154713
-0.088655762 0.048021454 -0.15939826
-0.033123858 0.047147185 -0.15956439
0.023621038 0.046531364 -0.15968141
0.055030458 0.045167465 -0.15994057
0.27496183 0.048134554 -0.15891577
-0.29321799 0.06925343 -0.155449
-0.17382847 0.064591341 -0.15624982
0.042249501 0.063960657 -0.15636966
0.068213336 0.066926487 -0.15580611
0.15710641 0.066008449 -0.15598056
0.18521702 0.069503509 -0.15531644
0.23183709 0.068863288 -0.1554381
-0.18037222 0.070068315 -0.15520912
-0.13399552 0.071080595 -0.15501678
-0.12817934 0.074290574 -0.15440686
0.083102934 0.073742822 -0.15451095
0.24906269 0.078597024 -0.15358858
-0.29321799 0.083891891 -0.1557335
0.0030670837 0.088040859 -0.15179417
-0.29321796 0.11655295 -0.15099916
-0.29321799 0.18605167 -0.15680787
-0.29321799 0.22086412 -0.1513336
-0.29321799 0.29834118 -0.15838814
-0.16549671 -0.32731396 -0.14350379
-0.093269065 -0.32731399 -0.14856029
0.26989701 -0.28278708 -0.14307588
-0.29321799 -0.21843536 -0.14384878
0.26989701 -0.19491675 -0.14332169
0.036005661 -0.047683008 -0.14493391
0.23197001 -0.04648098 -0.14570113
0.28604108 -0.013543457 -0.1481991
-0.180454 0.010357564 -0.14229022
0.27715161 0.09664271 -0.14381585
-0.00275575 0.10764894 -0.14211752
-0.29321799 0.2047241 -0.14043328
-0.28697559 0.32731402 -0.14369796
0.013931744 0.32731399 -0.14932328
0.016378652 -0.32731399 -0.13989654
0.26989701 -0.31671906 -0.13158605
0.26989701 -0.30895406 -0.13789262
0.26989701 -0.23187724 -0.13865523
-0.13500562 -0.06283091 -0.13526559
-0.083468273 -0.067614317 -0.13221255
0.11019088 -0.061525874 -0.13609856
-0.058412667 -0.059037663 -0.13768667
-0.18045399 -0.043650147 -0.13050638
0.27036399 -0.030411363 -0.13880305
0.27036399 0.047273301 -0.1346308
-0.29321799 0.051490374 -0.13191372
-0.17975825 0.11611123 -0.13671641
-0.018289622 0.11401714 -0.13805297
0.22188491 0.11430424 -0.13786975
0.26989701 0.1144937 -0.13145512
0.29321799 0.11104044 -0.13258521
0.16915417 0.12390161 -0.13174416
-0.21926621 0.32731402 -0.13705495
-0.21869004 -0.32731399 -0.12667212
0.21642397 -0.32731402 -0.12797669
-0.29321799 -0.27519014 -0.12972584
-0.29321799 -0.14134882 -0.12628712
-0.082106382 -0.077464424 -0.12592562
0.27036399 -0.023799956 -0.12786618
0.27036399 0.012813701 -0.12593976
0.040490523 0.13099375 -0.12721758
0.23683141 0.1390018 -0.1221064
-0.29321799 0.22217493 -0.12293039
0.26989701 0.23620717 -0.12983087
-0.01192987 0.32731399 -0.12326593
0.10236329 -0.32731399 -0.11174542
0.12713158 -0.32731399 -0.11895385
0.26989701 -0.2778385 -0.11484982
0.26989701 -0.21952698 -0.11266731
0.26989701 -0.10663736 -0.11316487
0.038364261 -0.092451312 -0.11636008
0.1193619 -0.09647236 -0.11284712
0.29321799 -0.025701333 -0.11149859
-0.18045399 0.13182285 -0.11956534
-0.065729283 0.14292079 -0.11960509
-0.29321799 0.16547447 -0.11818065
-0.29321799 0.30229118 -0.11482897
0.029318329 0.32731399 -0.11435468
-0.22578293 -0.32731399 -0.10962084
-0.16575596 -0.32731399 -0.10887164
-0.15490225 -0.32731399 -0.10938763
-0.14305553 -0.32731399 -0.10725403
-0.060909107 -0.32731399 -0.1091969
-0.29321799 -0.28894359 -0.10488519
-0.29321799 -0.26707157 -0.10798898
0.26989701 -0.15796828 -0.10918577
-0.29321799 -0.1353507 -0.10203746
-0.180454 -0.099044427 -0.10149698
-0.29321799 -0.0161562 -0.100116
-0.013150143 0.15615101 -0.10695014
0.039379284 0.15571302 -0.1075763
-0.23348166 0.32731399 -0.10884042
-0.19978976 0.32731396 -0.10672541
0.16605961 0.32731399 -0.10073135
0.20625184 0.32731399 -0.10601394
0.21053934 0.32731402 -0.10017409
-0.1850182 -0.32731399 -0.094296724
0.24025375 -0.32731402 -0.091083214
-0.29321799 -0.28294078 -0.09229359
-0.29321799 -0.16074237 -0.099166669
-0.063556686 -0.11064336 -0.092588298
0.28412136 -0.089498073 -0.091144159
0.27036399 -0.076980129 -0.098578162
-0.29321796 0.039827295 -0.093444839
0.29321799 0.079099618 -0.097768903
0.29321799 0.1277913 -0.098390795
-0.29321799 0.15093803 -0.097090885
-0.180454 0.15856454 -0.091557324
-0.08553341 0.16315004 -0.096944444
-0.054863334 0.16504753 -0.094231822
0.06205355 0.16388285 -0.095896825
0.26989701 0.214524 -0.0994028
0.13822436 0.32731399 -0.096006162
-0.26404452 -0.32731399 -0.08049608
-0.068760842 -0.32731399 -0.086891852
0.21588454 -0.32731399 -0.083502345
0.26989701 -0.28618792 -0.088992104
-0.052381694 -0.11495341 -0.086426653
-0.035004206 -0.11795138 -0.082140781
0.29321799 -0.077758014 -0.084507346
-0.29321799 -0.00047681481 -0.082028642
-0.180454 0.0066512269 -0.083344415
0.29321799 0.039253447 -0.089971013
0.29321799 0.055278227 -0.086969055
0.29321799 0.11744513 -0.081449233
0.29020262 0.16205144 -0.085503705
0.089432426 0.17414995 -0.081219137
0.26989701 0.18289524 -0.085247695
0.26989701 0.29818749 -0.085716173
-0.035644289 0.32731399 -0.088824406
0.056343853 0.32731399 -0.087725244
-0.1896069 -0.32731399 -0.077613711
-0.077001862 -0.32731399 -0.072413258
0.26989701 -0.27974269 -0.077279083
-0.062537082 -0.12118167 -0.077522755
-0.12920463 -0.11952385 -0.079892777
0.27036399 -0.058731146 -0.074181803
0.29321799 -0.015196614 -0.079168491
-0.180454 0.0039956942 -0.070915788
0.29321799 0.098391138 -0.077383928
0.27036399 0.1697816 -0.071948364
-0.031892978 0.17891811 -0.074402645
0.22267765 0.17554495 -0.079224855
0.24241206 0.17722368 -0.076824963
0.024530016 0.18019411 -0.07257849
0.10765599 0.18176842 -0.070327871
-0.20333543 0.32731399 -0.073708363
-0.15717244 0.32731399 -0.077363335
-0.018092431 0.32731402 -0.072900847
0.090445898 0.32731399 -0.076626375
-0.23472083 -0.32731399 -0.0688738
0.1155155 -0.13285963 -0.060827959
-0.1347713 -0.12809464 -0.067639962
0.060280807 -0.1264776 -0.069951706
0.27596188 -0.10671893 -0.0616576
0.28422394 -0.10420077 -0.066814832
0.29321802 -0.025761619 -0.06587825
0.29321799 -0.0069647157 -0.060021292
-0.18045402 0.05348742 -0.064440176
-0.29321799 0.062538259 -0.062195122
0.29321799 0.06532561 -0.069044754
0.29321799 0.07676097 -0.063143089
-0.29321799 0.082894206 -0.060040992
0.21614589 0.18383783 -0.067369454
-0.27815241 0.32731396 -0.069292672
-0.045329437 0.32731399 -0.062473953
-0.098024175 -0.32731399 -0.052218273
-0.29321796 -0.27512914 -0.057277784
-0.29321799 -0.2679351 -0.055506147
0.26989701 -0.24883099 -0.059140645
-0.0049762651 -0.13398179 -0.055912673
-0.29321799 0.054988559 -0.054721449
0.0038181469 0.1895138 -0.056017891
0.013016656 0.18963926 -0.055415452
-0.10377716 0.19032095 -0.052141659
0.18523143 0.19008727 -0.053263869
-0.18972616 -0.32731399 -0.04925368
0.27036399 -0.092109032 -0.04365718
-0.29321799 -0.025215937 -0.042336471
-0.180454 -0.0033646896 -0.042734787
-0.18045399 0.0028703418 -0.04722489
-0.180454 0.075756334 -0.044089507
-0.17072883 0.19172625 -0.045392703
0.26989701 0.28078905 -0.048747245
0.26989701 0.31824929 -0.041462645
-0.27802899 -0.32731399 -0.037799008
-0.29321799 -0.30614722 -0.037576206
-0.07204219 -0.13807437 -0.036259733
0.10246689 -0.138705 -0.033231426
-0.180454 -0.10568592 -0.031000556
-0.180454 -0.099753715 -0.031271372
-0.180454 -0.08973217 -0.03947594
0.29321799 -0.085212596 -0.033170979
-0.29321802 -0.045698952 -0.035419166
-0.29321799 0.044408705 -0.031187315
0.29321799 0.090163633 -0.036438286
-0.180454 0.11380132 -0.039057266
-0.180454 0.13200605 -0.035980504
0.047891378 0.1941992 -0.033516597
-0.29321799 0.23529309 -0.034303725
-0.27589628 0.32731402 -0.030686013
-0.24817526 0.32731399 -0.031750031
-0.22989264 0.32731399 -0.038394958
-0.095560201 0.32731399 -0.035181984
0.067518614 0.32731399 -0.033329848
0.17991686 0.32731399 -0.033521354
-0.27777022 -0.32731402 -0.022223189
-0.1770142 -0.32731402 -0.021751128
0.012028888 -0.14059389 -0.024160836
-0.10534958 -0.13953482 -0.029246554
0.26989701 -0.13272442 -0.02311933
-0.180454 -0.066908605 -0.024227923
-0.29321799 0.016315978 -0.02568591
0.29321799 0.015011338 -0.026628669
-0.180454 0.031611077 -0.020110128
0.29321799 0.05701866 -0.025874592
0.16327696 0.19671291 -0.021444621
0.26568657 0.19558626 -0.02685526
0.056284428 0.32731399 -0.023961898
0.097344056 0.32731399 -0.027446132
0.2273518 0.32731399 -0.026334941
-0.24607699 -0.32731399 -0.018476039
-0.22841629 -0.32731399 -0.017123111
0.26989701 -0.23099674 -0.013245311
-0.29321799 -0.17116347 -0.012938764
-0.056051131 -0.14267655 -0.014159774
0.052279666 -0.14279231 -0.01360388
0.15003799 -0.14276826 -0.013719304
-0.180454 -0.067151532 -0.014143654
0.29321799 -0.031443194 -0.015523531
-0.180454 -0.0054445677 -0.010108817
-0.180454 0.03203325 -0.013330772
0.29321799 0.095958322 -0.014195923
-0.18045402 0.13756007 -0.01085378
0.29321799 0.14689803 -0.012206503
0.27036399 0.15961705 -0.012390303
0.28950357 0.18750185 -0.014751094
0.29134229 0.18749334 -0.015671421
0.095153943 0.19862638 -0.012255286
0.26989701 0.25314206 -0.019134853
-0.19931233 0.32731399 -0.019234836
-0.036078539 0.32731399 -0.013137861
-0.29321799 -0.15708336 -0.0091943517
0.13399114 -0.14394639 -0.0080617955
0.23644011 -0.14391848 -0.0081958901
0.28502738 -0.11972424 -0.0031517572
0.099249788 0.19925393 -0.0092415456
0.09569668 0.20018059 -0.0047912579
0.26989701 0.30260086 -0.0020276755
0.2185985 0.32731399 -0.0047741011
-0.29321799 -0.321491 0.0059757829
0.064819314 -0.32731399 0.0052847713
0.14485148 -0.32731399 0.0077723227
-0.17973095 -0.14624254 0.0030071903
0.18761601 -0.1452716 0.004729961
-0.180454 -0.061067689 0.0098661082
-0.180454 0.018340074 0.0010696758
-0.068813756 0.20112781 0.0062140459
-0.29321799 0.25367218 0.0031049624
-0.081894048 0.32731399 0.0059790947
0.064095184 0.32731399 0.0093531385
0.20469132 0.32731399 0.0079895258
-0.056022897 -0.32731399 0.016815118
-0.29321799 -0.2424714 0.011142902
-0.099902071 -0.14428303 0.012417246
-0.069320187 -0.14434507 0.012119228
-0.038750701 -0.14314459 0.017884202
0.046204507 -0.14297637 0.018692018
0.29321796 0.014527583 0.015913799
-0.18045402 0.07420747 0.018662721
-0.180454 0.17468414 0.01314136
0.29321799 0.18161142 0.012220357
0.22439334 0.1991851 0.015544027
-0.29321799 0.30854109 0.011968166
-0.096524246 0.32731399 0.010318812
-0.062973075 0.32731399 0.013444155
-0.22557855 -0.32731399 0.029980853
-0.14803758 -0.32731399 0.027282059
0.26989704 -0.3028627 0.023747757
0.26989701 -0.25717211 0.0231269
-0.29321799 -0.17329036 0.020068265
-0.087398708 -0.14265609 0.020230033
-0.01240696 -0.141516 0.025705008
0.27036399 -0.10205443 0.025921397
0.29321799 0.0051432243 0.023228694
-0.29321799 0.12105314 0.024667773
-0.180454 0.1582846 0.029286336
0.29321799 0.16638194 0.020086976
-0.29321799 0.24901319 0.023223422
0.081122607 0.32731399 0.027684741
0.2157373 0.32731399 0.020594209
-0.024377152 -0.32731399 0.034852445
0.078427017 -0.32731396 0.039802797
0.19016449 -0.32731399 0.035481364
0.22625646 -0.32731399 0.035327516
0.26766554 -0.32731399 0.03203889
0.26989701 -0.29467481 0.037748516
0.038908735 -0.14021648 0.031945467
0.05132807 -0.14037572 0.031180833
-0.11245899 -0.13989922 0.03346901
-0.10575902 -0.13960229 0.034894913
0.26989701 -0.13598761 0.033611745
0.28630725 -0.11561363 0.033617824
-0.180454 0.14052403 0.03809176
0.29321799 0.14566037 0.033414412
-0.29321799 0.2010771 0.035533424
-0.14399537 0.32731399 0.038249329
-0.047151975 0.32731399 0.039089482
0.18637024 0.32731399 0.036400862
-0.1748146 -0.32731399 0.043123186
-0.29321799 -0.31611612 0.048777841
-0.11781122 -0.1375834 0.044589922
-0.29321799 -0.0330966 0.043919418
0.023063116 0.19285394 0.045949697
0.26989701 0.28595835 0.047234818
-0.13235013 0.32731399 0.043051206
-0.01450236 0.32731399 0.047072589
0.084446661 0.32731399 0.043624848
0.17385952 0.32731399 0.044100408
-0.15297501 -0.32731399 0.057606526
-0.13358413 -0.32731399 0.05717542
-0.095427223 -0.13552247 0.054486964
-0.036416471 -0.13640431 0.050252255
-0.180454 -0.12046515 0.059674095
-0.29321799 -0.061391566 0.05382666
0.14405476 0.19019189 0.058734298
-0.28666162 0.32731399 0.054284006
-0.21506484 0.32731399 0.055170778
-0.16761687 0.32731399 0.051415108
-0.29321799 -0.22523323 0.067660414
-0.29321799 -0.11629241 0.065577939
0.27049127 -0.1033795 0.065101467
0.29297376 -0.10377555 0.064561136
-0.29321799 -0.090915278 0.061862536
-0.18045399 -0.080509022 0.06768854
-0.29321799 0.029874664 0.06924399
0.29321799 0.088341683 0.066155292
-0.29321799 0.14986789 0.060026702
0.16409093 0.18938515 0.062608711
-0.29321799 0.24810004 0.061154462
-0.29321799 0.31463161 0.064554878
-0.2690064 0.32731399 0.060404636
-0.080197461 0.32731399 0.062806904
0.24065474 0.32731399 0.063894317
-0.10941484 -0.32731399 0.077856578
0.26989701 -0.24204379 0.072653696
0.26989701 -0.22745275 0.075500458
-0.29321799 -0.16829059 0.070915997
-0.046403572 -0.12822232 0.073430344
0.060318291 -0.12648079 0.075919971
0.11362933 -0.12961867 0.071434163
-0.29321799 -0.10670893 0.073672488
0.29321799 -0.065048382 0.076103389
-0.180454 -0.0028847111 0.072896771
-0.29321799 0.021474469 0.072970971
0.29321799 0.041392043 0.075565673
-0.180454 0.14551643 0.072898634
0.14084601 0.1806165 0.07794743
-0.2393575 0.32731399 0.074222043
-0.14424652 0.32731399 0.07232438
0.023788843 0.32731402 0.07764224
0.16667649 0.32731399 0.074086443
-0.043907784 -0.32731399 0.089174546
0.18873203 -0.32731399 0.088830158
0.26989701 -0.23012915 0.084373437
-0.29321799 -0.22881918 0.083660156
0.29321799 -0.076419316 0.085953593
0.29321799 -0.046352923 0.088469274
-0.14158586 0.17638539 0.083996043
-0.029687148 0.1779637 0.081739746
-0.29321799 0.23608921 0.083912589
-0.14801531 -0.32731399 0.090784617
-0.13715279 -0.32731399 0.095859498
0.26989701 -0.32159269 0.098700285
-0.29321799 -0.2601223 0.098105684
-0.29321799 -0.21765816 0.090380594
-0.087670073 -0.11412627 0.093581632
-0.18045399 0.012847658 0.094717257
-0.29321799 0.034266349 0.09132953
0.27036399 0.14893347 0.098292395
-0.10448828 0.16922149 0.094237283
0.26078948 0.16898876 0.094569959
-0.29321799 0.17673922 0.091292694
-0.11340515 0.17151706 0.09095563
0.079023749 0.17194025 0.090350643
-0.29321799 0.1848594 0.099092983
-0.26142797 0.32731399 0.097702034
-0.10770577 0.32731399 0.095968902
0.0046940669 0.32731402 0.09243919
0.11365548 0.32731399 0.090282597
0.15661272 0.32731399 0.09454336
0.2356019 0.32731399 0.093561023
-0.075239629 -0.32731399 0.10245086
0.16465262 -0.32731399 0.10391064
-0.29321799 -0.27536047 0.10521777
0.26989701 -0.16400938 0.10465556
0.26989701 -0.11672172 0.10735552
-0.023537606 -0.10919994 0.10062417
0.15700997 -0.1085941 0.10149028
0.24472177 -0.10488288 0.10679572
-0.29321799 0.0060608611 0.10378247
-0.029197522 0.15832444 0.10981527
0.26989701 0.21195252 0.10689405
-0.22335073 0.32731399 0.10752622
-0.0096721984 0.32731399 0.10109432
0.047804691 -0.32731399 0.11959652
0.19510925 -0.32731399 0.11208954
0.26989701 -0.32425496 0.11122456
0.080889657 -0.10003652 0.11372393
-0.11799096 -0.099065587 0.11511195
0.13314885 -0.099119797 0.11503446
0.26989701 -0.068931982 0.1179975
0.29321799 -0.055799328 0.11897857
-0.180454 -0.017432086 0.11618353
0.29321799 0.038206298 0.11157936
0.29321799 0.044213969 0.11231158
0.27036399 0.13116167 0.114855
0.10588638 0.15269318 0.11786547
0.26989701 0.16841173 0.11668368
0.079263657 0.32731399 0.11796027
0.12026265 0.32731399 0.11680521
-0.15847509 -0.32731399 0.12491224
-0.098277591 -0.32731399 0.12923393
0.1793479 -0.32731399 0.12292369
-0.29321799 -0.2547321 0.1285411
0.26989701 -0.25038242 0.12974188
0.26989701 -0.21706745 0.12534343
0.0087552294 -0.092493065 0.12230543
0.11466691 -0.094120272 0.12126686
-0.092484623 -0.083797976 0.12785518
0.061723694 -0.089580536 0.12416439
0.16197836 -0.088829599 0.12464367
0.20929024 -0.086153917 0.12635146
0.27036399 -0.012442901 0.12547164
-0.18045399 -0.0086143445 0.12977609
-0.29321799 0.039187692 0.12714639
0.28911269 0.12606406 0.1248552
-0.074559413 0.13669975 0.1295477
-0.29321799 0.19972497 0.12508041
-0.29321799 0.2057115 0.12235626
0.26989701 0.21016166 0.12483931
0.26989701 0.26490349 0.12429187
-0.29321799 0.30411729 0.12045342
0.26989701 0.30783784 0.12938948
-0.079684839 0.32731399 0.12207294
0.03503105 0.32731399 0.12031467
-0.17982101 -0.079934724 0.13032094
-0.077647768 -0.078036159 0.1315327
0.04044088 -0.065754965 0.13937129
-0.18045399 -0.043727405 0.13880518
-0.180454 0.0061844587 0.1349974
-0.29321799 0.01281897 0.13993129
0.29321799 0.073867381 0.1396579
-0.13218912 0.13317338 0.13179843
-0.12835374 0.32731399 0.13702248
0.26989701 0.32070941 0.13368684
-0.1898139 -0.32731399 0.14827311
-0.15347134 -0.32731402 0.14537159
-0.043643706 -0.32731399 0.14560202
0.26989701 -0.14550918 0.14480105
-0.14572051 -0.058465261 0.14402401
-0.045357473 -0.059338361 0.14346674
0.070563741 -0.054267425 0.14670333
0.14474502 -0.058233656 0.14417185
0.17009981 -0.051231306 0.14864115
-0.29321799 -0.0025564134 0.14846596
0.27036399 0.0070971707 0.1433298
0.27036399 0.025582796 0.14553301
0.27036399 0.039218523 0.1425395
-0.29321799 0.074351937 0.14958285
0.024551997 0.1149491 0.14343014
0.095780894 0.11473756 0.14356516
-0.29321802 0.19721419 0.14517999
0.26989701 0.31411752 0.14683095
-0.099304438 0.32731399 0.14949752
-0.081649601 0.32731399 0.14230835
-0.28344837 -0.32731399 0.1511263
-0.23726143 -0.32731399 0.15389124
0.26989701 -0.31438303 0.15716857
0.071451329 -0.040757194 0.15532638
-0.0081388801 -0.037643105 0.15664378
-0.08209876 -0.027583189 0.15869805
-0.29321799 -0.017764643 0.15440756
0.28276366 0.022581026 0.15415148
-0.180454 0.051725999 0.15279172
-0.180454 0.065612122 0.15346031
0.28951773 0.067475468 0.15155995
-0.13905361 0.084337182 0.1584699
-0.068456545 0.084839381 0.15837446
0.20790432 0.084648669 0.15841071
0.096986771 0.099654347 0.15319209
-0.29321799 0.16819897 0.15460014
0.26989701 0.18026453 0.15752649
-0.29321802 0.27776772 0.15437558
-0.27246052 0.32731399 0.1508213
0.03862977 0.32731399 0.15306012
0.24975005 0.32731399 0.15362099
-0.21683949 -0.32731399 0.16709919
-0.11915037 -0.32731399 0.16074762
0.13288468 -0.32731399 0.16282937
0.26989704 -0.17900927 0.16587599
-0.29321799 -0.0077155679 0.16216883
-0.094962776 -0.0023155008 0.16349918
0.033164397 -0.0040332079 0.16317281
-0.13252439 0.0024732444 0.1644091
0.13168567 0.0074387351 0.16535258
0.26989701 0.0092690773 0.16619089
-0.12839833 0.017174497 0.16720249
0.10579973 0.033163797 0.16819337
-0.17984553 0.049422264 0.16510409
-0.007701762 0.048609622 0.16525853
0.098292217 0.05424675 0.1641874
0.11014615 0.053314969 0.16436444
-0.11951347 0.073524594 0.1605244
0.26989701 0.30364674 0.16909501
-0.24681115 0.32731396 0.16652887
-0.080215558 0.32731396 0.16465795
-0.025209337 0.32731399 0.16044296
0.0037641451 -0.32731399 0.17485645
0.16271332 -0.32731399 0.17125447
0.19697818 -0.32731399 0.17769726
-0.29321799 -0.31487703 0.175458
-0.29321799 0.15416828 0.17830914
0.26989701 0.22744539 0.17942429
0.22783752 0.32731399 0.17993635
-0.18954092 -0.32731399 0.18338145
0.22674853 -0.32731399 0.18971446
-0.29321799 -0.29050139 0.18451418
-0.29321799 -0.26486152 0.18477423
-0.29321799 -0.24877357 0.18503033
-0.29321799 0.10669115 0.18311268
-0.29321799 0.2896075 0.18228324
0.26989701 0.29394716 0.1831184
-0.29076126 0.32731399 0.18830058
-0.12980545 0.32731399 0.1821253
0.032954268 0.32731399 0.1819104
0.20333943 0.32731396 0.18691626
-0.28892928 -0.32731399 0.19742569
-0.096539542 -0.32731399 0.19821167
0.14772649 -0.32731399 0.19503579
0.2119454 -0.32731399 0.19876476
-0.29321799 -0.28440407 0.19175194
-0.29321799 -0.042199865 0.19441906
-0.25342771 0.32731399 0.19421481
0.26843977 0.32731402 0.19187713
-0.12191612 -0.32731399 0.20493382
-0.29321799 -0.15298253 0.20661598
0.26989701 -0.050439805 0.20317236
0.26989701 0.073621631 0.20974971
0.26989704 0.15000749 0.20111346
0.26989701 0.20496199 0.20816682
-0.032823522 0.32731396 0.20599869
-0.23266403 -0.32731399 0.21027207
-0.18601322 -0.32731402 0.21183261
-0.13990097 -0.32731399 0.21680361
0.25220615 -0.32731399 0.21932924
0.26989701 -0.11332934 0.21084204
-0.29321799 -0.076769128 0.2125099
0.26989701 -0.053319395 0.21647254
0.26989701 0.13251287 0.21862741
-0.29321799 0.17660487 0.21216807
0.26989701 0.18960814 0.21479169
-0.26315141 0.32731399 0.21238834
-0.15094486 0.32731396 0.21617752
-0.1322965 0.32731399 0.21907106
-0.19392425 -0.32731399 0.22232026
-0.17361422 -0.32731402 0.22453013
-0.075560555 -0.32731399 0.22421509
-0.0024646521 -0.32731399 0.22154525
0.012763608 -0.32731399 0.22460511
0.12440083 -0.32731399 0.22041275
0.15284371 -0.32731399 0.22574629
0.18841444 -0.32731396 0.22708353
0.26989698 -0.32562742 0.22550425
-0.29321799 -0.093147732 0.22209159
0.26989701 0.16891885 0.22054239
-0.29321802 0.18343392 0.22542001
0.26989701 0.27479708 0.22029206
-0.18226001 0.32731399 0.22152069
0.023024313 0.32731399 0.22355795
-0.096939318 -0.32731399 0.23333243
0.0080273896 -0.32731399 0.23472831
0.043178864 -0.32424635 0.23851401
-0.038189054 -0.31361696 0.23851401
0.091956466 -0.31934178 0.23851401
0.23132747 -0.30344105 0.23851401
-0.27157697 -0.29972425 0.23851401
0.1815751 -0.2980547 0.23851401
-0.049231619 -0.28327537 0.23851401
0.23113759 -0.28818056 0.23851399
-0.23008081 -0.27669761 0.23851401
-0.014975972 -0.2726844 0.23851401
-0.12275773 -0.26820046 0.23851401
-0.086748824 -0.26823339 0.23851401
-0.28096345 -0.2584587 0.23851401
-0.29182598 -0.24744067 0.23851401
-0.041111924 -0.24780521 0.23851401
0.22698914 -0.23308468 0.23851401
-0.22361016 -0.22779019 0.23851401
-0.066701151 -0.22963089 0.23851401
-0.022806913 -0.2225993 0.23851401
0.063724615 -0.2284821 0.23851401
0.19760366 -0.22347999 0.23851401
0.26606885 -0.22485258 0.23851401
-0.15758935 -0.20068617 0.23851401
-0.14140645 -0.20988153 0.23851401
0.22831754 -0.19985765 0.23851401
0.23735832 -0.19329774 0.23851401
-0.18564597 -0.1683172 0.23851401
0.049767461 -0.16675647 0.23851401
-0.062033288 -0.15289578 0.23851401
-0.23373683 -0.14899519 0.23851401
-0.22613262 -0.14132871 0.23851401
0.1348028 -0.138099 0.23851401
-0.1393975 -0.12966573 0.23851401
-0.0258944 -0.11576323 0.23851401
-0.23056996 -0.10535647 0.23851401
0.014071513 -0.10251881 0.23851401
-0.076014131 -0.080812715 0.23851401
-0.26733652 -0.070138358 0.23851401
-0.094446369 -0.070345834 0.23851401
-0.034242757 -0.073474474 0.23851401
0.19231455 -0.07916867 0.23851401
-0.24083897 -0.063012362 0.23851401
-0.036441304 -0.062887974 0.23851401
0.23963612 -0.061596371 0.23851401
-0.11275925 -0.056531794 0.23851401
-0.028784227 -0.05259715 0.23851401
0.0086027514 -0.054823618 0.23851401
0.20627609 -0.052264206 0.23851401
-0.28706554 -0.042935103 0.23851401
-0.25557384 -0.046873979 0.23851401
-0.20354408 -0.040257454 0.23851401
-0.19919059 -0.047994949 0.23851401
-0.054926921 -0.04730425 0.23851401
-0.20554768 -0.034929723 0.23851401
-0.032045025 -0.032294173 0.23851401
0.063205808 -0.034555387 0.23851401
0.11194596 -0.030967485 0.23851401
0.15031114 -0.032402985 0.23851401
0.23864834 -0.038049579 0.23851401
0.14408258 -0.024696462 0.23851401
-0.28520167 -0.012358114 0.23851401
-0.19591151 -0.015440457 0.23851401
0.090016231 -0.016767785 0.23851401
-0.27895957 -0.0083466917 0.23851401
-0.24789266 0.016513303 0.23851401
-0.1954242 0.01038225 0.23851401
-0.018274488 0.018693868 0.23851401
0.1182134 0.013501666 0.23851401
-0.24232081 0.023404628 0.23851401
0.091898635 0.023369871 0.23851401
0.21572097 0.022618592 0.23851401
0.24856329 0.02692911 0.23851401
-0.27942336 0.037304357 0.23851399
-0.18774468 0.030619331 0.23851401
0.16968399 0.039101005 0.23851401
-0.23042738 0.04861135 0.23851401
-0.12560041 0.041728333 0.23851401
0.0044605816 0.045488067 0.23851401
-0.13721956 0.057142224 0.23851401
-0.010012979 0.053480789 0.23851401
-0.2871002 0.063755408 0.23851401
-0.16875434 0.066425532 0.23851401
-0.042715356 0.068117037 0.23851401
0.24173746 0.065620005 0.23851401
-0.1908544 0.07702072 0.23851401
-0.21771401 0.08735501 0.23851401
-0.018586149 0.083761863 0.23851401
0.26989701 0.082506888 0.23810706
-0.087232813 0.096747063 0.23851401
-0.068298809 0.092383727 0.23851401
0.033110585 0.096808925 0.23851401
0.10434863 0.10523001 0.23851401
-0.26308113 0.12045862 0.23851401
-0.17199026 0.12627353 0.23851401
0.031258307 0.12384233 0.23851401
-0.25352556 0.14892307 0.23851399
-0.11697339 0.14670119 0.23851401
0.02941082 0.14251773 0.23851401
0.12150773 0.1405603 0.23851401
0.19014952 0.14046508 0.23851401
-0.21768239 0.15800841 0.23851401
-0.20482473 0.15584944 0.23851401
-0.093064472 0.15218106 0.23851401
0.089750871 0.15984057 0.23851401
-0.05942554 0.18577611 0.23851401
0.0037856549 0.18788643 0.23851401
-0.067562461 0.19276513 0.23851401
0.19567314 0.1927695 0.23851401
-0.29284841 0.20315027 0.23851401
-0.15184993 0.20061347 0.23851401
-0.097696394 0.20389953 0.23851401
0.24643342 0.20264302 0.23851401
0.19949041 0.21181738 0.23851401
-0.11742876 0.22110744 0.23851401
-0.016012058 0.22816052 0.23851401
0.12533554 0.22022325 0.23851401
0.16862935 0.22691937 0.23851401
-0.29321799 0.2351976 0.23804161
-0.040498652 0.23852223 0.23851401
0.14311123 0.24023817 0.23851401
-0.19868097 0.25865346 0.23851401
-0.061758503 0.25664464 0.23851401
0.12288892 0.25283647 0.23851401
-0.10847156 0.2625708 0.23851399
-0.090723298 0.26162475 0.23851401
0.091286898 0.26857322 0.23851401
0.26815554 0.26829979 0.23851401
0.046808228 0.27049786 0.23851401
0.076404862 0.27885392 0.23851401
-0.18211067 0.28543565 0.23851401
-0.14188102 0.28551233 0.23851401
0.16547239 0.28187573 0.23851401
0.17116581 0.28846049 0.23851401
-0.27275318 0.29496387 0.23851401
-0.088102572 0.29598787 0.23851401
-0.27563125 0.30466509 0.23851401
-0.18205544 0.30995715 0.23851402
-0.049891919 0.30364642 0.23851401
-0.12285659 0.31350398 0.23851401
-0.033746213 0.31512201 0.23851401
0.035411656 0.31500268 0.23851401
-0.17267574 0.32731396 0.23717055
-0.16702427 0.3262316 0.23851401
-0.077771798 0.32711276 0.23667589
-0.050373308 0.32731399 0.23752514
0.12351881 0.3269293 0.23851401
