# .PCD v0.7 - Point Cloud Data file format
VERSION 0.7
FIELDS x y z
SIZE 4 4 4
TYPE F F F
COUNT 1 1 1
WIDTH 957
HEIGHT 1
VIEWPOINT 0 0 0 1 0 0 0
POINTS 957
DATA ascii
-0.074523255 -0.26674601 -0.39274412
-0.060697306 -0.26674601 -0.39269388
-0.04588842 -0.26321971 -0.39392799
1.8883497e-05 -0.26432231 -0.39392799
-0.090752415 -0.25464109 -0.39392799
-0.019104831 -0.25931555 -0.39392799
0.026939169 -0.25434378 -0.39392799
0.088862799 -0.25628662 -0.39315626
-0.049447335 -0.24997215 -0.39392799
0.0092363544 -0.24000144 -0.39392799
0.04538513 -0.24757776 -0.39392799
-0.079894722 -0.23087716 -0.39392799
-0.02227515 -0.2346248 -0.39392799
0.086225994 -0.239371 -0.39392799
-0.079830386 -0.21575731 -0.39392799
0.041941315 -0.21938643 -0.39392799
-0.15305331 -0.20293412 -0.39392799
-0.065443993 -0.20165358 -0.39392802
-0.020531919 -0.19992751 -0.39392799
0.055366866 -0.19527178 -0.39392799
0.075316504 -0.19249818 -0.39392799
0.10803388 -0.19020595 -0.39392799
0.11728793 -0.19899356 -0.39392799
-0.14072916 -0.18605402 -0.39392799
-0.025291629 -0.18357185 -0.39392799
0.1169135 -0.18435904 -0.39392799
0.034446992 -0.17971188 -0.39392799
0.090936676 -0.17659792 -0.39392796
0.12058176 -0.17374521 -0.39392799
-0.10682758 -0.16512911 -0.39392799
-0.098586977 -0.16489753 -0.39392799
-0.094260395 -0.15365191 -0.39392799
-0.153842 -0.14599273 -0.3917408
-0.0030238088 -0.14875659 -0.39392799
0.056132615 -0.14468475 -0.39392799
-0.069119193 -0.13340771 -0.39392799
-0.03707356 -0.13217032 -0.39392799
-0.1342662 -0.12008948 -0.39392799
-0.023523282 -0.12089404 -0.39392799
-0.00094645098 -0.1221042 -0.39392799
-0.028473206 -0.11991204 -0.39392799
-0.050691415 -0.10906986 -0.39392799
0.009489431 -0.092812747 -0.39392799
-0.09355396 -0.085265607 -0.39392799
-0.073168412 -0.081859119 -0.39392799
-0.020440431 -0.069675729 -0.39392799
-0.091944709 -0.055747379 -0.39392799
0.082933016 -0.041699506 -0.39392799
-0.083069742 -0.039405402 -0.39392799
0.044286251 -0.02889603 -0.39392799
0.071738504 -0.020719927 -0.39392799
-0.066821292 -0.014127599 -0.39392799
-0.039430395 -0.017417129 -0.39392799
0.0095895492 -0.016023628 -0.39392799
-0.12426129 -0.0066609532 -0.39392799
-0.051403046 -0.0086672455 -0.39392799
0.062856309 -0.0080894604 -0.39392799
-0.153842 0.0039164182 -0.39248458
-0.12355104 0.0080530494 -0.39392799
0.096718498 0.0087688211 -0.39392799
0.10060801 0.007342279 -0.39392799
-0.057313174 0.017983485 -0.39392799
-0.11945341 0.02275938 -0.39392799
0.076304227 0.028471511 -0.39392799
0.020009341 0.034084685 -0.39392799
0.059897974 0.034520149 -0.39392799
-0.153842 0.044500731 -0.39277422
-0.068745911 0.04922612 -0.39392799
0.042541362 0.04707294 -0.39392799
0.070769042 0.053713158 -0.39392799
-0.14804751 0.071669601 -0.39392799
-0.0024235323 0.076860011 -0.39392799
-0.11574522 0.084411666 -0.39392799
0.04841654 0.085481383 -0.39392799
-0.042134058 0.090285733 -0.39392799
-0.153842 0.10683528 -0.39192367
-0.12762088 0.10371864 -0.39392799
-0.10293533 0.10606404 -0.39392799
-0.14526702 0.11638713 -0.39392799
-0.13410248 0.11963908 -0.39392796
-0.091034465 0.11565477 -0.39392799
-0.05998981 0.12269486 -0.39392799
-0.041620739 0.1279164 -0.39392799
-0.066405125 0.13317952 -0.39392799
0.063149869 0.13687922 -0.39392799
-0.10863733 0.14891621 -0.39392799
-0.061321858 0.14800504 -0.39392799
-0.053138912 0.14091697 -0.39392799
0.019366648 0.1500124 -0.39392799
0.11316175 0.15899818 -0.39392799
0.148139 0.15969491 -0.39342713
-0.12804145 0.1632227 -0.39392799
-0.096715301 0.16855983 -0.39392799
0.069675364 0.16462494 -0.39392799
0.11003301 0.16299009 -0.39392799
0.12389899 0.16816722 -0.39392799
-0.038225077 0.171988 -0.39185786
0.069392681 0.171988 -0.39253733
-0.10370889 -0.26674601 -0.38452497
-0.09567146 -0.26674601 -0.38896614
-0.0076457951 -0.26674601 -0.38372475
0.13312671 -0.20798829 -0.38466001
-0.153842 -0.16945225 -0.38824391
-0.153842 -0.13247676 -0.38416225
0.13140866 0.0055297464 -0.38466001
0.126202 0.030321639 -0.38543299
0.13278863 0.057638094 -0.38466001
-0.153842 0.086817369 -0.38210988
-0.153842 0.16635138 -0.38050243
0.042173352 -0.26674601 -0.37035015
0.088862792 -0.24657825 -0.37705338
0.13553599 -0.17155336 -0.37303552
0.135536 -0.14809299 -0.37513554
0.135536 -0.02641983 -0.37244368
0.135536 -0.018911086 -0.37694499
-0.153842 0.14395136 -0.37815845
0.14433719 0.153319 -0.37967643
-0.11271171 0.171988 -0.37898421
-0.081059724 0.171988 -0.37428325
-0.056876078 0.171988 -0.373492
-0.045226499 0.17198798 -0.37417233
-0.024591358 0.17368713 -0.37390661
-0.019192617 0.171988 -0.37682384
0.031886715 0.17791601 -0.37002212
0.069632582 0.171988 -0.37652576
0.071924709 0.17791599 -0.3712419
0.12576608 0.17791601 -0.37213996
-0.099705175 -0.26674601 -0.36401927
-0.15384199 -0.2286167 -0.36602646
0.126202 -0.21266636 -0.3655937
0.135536 -0.15476775 -0.36815503
0.135536 -0.055198424 -0.36267912
-0.035010006 0.039024703 -0.363087
-0.052784707 0.048995927 -0.363087
-0.153842 0.074410766 -0.36272654
0.042582784 0.077831849 -0.363087
0.021978695 0.098036058 -0.363087
0.135536 0.10113136 -0.36349356
0.079397269 0.1192653 -0.36222216
0.049093515 0.13344269 -0.363087
-0.021232344 0.14642462 -0.363087
-0.015680101 0.1522941 -0.363087
0.011274476 0.16347149 -0.363087
0.078137398 0.17001867 -0.3624067
0.08834298 0.17791601 -0.36802039
0.13814211 0.171988 -0.36690021
-0.10639525 -0.26674601 -0.35550499
0.03768757 -0.26674601 -0.35831481
0.088862799 -0.2354936 -0.35571176
0.1163073 -0.22007301 -0.35779721
-0.153842 -0.092023291 -0.35497797
-0.153842 -0.052220054 -0.35180444
-0.153842 -0.033246949 -0.35178101
0.10431394 0.039430246 -0.35189658
0.135536 0.052435298 -0.35953411
-0.090616457 0.10496271 -0.35689604
-0.096936047 0.13152446 -0.35305968
-0.086093225 0.13149014 -0.35912031
0.098913446 0.15719293 -0.3559249
-0.153842 0.16325882 -0.35990182
-0.084566779 0.1733586 -0.35987091
0.1459917 0.171988 -0.35865331
-0.13524483 -0.26674601 -0.34618098
-0.153842 -0.24204193 -0.34589463
0.094589189 -0.22007301 -0.34578201
0.13553602 -0.15202698 -0.34081301
-0.153842 -0.14014475 -0.34971303
-0.153842 0.057881504 -0.34200203
-0.153842 0.086919084 -0.34188384
0.12690847 0.146054 -0.34546244
0.1077127 0.1512605 -0.34815285
0.148139 0.16529724 -0.34754875
-0.060726739 -0.26674601 -0.33152628
0.054856867 -0.26674601 -0.33442813
-0.153842 -0.22894849 -0.33348903
0.135536 -0.18210669 -0.33130544
-0.069026887 0.0297263 -0.33844733
0.135536 0.046909161 -0.33434248
-0.153842 0.078980975 -0.33737385
-0.153842 0.091443494 -0.33134633
-0.107575 0.12238882 -0.33217862
-0.077780485 -0.26674601 -0.32993776
0.08782655 -0.26674601 -0.3253566
-0.153842 -0.259642 -0.32639095
-0.153842 -0.2014804 -0.32674399
0.135536 -0.13615376 -0.32160476
0.135536 -0.064393096 -0.32136503
-0.153842 -0.045292333 -0.32428151
-0.153842 -0.012909127 -0.32782906
0.135536 0.0031766295 -0.32758513
-0.15384202 0.027710818 -0.32087466
0.095071495 0.0297263 -0.32455111
0.113898 0.080123618 -0.32584476
-0.107575 0.099428125 -0.32979381
0.126202 0.093632802 -0.3295548
-0.153842 0.10154618 -0.32066301
0.11389801 0.11372911 -0.32486427
-0.153842 0.1372278 -0.32491186
-0.107575 0.13157053 -0.32215944
0.148139 0.15606885 -0.32926658
0.050615482 -0.26674601 -0.31457052
-0.153842 -0.22585872 -0.31505677
0.135536 -0.14636295 -0.31916198
0.135536 -0.091530517 -0.31410635
0.052604113 0.0297263 -0.31302032
0.135536 0.038205713 -0.31127381
-0.153842 0.072018981 -0.31287134
-0.107575 0.094192863 -0.31058532
0.11389799 0.10831233 -0.31536594
0.113898 0.14198898 -0.3151477
0.135536 0.14542496 -0.31252405
0.113898 0.15247726 -0.31953588
-0.11739156 0.17791601 -0.31715631
0.030227566 -0.26674601 -0.30286416
0.047141481 -0.26674601 -0.30320138
0.051992282 -0.26674601 -0.30614093
-0.153842 -0.22494431 -0.30508849
0.088862807 -0.22758147 -0.30942327
0.135536 -0.023611803 -0.30081591
-0.153842 -0.010281693 -0.30805671
-0.153842 0.0078352857 -0.30305365
0.077444322 0.0297263 -0.30056691
0.093548857 0.0297263 -0.30932626
-0.153842 0.074154206 -0.30650616
-0.153842 0.11173102 -0.30541179
0.113898 0.16246319 -0.30271518
-0.12017483 -0.26674601 -0.297544
-0.084931299 -0.26674601 -0.29441676
-0.066609442 -0.26674601 -0.29984477
-0.153842 -0.25881091 -0.29690805
0.135536 -0.056005269 -0.2988655
-0.153842 0.012595126 -0.29837653
-0.153842 0.10361271 -0.2959798
-0.107575 0.12098476 -0.29774365
0.148139 0.16120748 -0.29926106
-0.11636579 0.17791601 -0.29762805
-0.13071229 -0.26674601 -0.28881294
-0.0075570308 -0.26674601 -0.2888723
-0.153842 -0.20769729 -0.28806588
0.135536 -0.17007436 -0.28776303
0.032774687 0.0297263 -0.28732413
0.113898 0.042327836 -0.28922194
-0.153842 0.067459837 -0.28516814
0.126202 0.15238129 -0.28229162
0.13965982 0.153319 -0.28010932
0.148139 0.16830809 -0.28997764
-0.11389542 0.17791601 -0.28277695
0.14551109 0.171988 -0.28093159
0.019230004 -0.26674601 -0.2710827
0.088862799 -0.26272726 -0.27610838
-0.153842 -0.25549611 -0.27333307
-0.153842 -0.23705816 -0.27597648
0.135536 -0.20306459 -0.27823198
-0.153842 -0.078136459 -0.27945304
-0.153842 -0.014818424 -0.27157226
-0.10445568 0.0297263 -0.27764764
0.0096995085 0.0297263 -0.27658573
0.11015239 0.0297263 -0.27787229
0.113898 0.099066883 -0.27838004
0.13448597 0.093779303 -0.27427077
-0.153842 0.11189864 -0.27708775
0.14406204 0.11592309 -0.27135086
0.11389801 0.13445736 -0.27641416
0.113898 0.16411833 -0.27119422
0.11389801 0.17350134 -0.27660209
0.14082356 0.171988 -0.27472293
0.017898319 -0.26674601 -0.26558787
0.032626014 -0.26674601 -0.26916206
0.088862799 -0.2518034 -0.2640233
-0.153842 -0.22170694 -0.26904386
0.135536 0.0035568401 -0.26507694
-0.069977582 0.0297263 -0.26916936
-0.153842 0.032683119 -0.2647433
-0.107575 0.067917973 -0.26931706
-0.107575 0.074358828 -0.26142988
0.11389801 0.096969508 -0.2660231
0.135536 0.12191087 -0.26055068
0.126202 0.14840853 -0.26747727
0.148139 0.15659638 -0.26587921
-0.11934718 0.17791601 -0.26908872
0.088862792 -0.26128379 -0.25318122
0.088862799 -0.22383381 -0.25206164
0.126202 -0.21319693 -0.25564098
0.135536 -0.08197359 -0.25795814
-0.153842 0.01530659 -0.25755098
-0.0091382973 0.0297263 -0.25903195
0.023285594 0.0297263 -0.25346532
0.089290924 0.0297263 -0.258948
0.135536 0.050031409 -0.25834602
0.13380213 0.093779303 -0.25692856
-0.13412832 0.17300153 -0.25288898
-0.13079491 -0.26674601 -0.2414535
-0.11885957 -0.26674601 -0.24747255
0.044411488 -0.26674601 -0.24081555
0.050000079 -0.26674601 -0.24087451
0.135536 -0.019382525 -0.24276341
-0.153842 0.041242387 -0.24435426
-0.153842 0.11049062 -0.24445798
-0.13140279 0.17791602 -0.2425478
-0.12215874 0.17791601 -0.24325377
-0.107575 0.17285718 -0.24654058
0.11154484 -0.22007298 -0.23370402
0.135536 -0.18934503 -0.23242375
0.135536 -0.077595718 -0.23721412
-0.153842 -0.030250654 -0.23365259
-0.033245351 0.0297263 -0.23194143
-0.153842 0.087105393 -0.23186938
0.126202 0.092533246 -0.23383638
0.11389801 0.10470231 -0.23965532
-0.14106564 -0.26674601 -0.2251071
-0.014165383 -0.26674601 -0.22763525
0.088862799 -0.26429936 -0.22368342
0.088862799 -0.23969872 -0.22958152
0.096815579 -0.220073 -0.22306585
-0.153842 -0.2108399 -0.22819981
0.12715958 -0.21167099 -0.22591813
-0.153842 -0.11343943 -0.22304143
-0.153842 0.10238586 -0.22391753
0.14599945 0.153319 -0.22206381
-0.079093494 -0.26674601 -0.21244852
0.074321344 -0.26674601 -0.2189839
0.135536 -0.20019934 -0.21866447
-0.153842 -0.11164495 -0.21556009
-0.153842 0.027008606 -0.21817647
-0.061847646 0.0297263 -0.21387821
0.066900849 0.0297263 -0.21088992
0.093816683 0.0297263 -0.21489343
0.10256848 0.0297263 -0.21146978
-0.153842 0.059024304 -0.21985856
0.10547008 0.053652458 -0.21253549
0.10825959 0.088040642 -0.21560781
0.10929297 0.10363073 -0.21674594
0.13846496 0.11930901 -0.21468613
0.13553602 0.13943458 -0.21993837
0.13520525 0.146054 -0.2161212
-0.10473817 0.15425882 -0.2193149
-0.14740928 0.171988 -0.21596009
0.088862799 -0.2407625 -0.20157012
-0.153842 -0.18637559 -0.20137815
-0.153842 -0.17251304 -0.20788607
0.135536 -0.062786475 -0.20286229
0.135536 -0.055737663 -0.20687175
0.135536 -0.027527992 -0.20233759
-0.153842 -0.0013074325 -0.20387207
0.135536 0.0035887696 -0.20332402
-0.153842 0.014043147 -0.20493598
0.033801716 0.0297263 -0.20571306
-0.084924281 0.04801153 -0.20346296
0.00099629723 0.052525759 -0.20007101
0.096965276 0.054729719 -0.20627563
-0.00066461042 0.067650333 -0.20007101
0.07042557 0.068062447 -0.20007101
-0.153842 0.089175925 -0.20208217
-0.027628217 0.082092285 -0.20007101
0.026722666 0.099544451 -0.20007101
0.037251577 0.09484899 -0.20007101
0.064704113 0.099974804 -0.20007101
0.135536 0.10452674 -0.20260052
-0.032809999 0.113098 -0.20007101
0.0046365876 0.11483805 -0.20007101
0.0914644 0.11095524 -0.20356995
-0.040149555 0.12071963 -0.20007101
-0.036199123 0.12913375 -0.20007101
-0.0052739265 0.12279589 -0.20007101
0.043857411 0.12294792 -0.20007101
0.090362169 0.12161112 -0.20302778
0.0078227371 0.13098083 -0.20007101
-0.039250694 0.14054975 -0.20007101
-0.0069942921 0.14609696 -0.20007101
0.057823513 0.14188668 -0.20007101
0.126202 0.14891794 -0.2011956
0.13007013 0.153319 -0.20963104
-0.029292984 0.16995756 -0.20007101
0.036924347 0.16331874 -0.20007101
0.053980496 0.16905177 -0.20007101
0.078126982 0.16136643 -0.20074993
-0.11974731 0.17791601 -0.20071718
0.017158112 0.17117912 -0.20007101
-0.026721079 -0.26674601 -0.19771129
0.02512522 -0.26674601 -0.19691141
0.088862799 -0.24207333 -0.19299057
0.135536 -0.10360536 -0.19650728
0.135536 -0.065151684 -0.19642489
-0.153842 0.040354155 -0.1965849
-0.045350023 0.1445509 -0.19029106
-0.0017966711 0.14044988 -0.191429
0.044779491 0.14190364 -0.19034936
-0.153842 0.1542148 -0.19896594
-0.046250898 0.15751658 -0.1901359
-0.034355354 0.15706356 -0.19142902
0.020196225 0.15920733 -0.191429
-0.00014041923 0.16171564 -0.19142902
-0.064544901 0.174952 -0.19458257
0.126202 -0.21770908 -0.18477847
0.1354939 -0.21167099 -0.18328556
-0.153842 -0.11929 -0.18768704
0.15163888 -0.092360362 -0.18445389
-0.153842 -0.079093777 -0.18519574
-0.153842 -0.049375564 -0.18263763
-0.153842 -0.033234015 -0.18366112
0.15376452 -0.025867371 -0.18013351
0.135536 -0.012702141 -0.18658575
-0.153842 0.00025938638 -0.18556531
-0.052130286 0.111231 -0.18018825
0.135536 0.11479871 -0.18847337
0.135536 0.12659995 -0.18772498
-0.11064562 0.17791601 -0.18268235
0.077561066 0.174952 -0.18198428
-0.153842 -0.26439318 -0.17687663
-0.077123992 -0.26674601 -0.17722063
0.0057370178 -0.26674601 -0.17519751
0.048367232 -0.26674601 -0.17087084
-0.153842 -0.22718292 -0.17334305
-0.153842 -0.033956133 -0.17533997
0.135536 0.019349676 -0.17293596
0.14697841 0.030111443 -0.17734018
-0.068352677 0.111231 -0.1759422
-0.153842 0.13458715 -0.1723561
-0.153842 0.15169592 -0.17745408
-0.13719514 0.17198798 -0.17131133
0.094769515 0.17791601 -0.17373943
0.126202 0.1726464 -0.17463842
-0.153842 -0.25619996 -0.16818029
0.135536 -0.20289817 -0.16207516
0.135536 -0.12171528 -0.16570225
-0.153842 0.034707315 -0.16604032
-0.035165079 0.111231 -0.16821146
-0.072432727 0.16755074 -0.16650932
-0.0985948 0.17791601 -0.16224793
0.1341607 0.171988 -0.16759996
0.14639065 0.171988 -0.1624448
-0.046410892 -0.26674601 -0.15467849
0.088862799 -0.24149504 -0.15526207
0.10427307 -0.220073 -0.15280271
0.135536 -0.15591778 -0.15623263
-0.153842 -0.065217525 -0.15131955
-0.153842 -0.050133038 -0.15093182
0.135536 -0.0076450445 -0.15945439
-0.153842 0.12996683 -0.15242161
-0.132183 0.17423116 -0.15947832
-0.10570716 0.17791601 -0.15541022
0.12300082 0.17791601 -0.15544865
0.057664771 -0.26674601 -0.149597
0.13298202 -0.21167098 -0.14019972
0.135536 -0.17967781 -0.14090732
0.135536 -0.127601 -0.14759149
0.135536 -0.091904297 -0.14149824
-0.153842 -0.079743251 -0.14443159
-0.153842 0.018494384 -0.14135829
0.135536 0.021712583 -0.14363903
0.135536 0.088029571 -0.14844248
0.135536 0.099937059 -0.14781588
-0.05402847 0.111231 -0.14321557
-0.014817515 0.111231 -0.14257368
-0.153842 0.138521 -0.14376305
0.126202 0.14808406 -0.1420379
0.13305031 0.146018 -0.14576536
0.12744293 0.171988 -0.14637724
-0.081634298 -0.26674601 -0.13103279
0.0017596446 -0.26674598 -0.13472942
-0.153842 -0.20722836 -0.13568345
0.135536 -0.18093133 -0.13695495
-0.153842 -0.17393173 -0.13383004
-0.153842 -0.066995606 -0.13614739
0.135536 -0.054604158 -0.13188595
-0.153842 -0.023034474 -0.13267989
0.135536 0.019254649 -0.13602951
0.135536 0.057042975 -0.1362195
0.135536 0.082541205 -0.13859892
0.0070992867 0.111231 -0.13334468
-0.071212135 0.13714343 -0.13132587
0.12835243 0.153319 -0.13179284
-0.10177682 0.17791601 -0.13531423
-0.025109209 -0.26674601 -0.12305737
0.070147365 -0.26674598 -0.12404363
0.088862799 -0.25357059 -0.12651622
0.135536 -0.15211418 -0.12376282
-0.153842 -0.12896043 -0.12378839
0.135536 -0.008981321 -0.1272721
0.13553599 0.026386689 -0.12748674
0.1294948 0.088441998 -0.1257107
0.135536 0.10257916 -0.12425737
0.135536 0.12833904 -0.12256324
-0.069680661 0.13458718 -0.12895434
-0.153842 0.14679199 -0.12910137
0.148139 0.16932417 -0.12979601
0.13011514 0.17198801 -0.12862666
0.148139 0.17158899 -0.12157434
0.054779537 -0.26674604 -0.1114672
0.135536 -0.17681555 -0.11367094
0.14555207 -0.0955282 -0.11411633
0.15279445 -0.030631302 -0.11473851
0.15372957 -0.027890304 -0.11113102
-0.153842 0.014900674 -0.11377227
0.135536 0.025463402 -0.11658534
0.135536 0.050511159 -0.11679834
-0.153842 0.090307154 -0.1167216
-0.05701381 0.1190213 -0.11739014
0.011895761 0.11253577 -0.112751
0.020204846 0.11850721 -0.112751
-0.040215831 0.12649141 -0.11279941
-0.03982373 0.12854663 -0.112751
0.035165239 0.12137536 -0.112751
-0.0061661862 0.17209081 -0.112751
-0.12040365 -0.26674601 -0.1041123
-0.022756554 -0.26674601 -0.10817215
-0.017041143 -0.26674601 -0.10268343
0.152328 -0.094439089 -0.10875162
0.135536 -0.024976209 -0.10041916
0.14986831 0.053357035 -0.10773611
0.135536 0.0767418 -0.10800505
-0.067296088 0.174952 -0.1080463
0.017144911 0.174952 -0.10817574
0.10245071 0.17791601 -0.1040239
-0.026896602 -0.26674601 -0.09314958
0.014634654 -0.26674601 -0.091762125
0.088862799 -0.23896788 -0.093034945
0.135536 -0.14300662 -0.091136158
-0.153842 -0.11522538 -0.09716782
0.13153952 0.153319 -0.092340164
0.14205924 0.153319 -0.093643524
0.010681843 0.174952 -0.09137319
-0.153842 -0.2537303 -0.088975526
-0.153842 -0.24659039 -0.08183369
0.135536 -0.21118745 -0.084571756
-0.153842 -0.19882859 -0.088765472
-0.153842 -0.093772464 -0.085889012
0.135536 -0.022694873 -0.080666654
0.135536 -0.015264873 -0.086004205
-0.153842 0.017306149 -0.084795237
0.135536 0.071911588 -0.08335989
0.1338688 0.088441998 -0.0882238
-0.12974072 0.17791602 -0.088736191
-0.0054637343 -0.26674601 -0.079268672
0.072524637 -0.26674601 -0.07456252
0.081995428 -0.26674601 -0.078796305
0.135536 -0.15442279 -0.07891538
0.135536 0.036362231 -0.078293055
0.126202 0.15308616 -0.075691715
-0.1118295 0.17791601 -0.071228787
-0.10160653 0.17791601 -0.073551796
0.0945196 0.17791601 -0.070947595
-0.095615856 -0.26674601 -0.062095899
0.126202 -0.21855518 -0.065202594
0.13553602 -0.051540628 -0.064172819
0.135536 -0.0028254762 -0.06340117
0.135536 0.051205106 -0.069907524
-0.153842 0.067913376 -0.061108839
-0.153842 0.072233558 -0.063235544
0.12988333 0.088441998 -0.066880338
0.070614614 0.174952 -0.064352751
0.087749079 0.17791601 -0.065256923
-0.01032898 -0.26674601 -0.053547729
0.040891331 -0.26674601 -0.059754349
-0.153842 -0.25325304 -0.054265812
0.088862792 -0.24429016 -0.054524094
-0.153842 -0.15557036 -0.057439532
0.135536 -0.12460055 -0.055401381
0.135536 -0.11322124 -0.050102443
0.135536 -0.099560425 -0.058862004
0.135536 -0.088249668 -0.058463171
0.135536 -0.038548794 -0.056822434
0.13389029 0.088441998 -0.055944964
-0.153842 0.12247963 -0.051940173
-0.012039443 0.174952 -0.051369157
-0.096128196 -0.26674601 -0.046739671
0.016496278 -0.26674601 -0.049251407
0.09583053 -0.22007301 -0.044366237
0.135536 -0.17800155 -0.047168318
-0.153842 -0.15431224 -0.043429367
-0.153842 -0.13546562 -0.047521766
0.135536 0.050141372 -0.045915782
0.135536 0.067162931 -0.043848243
0.12908268 0.093779303 -0.041393261
-0.10325585 0.17791601 -0.0459239
0.066778116 -0.26674601 -0.034587353
-0.153842 -0.25328046 -0.032835852
0.10641123 -0.220073 -0.033245198
-0.153842 -0.19614267 -0.038870618
0.135536 -0.006117899 -0.038500909
0.135536 0.021593455 -0.033624645
-0.153842 0.046547897 -0.038414981
0.135536 0.12990001 -0.038360786
-0.12378903 0.17791601 -0.039267335
-0.064289294 0.174952 -0.036154032
0.05800635 0.174952 -0.030017555
0.13797928 0.171988 -0.037374243
0.019942958 -0.26674601 -0.024893053
0.076919802 -0.26674601 -0.027547482
0.135536 -0.099260457 -0.024765536
0.135536 0.012428559 -0.024802454
0.13553599 0.072938904 -0.026760034
0.1303971 0.146018 -0.029572411
0.048948772 0.174952 -0.025460072
0.14004779 0.171988 -0.02549687
0.023431424 -0.26674601 -0.010916101
0.030406315 -0.26674601 -0.017472224
0.060915317 -0.26674601 -0.018341241
-0.153842 -0.25016358 -0.016045563
-0.153842 -0.2324812 -0.013121612
0.135536 -0.18651056 -0.016398797
0.135536 -0.10287159 -0.010639594
-0.153842 -0.053929526 -0.014420707
-0.153842 0.017373046 -0.016077019
0.036545146 0.174952 -0.017575942
-0.043617796 -0.26674601 -0.0083409455
-0.020528818 -0.26674601 -0.002509715
-0.011367865 -0.26674601 -0.0078116059
0.053602867 -0.26674601 -0.0044572242
-0.153842 -0.042112939 -0.0022404641
-0.153842 0.014487515 -0.0095358659
-0.14884618 0.171988 -0.0074763149
-0.082206771 0.174952 -0.0079057273
0.030566895 0.174952 -0.0091342721
0.088386506 0.17791602 -0.0091777183
0.088862799 -0.25891072 0.0093217343
-0.153842 -0.096458241 0.0067248903
0.135536 -0.074240059 0.0086232023
-0.153842 -0.054870136 0.0095048882
0.135536 0.01074804 0.0072268061
0.135536 0.03833767 0.0030939598
-0.15075104 0.171988 0.00033850968
-0.014002615 0.174952 0.0089601539
-0.12160818 -0.26674601 0.011101723
0.135536 -0.16026714 0.012935966
-0.153842 -0.13714291 0.016748276
0.135536 -0.091555759 0.016768303
-0.153842 -0.050380632 0.016917674
-0.153842 -0.039783299 0.011038693
-0.153842 -0.023507804 0.011144405
-0.153842 0.065196961 0.01289086
-0.153842 0.079342932 0.013218516
-0.153842 0.14347497 0.014514551
-0.13514307 0.171988 0.018734334
-0.094337702 0.17791601 0.015554704
-0.055152457 0.174952 0.017610952
-0.153842 -0.24919368 0.022621095
0.095944948 -0.22007298 0.028241547
-0.153842 -0.21415307 0.026431656
-0.153842 -0.17040646 0.028043006
0.135536 -0.16756356 0.020006396
0.135536 -0.082428768 0.024178166
-0.153842 0.095618799 0.020079019
0.135536 0.11614209 0.029577387
-0.068708256 0.174952 0.028277241
0.046098631 0.174952 0.026598886
0.14252076 0.171988 0.020966336
0.049817488 -0.26674601 0.030255258
0.088862799 -0.23838773 0.032568309
-0.153842 -0.096553847 0.036639825
0.135536 -0.011304334 0.030948777
0.135536 -0.0099508129 0.031710029
0.13396817 0.093779303 0.033307254
-0.153842 0.16866407 0.032455526
0.048912354 0.174952 0.038571857
0.10992207 0.17791601 0.039230321
-0.016296301 -0.26674601 0.041412562
0.12239291 -0.220073 0.047459293
0.13227314 -0.21167099 0.047006257
0.135536 -0.2050073 0.040131379
0.135536 -0.19764285 0.04262213
0.135536 -0.17769805 0.048235364
0.135536 -0.16501339 0.049752746
-0.153842 -0.068481639 0.048630901
0.135536 -0.025579289 0.043040216
0.135536 0.08247336 0.045829661
-0.15068704 0.171988 0.049792387
-0.029922822 0.174952 0.042783983
0.086663485 0.17791601 0.04461791
-0.13721839 -0.26674601 0.055790361
-0.11577491 -0.26674601 0.051949989
-0.0043272106 -0.26674601 0.056118332
0.099109724 -0.22007298 0.056860842
0.135536 -0.16920789 0.057803866
0.135536 -0.15741415 0.059836626
0.135536 -0.065374039 0.058708489
-0.153842 0.017802984 0.058148276
-0.153842 0.059266891 0.054374486
-0.153842 0.064527795 0.058403298
0.13265547 0.088441998 0.058733545
-0.099317156 0.17791599 0.056068353
-0.078956634 0.17791602 0.053886786
0.04697407 0.17647098 0.050905101
0.11094888 0.17711157 0.059960835
-0.0024058521 -0.26674601 0.064596228
-0.153842 -0.24120967 0.069256701
0.126202 -0.21591657 0.062282391
-0.153842 -0.10469818 0.060007483
-0.153842 -0.095017813 0.060221963
-0.153842 -0.010122715 0.066462241
0.126202 -0.017637048 0.067272604
0.13400294 -0.015750332 0.0606764
0.13119975 0.083293252 0.060676403
0.148139 0.16412418 0.063087173
0.097922742 0.171988 0.065787494
-0.0043470524 -0.26100233 0.072811402
0.040190488 -0.26160246 0.072811402
0.077727638 -0.26674601 0.072120078
-0.0622079 -0.24192694 0.072811402
-0.092744082 -0.23594806 0.072811402
0.070096664 -0.23264199 0.072811402
0.054470092 -0.22502773 0.072811402
-0.13401532 -0.21912993 0.072811395
-0.11663509 -0.2121962 0.072811402
-0.10215452 -0.21225898 0.072811395
0.071769729 -0.21148096 0.072811402
-0.12710093 -0.20978032 0.072811402
-0.093640558 -0.20556632 0.07281141
-0.061397411 -0.20699164 0.072811402
-0.016154464 -0.20896263 0.072811402
0.030198317 -0.20377629 0.072811402
-0.15262052 -0.19345105 0.072811402
-0.14775904 -0.19392468 0.072811402
-0.04888266 -0.1902988 0.072811402
-0.01579082 -0.19392812 0.072811402
0.036206819 -0.19116019 0.072811402
0.094230741 -0.19465134 0.072811402
-0.14727978 -0.1868677 0.072811402
-0.07452397 -0.18139118 0.072811402
-0.067737445 -0.18638304 0.072811402
-0.025727428 -0.17510182 0.072811402
-0.072097212 -0.16997617 0.072811402
-0.016411623 -0.16319752 0.072811402
0.0016295963 -0.163408 0.072811402
-0.074313655 -0.1519834 0.072811402
0.034080777 -0.1561913 0.072811402
0.11867154 -0.15509023 0.072811402
-0.13062865 -0.12520501 0.072811402
-0.10875373 -0.12823537 0.072811402
-0.021962712 -0.12776518 0.072811402
0.030919176 -0.1133687 0.072811402
0.051534884 -0.11171692 0.072811402
0.093974724 -0.11578877 0.072811402
0.10490853 -0.11928003 0.072811402
0.024896303 -0.10779878 0.072811402
0.081440106 -0.10004894 0.072811402
0.11579178 -0.10497317 0.072811402
-0.153842 -0.098597728 0.070961833
-0.070570156 -0.099398091 0.072811402
-0.050383437 -0.096317671 0.072811402
-0.0097285416 -0.098462835 0.072811402
0.026434584 -0.093191527 0.072811402
-0.0055224877 -0.075906977 0.072811402
0.040415827 -0.078834713 0.072811402
-0.043565698 -0.061124019 0.072811402
-0.015223693 -0.05904682 0.072811402
0.1091444 -0.053169362 0.072811402
0.080131769 -0.049583077 0.072811402
0.034392841 -0.030904476 0.072811402
0.046623837 -0.022524804 0.072811402
-0.03865879 -0.010378093 0.072811402
-0.018489029 -0.003793709 0.072811402
0.12296128 0.005392611 0.072811402
-0.044257462 0.010100985 0.072811402
0.010196166 0.013243545 0.072811402
0.06939055 0.016855307 0.072811402
0.11186045 0.011625096 0.072811402
0.051289912 0.028145902 0.072811402
-0.084602654 0.034497879 0.072811402
0.037886634 0.034689225 0.072811402
0.083805129 0.031108607 0.072811402
-0.089121386 0.040252522 0.072811402
-0.025291676 0.049097158 0.072811402
-0.12481181 0.050044328 0.072811402
-0.12591222 0.061841853 0.072811402
0.0933607 0.065206848 0.072811402
-0.10196626 0.071840316 0.072811402
-0.020496644 0.078202121 0.072811402
-0.11437548 0.082521789 0.072811402
-0.10169105 0.087644413 0.072811402
-0.026877515 0.088796727 0.072811402
0.0016829595 0.089638174 0.072811402
0.029689312 0.081776395 0.072811402
0.090069674 0.084466174 0.07281141
0.126202 0.083052836 0.070088342
0.00081088394 0.097933814 0.072811402
0.12018667 0.10472696 0.072811402
0.070571579 0.11395992 0.072811402
-0.05888588 0.12696375 0.072811402
0.011170946 0.13009581 0.072811402
0.035712797 0.13333577 0.072811402
-0.077325642 0.14913973 0.072811402
-0.12583527 0.15235272 0.07281141
0.006416338 0.153319 0.074279808
0.11439935 0.153319 0.074004285
-0.026252657 0.171988 0.078000084
0.018072188 0.171988 0.070759892
0.078341588 0.17198798 0.078630641
0.091317892 0.171988 0.076681867
0.1212808 0.171988 0.074786462
0.083626613 0.153319 0.081937201
0.1175577 0.153319 0.084030755
-0.11501349 0.171988 0.081014328
0.11410253 0.17198798 0.084864788
-0.10927314 0.153319 0.093237467
-0.082198367 0.153319 0.093388595
-0.036698606 0.153319 0.098105997
0.096746325 0.153319 0.099599041
0.148139 0.15439722 0.095079266
0.148139 0.1631324 0.091673546
-0.10581357 0.171988 0.097584546
-0.022762366 0.17198798 0.099468805
0.11951752 0.171988 0.096667387
0.13578784 0.171988 0.090121172
-0.153842 0.15735546 0.10521738
-0.10802954 0.153319 0.1027161
-0.066798642 0.153319 0.10908568
0.05539313 0.153319 0.10234021
-0.10750294 0.171988 0.10193308
-0.032194924 0.171988 0.10322338
-0.13581236 0.153319 0.11006232
-0.04965258 0.153319 0.11784872
-0.048271038 0.17198798 0.11590368
-0.036218364 0.171988 0.11203916
-0.028184623 0.171988 0.1191462
0.073855221 0.17198798 0.11883725
-0.12198117 0.153319 0.12010914
-0.11716565 0.153319 0.12462376
0.046639159 0.153319 0.12578784
-0.153842 0.16065073 0.12864856
0.148139 0.16026552 0.12588286
0.10578874 0.171988 0.12032817
-0.1414046 0.153319 0.13603655
0.097121991 0.153319 0.13472961
-0.13652459 0.171988 0.13693461
-0.11621241 0.171988 0.13194348
-0.018411797 0.171988 0.1345921
0.10028484 0.17198801 0.133315
0.11063127 0.17198801 0.13612382
0.14142856 0.171988 0.13826217
-0.068837658 0.153319 0.14836909
-0.014165645 0.153319 0.14276244
0.099962115 0.153319 0.14950205
0.079849929 0.17198801 0.14099163
-0.075963445 0.153319 0.15560997
-0.053340938 0.153319 0.15042669
-0.031671006 0.153319 0.15825482
0.0067118146 0.153319 0.15620743
0.071645461 0.171988 0.15483384
0.0034017749 0.153319 0.16248551
0.025708027 0.171988 0.16148371
0.013136126 0.153319 0.1725909
0.12877123 0.153319 0.17633945
-0.12857501 0.171988 0.17428829
-0.06643486 0.171988 0.1772965
-0.11142503 0.153319 0.18721314
0.016184572 0.153319 0.18420562
0.14411448 0.153319 0.18308701
-0.14164414 0.171988 0.18935861
-0.017765539 0.171988 0.1891849
0.14039835 0.17198801 0.18000002
-0.13677186 0.153319 0.19595955
-0.078921691 0.153319 0.19388188
0.024341697 0.153319 0.19921124
-0.13563219 0.171988 0.19279541
-0.12024242 0.171988 0.19644822
0.1228273 0.17198798 0.19845663
0.1438856 0.17198801 0.19166738
-0.153842 0.15794861 0.20071869
-0.10730362 0.153319 0.2061073
0.0045472533 0.153319 0.20880018
0.08675006 0.153319 0.20481174
0.13485157 0.153319 0.20622745
-0.13494834 0.171988 0.20351814
-0.070342317 0.171988 0.20806605
-0.067734629 0.171988 0.20866942
0.00035679433 0.17198798 0.20896202
0.1087321 0.171988 0.20361261
-0.066228926 0.153319 0.21447611
0.0086741727 0.153319 0.21510258
-0.014536873 0.171988 0.21205308
0.070412852 0.17198798 0.21960002
-0.088823974 0.153319 0.22306488
-0.0085333139 0.153319 0.22273633
0.036578212 0.153319 0.22820354
0.056164332 0.153319 0.22678654
0.148139 0.15828316 0.22702685
0.148139 0.16818921 0.2292264
-0.034312401 0.17198798 0.22312713
0.069556788 0.171988 0.22050776
0.06088366 0.153319 0.23484156
-0.071567476 0.171988 0.23600312
-0.036074892 0.171988 0.23912665
0.0064596566 0.171988 0.23405731
-0.072065696 0.153319 0.24193117
-0.029778469 0.153319 0.24380231
0.0072444496 0.171988 0.24081624
-0.099316642 0.153319 0.2549305
0.148139 0.1541958 0.25558978
-0.043402437 0.171988 0.25422162
-0.014711179 0.171988 0.25174162
0.043762047 0.171988 0.25884938
0.085904308 0.171988 0.25620544
-0.08141458 0.153319 0.26780382
-0.041153282 0.153319 0.26509324
0.070336796 0.153319 0.26581198
0.11704447 0.153319 0.26011914
0.148139 0.15854058 0.26449758
-0.096834391 0.17198801 0.26824778
-0.031986929 0.171988 0.26352209
0.015166894 0.17198798 0.2616075
0.038515948 0.17198798 0.26991054
0.020992953 0.153319 0.27956429
0.078315713 0.171988 0.27744919
0.14536901 0.171988 0.27061138
-0.13595963 0.153319 0.28712294
-0.026764505 0.153319 0.2880432
0.060550041 0.153319 0.28659084
0.148139 0.15683839 0.28097934
0.012984361 0.171988 0.28550133
-0.054887168 0.153319 0.29861045
-0.012983037 0.153319 0.29852992
-0.0087659322 0.153319 0.29876369
0.088003509 0.153319 0.29458863
-0.12673357 0.171988 0.29155928
-0.070675291 0.171988 0.29637113
-0.059092425 0.171988 0.29838097
-0.005419828 0.153319 0.30332515
0.10849443 0.153319 0.30208182
-0.12899119 0.153319 0.31838167
0.015549395 0.153319 0.31854969
-0.091007441 0.153319 0.32167196
-0.10845905 0.171988 0.329662
0.03541353 0.17198801 0.32340929
0.051943608 0.17198798 0.32627773
0.14355631 0.153319 0.33733371
0.148139 0.16321997 0.33140606
0.040917967 0.171988 0.3350133
-0.013588412 0.153319 0.34439737
0.065114275 0.153319 0.3478629
0.078975499 0.153319 0.34106302
-0.035549935 0.171988 0.34107625
0.10595423 0.171988 0.34370512
0.14037964 0.17198798 0.34588116
0.03732948 0.171988 0.35356769
0.084691606 0.171988 0.35627061
-0.153842 0.15957193 0.36876225
-0.091925897 0.153319 0.36876735
-0.04311201 0.153319 0.36669466
0.083518982 0.153319 0.36027652
0.11136712 0.153319 0.36757839
-0.098864093 0.171988 0.3657203
0.038083613 0.171988 0.36796084
-0.080064014 0.153319 0.37970221
0.079235129 0.153319 0.3767606
0.019532818 0.171988 0.37368309
0.034622218 0.153319 0.3863717
0.148139 0.15925173 0.38596547
-0.070061959 0.171988 0.38236329
0.0065239891 0.171988 0.38151219
0.065171324 0.17198801 0.38631696
0.10534504 0.17198801 0.38104066
0.12464677 0.171988 0.38853118
-0.13035591 0.15445586 0.39392799
0.14531678 0.15826428 0.39392799
-0.11101472 0.16339752 0.39392799
0.14276573 0.16146082 0.39392799
