# .PCD v0.7 - Point Cloud Data file format
VERSION 0.7
FIELDS x y z
SIZE 4 4 4
TYPE F F F
COUNT 1 1 1
WIDTH 985
HEIGHT 1
VIEWPOINT 0 0 0 1 0 0 0
POINTS 985
DATA ascii
-0.12379467 -0.28288001 -0.27592611
-0.092197552 -0.28288001 -0.27586642
-0.10444181 -0.25817642 -0.27733299
0.22937246 -0.25073761 -0.27733299
0.23535924 -0.24692167 -0.27733299
-0.28491023 -0.23786689 -0.27733299
-0.18014884 -0.23815784 -0.27733299
-0.1515536 -0.2362479 -0.27733299
-0.1238676 -0.23831756 -0.27733299
-0.19160828 -0.22426595 -0.27733299
0.016550437 -0.22986069 -0.27733299
0.1616215 -0.22263344 -0.27733299
0.17626515 -0.22055468 -0.27733299
-0.30369499 -0.21408826 -0.27733299
0.039346568 -0.21822569 -0.27733299
0.15550175 -0.21524014 -0.27733299
0.2120001 -0.21778326 -0.27733299
-0.22962332 -0.20102614 -0.27733299
0.2248086 -0.20927583 -0.27733299
-0.19987257 -0.19350022 -0.27733299
-0.16844586 -0.19353956 -0.27733299
-0.24120246 -0.18349874 -0.27733299
-0.20751742 -0.1812236 -0.27733299
0.089278214 -0.17029753 -0.27733299
0.10447364 -0.17867172 -0.27733299
-0.025423616 -0.16390462 -0.27733299
-0.30414897 -0.1553176 -0.27733302
-0.1956366 -0.15409411 -0.27733299
-0.14682968 -0.15921791 -0.27733299
-0.12880552 -0.15511134 -0.27733299
-0.21195664 -0.14475676 -0.27733299
0.0073546618 -0.14326367 -0.27733299
-0.089398555 -0.13835092 -0.27733299
-0.04753428 -0.13454281 -0.27733299
0.24959999 -0.13738811 -0.27245814
-0.2988584 -0.1285331 -0.27733299
-0.13727736 -0.12897192 -0.27733299
0.16585977 -0.11106364 -0.27733299
-0.28937316 -0.10183807 -0.27733299
-0.26591969 -0.092530042 -0.27733299
-0.12310956 -0.07296516 -0.27733296
-0.020745531 -0.075157851 -0.27733299
-0.092339724 -0.06956394 -0.27733299
0.01871904 -0.065127127 -0.27733299
0.043275364 -0.06975729 -0.27733299
-0.29904056 -0.050002046 -0.27733299
-0.26799032 -0.046960413 -0.27733299
-0.20922901 -0.030016325 -0.27733299
-0.15375742 -0.036997095 -0.27733299
-0.034274615 -0.03095118 -0.27733299
-0.00037014065 -0.031252798 -0.27733299
0.05237449 -0.037426233 -0.27733299
0.070353135 -0.036378488 -0.27733299
0.22190128 -0.033970229 -0.27733299
0.24959999 -0.038147539 -0.27087566
-0.28501445 -0.021444574 -0.27733299
-0.15026197 -0.029050197 -0.27733299
-0.034053825 -0.023938969 -0.27733299
0.034521885 -0.029421281 -0.27733299
0.089112066 -0.025113877 -0.27733299
0.18223223 -0.02369678 -0.27733299
-0.23070227 -0.012574092 -0.27733299
0.0086147785 -0.011280552 -0.27733299
0.041044593 -0.018370315 -0.27733299
0.21228608 -0.016930133 -0.27733299
-0.30506599 -0.007087335 -0.27239919
-0.2910229 -0.0096565336 -0.27733299
-0.20874906 -0.0077826232 -0.27733299
-0.185669 -0.0081048012 -0.27733299
0.099436738 -0.0053920969 -0.27733299
0.11634877 -0.0074008182 -0.27733299
-0.20118551 0.0083914325 -0.27733299
-0.056163155 0.0044648349 -0.27733299
0.018600762 0.0016276762 -0.27733299
0.050781757 0.0099275783 -0.27733299
0.068870343 0.0040150434 -0.27733299
0.2297622 0.0062125521 -0.27733299
0.24959999 0.0068526734 -0.27626631
-0.10799626 0.019557975 -0.27733299
-0.15043959 0.022353873 -0.27733299
-0.24322364 0.031253994 -0.27733299
0.24959999 0.034219217 -0.27167332
-0.27057183 0.049179077 -0.27733302
-0.18248197 0.046315312 -0.27733299
-0.097007468 0.040623374 -0.27733299
0.1045424 0.046475559 -0.27733299
0.13348949 0.05313985 -0.27733299
0.15009952 0.059884936 -0.27733299
-0.27183694 0.065040261 -0.27733299
-0.076172277 0.06752748 -0.27733299
0.061083909 0.067429855 -0.27733299
0.082780525 0.063498802 -0.27733299
0.10537737 0.064745359 -0.27733299
0.18545258 0.060835369 -0.27733299
0.0063462332 0.070713699 -0.27733299
0.14230829 0.07337115 -0.27733299
-0.19880149 0.083867349 -0.27733299
-0.10219154 0.088047013 -0.27733299
-0.03143302 0.087018378 -0.27733299
-0.27538425 0.098942474 -0.27733299
-0.2569305 0.099472776 -0.27733299
-0.12886143 0.097773932 -0.27733299
-0.063113391 0.090250865 -0.27733299
0.092075385 0.093169741 -0.27733299
-0.21800762 0.11954753 -0.27733299
-0.18694079 0.11546925 -0.27733299
0.19902693 0.11090338 -0.27733299
-0.26400986 0.12321829 -0.27733299
0.20671275 0.13378282 -0.27733296
-0.25529993 0.14554006 -0.27733299
-0.24336407 0.14326249 -0.27733299
-0.1710771 0.1491877 -0.27733299
-0.1124971 0.14271988 -0.27733299
-0.058346383 0.1498896 -0.27733299
0.012690559 0.14569634 -0.27733299
0.19120972 0.14935124 -0.27733299
-0.098724842 0.16763547 -0.27733299
0.24877843 0.16486874 -0.27733299
-0.24648312 0.17833796 -0.27733299
-0.0036890954 0.17836981 -0.27733299
0.07126943 0.17816845 -0.27733296
-0.13268165 0.18898183 -0.27733299
-0.077101946 0.18214726 -0.27733299
0.16522689 0.18498878 -0.27733299
-0.12543777 0.19479206 -0.27733299
-0.073070265 0.19795631 -0.27733299
0.24058263 0.19401643 -0.27733299
0.031837583 0.20189315 -0.27733299
0.094648346 0.2026044 -0.27733299
-0.26656997 0.21053791 -0.27733299
-0.21433705 0.21440899 -0.27733299
-0.17419021 0.21156578 -0.27733299
-0.10977852 0.21022208 -0.27733299
-0.066298693 0.21822755 -0.27733299
0.13719967 0.21853457 -0.27733299
0.24919239 0.21934952 -0.27733302
-0.10304817 0.22066316 -0.27733299
0.15115991 0.22467317 -0.27733299
0.21592474 0.22790733 -0.27733299
-0.015948731 0.23497722 -0.27733299
-0.0047243517 0.23458646 -0.27733299
0.069483221 0.23182668 -0.27733299
0.22892633 0.23190136 -0.27733299
-0.15356846 0.24025144 -0.27733299
-0.094603546 0.24591982 -0.27733299
0.22838396 0.24073496 -0.27733299
-0.22001009 0.25310591 -0.27733299
-0.28774488 0.26029256 -0.27733299
-0.14649065 0.26055321 -0.27733299
0.063609384 0.26911342 -0.27733299
0.14281991 0.26971206 -0.27733296
0.20270109 0.26589939 -0.27733299
-0.20894851 0.27698803 -0.27733299
-0.11520585 0.27935839 -0.27733299
-0.13389264 0.28288001 -0.27246198
-0.066664457 0.28078896 -0.27733299
0.016725376 0.28288001 -0.27400923
0.21922229 0.28288001 -0.27657077
-0.30506599 -0.21025199 -0.26765674
-0.30506599 -0.010341227 -0.26781714
0.24959999 0.075409628 -0.26059878
0.24959998 0.13703221 -0.26932359
0.24959999 0.15799046 -0.26720273
0.11977074 0.19220409 -0.26356301
0.074082084 0.21414608 -0.26356301
0.23387283 0.22043458 -0.26356301
0.19345671 0.24078672 -0.26356301
0.27487206 0.24406822 -0.26356301
0.18191953 0.26516956 -0.26356301
0.24954499 0.27980965 -0.26025194
-0.30131337 0.28288001 -0.26487178
0.079962529 -0.28288001 -0.2513938
0.24959999 -0.10006292 -0.25334159
-0.30506599 -0.080502637 -0.25823778
-0.30506599 -0.059003621 -0.259556
-0.30506599 -0.026272446 -0.2593984
0.2010354 0.18639898 -0.25466397
0.21400465 0.186399 -0.25345153
0.2662459 0.186399 -0.25538483
0.27949828 0.186399 -0.25541532
-0.30506599 0.26997229 -0.25271091
-0.088828951 0.28288001 -0.25172362
-0.20720574 -0.28288001 -0.24882296
-0.30506599 -0.21883567 -0.2461417
0.24959999 -0.15669407 -0.24006799
-0.30506599 -0.14377283 -0.24632631
0.24959999 -0.10865939 -0.24628589
-0.30506599 0.12439489 -0.24482174
0.12185757 0.18639901 -0.24714363
0.1950897 0.186399 -0.2492879
-0.30506599 0.2716282 -0.24011028
-0.08287394 0.28288001 -0.24563703
-0.065115929 0.28288001 -0.24804074
0.13264656 -0.28288001 -0.23501083
0.24959999 -0.22196667 -0.23047407
-0.30506599 -0.19995344 -0.23272792
0.24959999 -0.17879099 -0.2343667
0.24959999 -0.049746163 -0.23184466
0.24959999 0.059529606 -0.23048317
-0.30506599 0.067932025 -0.23311678
-0.30506599 0.11752664 -0.2342056
0.0554666 0.19324467 -0.23902816
-0.043009102 0.28288001 -0.23800521
0.071729586 0.28288001 -0.23607036
0.050538585 -0.28288001 -0.22975606
-0.30506599 -0.24290283 -0.22582395
0.24959999 -0.22129959 -0.22352466
-0.30506599 -0.12062927 -0.2232355
-0.30506599 -0.11635432 -0.22040153
0.24959999 -0.11542471 -0.22446835
-0.30506599 -0.059834167 -0.22042939
0.24959999 0.020075068 -0.22954684
0.24959999 0.11854846 -0.22183815
0.24959999 0.13155122 -0.22952075
0.093665287 0.17636076 -0.2288994
0.16451859 0.186399 -0.22732955
0.22827037 0.18639898 -0.22509323
-0.30506599 0.22407685 -0.22111462
0.30506599 0.26320991 -0.22300912
0.24954501 0.27818978 -0.22381462
-0.17300971 0.28288001 -0.2226925
-0.058020376 0.28288001 -0.22585036
0.12506054 0.28288001 -0.22955412
0.19121416 0.28288001 -0.221367
-0.19663344 -0.28288001 -0.21456175
-0.014549896 -0.28288001 -0.21999782
-0.30506599 -0.21500173 -0.21514468
-0.30506599 -0.20078215 -0.21637012
0.24959999 -0.19492805 -0.21190995
0.24959999 -0.17161115 -0.21403021
-0.30506599 -0.15245101 -0.21583441
0.16251022 0.186399 -0.21673305
0.22462173 0.186399 -0.21186092
0.27539963 0.21671024 -0.216416
0.29273084 0.23799203 -0.216416
0.22974521 0.26068369 -0.216416
0.26921496 0.26723647 -0.216416
0.061563786 0.27178699 -0.21391124
0.21838327 0.27178699 -0.21133927
0.24954501 0.27528679 -0.21503815
-0.11533911 0.28288001 -0.21926321
0.18594126 0.28288001 -0.21723622
-0.27568346 -0.28288001 -0.20243672
-0.23982245 -0.28288001 -0.20679152
-0.13123861 -0.28288001 -0.20128796
-0.092264816 -0.28288001 -0.20317575
0.1991287 -0.28288001 -0.20017323
0.24959999 -0.11857426 -0.20895742
-0.30506599 -0.013215587 -0.20544589
0.24959999 0.060017273 -0.20758274
0.062284704 0.186399 -0.2029373
0.11793017 0.186399 -0.20754051
0.22882275 0.186399 -0.20793152
0.0554666 0.20340581 -0.20228991
0.30506599 0.21138278 -0.20347875
-0.27629459 0.28288001 -0.20318797
-0.065239049 0.28288001 -0.2004545
0.022324938 0.28288001 -0.20851213
0.11658558 0.28288001 -0.2005294
0.16758226 0.28288001 -0.205118
0.21685246 0.28288001 -0.20206365
-0.19943234 -0.28288001 -0.1948109
0.037630308 -0.28288001 -0.19912621
0.24959999 -0.25682163 -0.19317247
-0.30506599 -0.24436134 -0.19759338
-0.30506599 -0.099221788 -0.19387838
-0.30506599 0.16846886 -0.19084001
-0.30506599 0.1762259 -0.19781494
0.24535827 0.186399 -0.19076148
0.0554666 0.20894065 -0.19690418
0.30506599 0.24507545 -0.19232845
0.147635 0.28288001 -0.19581404
-0.18134429 -0.28288001 -0.18915434
-0.10570887 -0.28288001 -0.18978295
0.16219139 -0.28288001 -0.18302576
0.22230604 -0.28288001 -0.18536198
0.24959999 -0.26192522 -0.18991596
0.24959999 -0.16659629 -0.18914279
0.24959998 -0.12263557 -0.18658546
-0.30506599 0.15836796 -0.18074885
-0.30506599 0.17060609 -0.18508019
-0.30506599 0.20196196 -0.18442166
0.12614693 0.27178699 -0.18596548
-0.20980567 0.28288001 -0.18487966
-0.16069931 0.28288001 -0.18473065
0.067963958 0.28288001 -0.1885432
-0.19049418 -0.28288001 -0.17393556
0.001545772 -0.28288001 -0.17431122
0.059628297 -0.28288001 -0.17257468
0.16533788 -0.28288001 -0.17300819
0.24959999 -0.14717387 -0.17054029
-0.30506599 -0.12723573 -0.17707326
-0.30506599 -0.015353039 -0.17953792
0.24959999 -0.013287869 -0.17427798
0.24959999 -0.0012283651 -0.17503457
0.24959999 0.066999629 -0.1724153
0.24959999 0.10448676 -0.17628789
0.1329748 0.18639898 -0.17164595
-0.30506599 0.20452398 -0.17557481
0.0554666 0.23621768 -0.17531174
0.082946524 0.27178699 -0.17182454
-0.26421502 0.28288001 -0.17216495
-0.20942222 0.28288001 -0.17882143
-0.1003748 0.28288001 -0.17152742
-0.08630538 0.28288001 -0.17629223
-0.037402526 0.28288001 -0.17253186
0.23839845 0.28288001 -0.17690887
-0.039172947 -0.28288001 -0.16084769
0.099307269 0.186399 -0.16470762
0.17448609 0.186399 -0.16392811
-0.29035956 -0.28288001 -0.15313193
-0.2120416 -0.28288001 -0.15465528
-0.1721258 -0.28288001 -0.15028939
0.014144309 -0.28288001 -0.15574245
0.19951314 -0.28288001 -0.1595172
0.24959999 -0.12813281 -0.15295079
-0.30506599 -0.10880831 -0.15083918
-0.30506599 0.1709294 -0.15338314
0.26517102 0.18639901 -0.15767284
-0.30506599 0.21717204 -0.15977851
0.055696651 0.22645476 -0.154135
0.27628407 0.22424437 -0.154135
0.30506599 0.22256932 -0.15140052
0.15032879 0.23539628 -0.154135
0.2368875 0.24425194 -0.15413499
0.29728723 0.24224304 -0.154135
0.12362881 0.2647911 -0.154135
0.16947863 0.26559976 -0.154135
0.21622886 0.26039669 -0.154135
0.24954501 0.27352852 -0.15579817
-0.28149223 0.28288001 -0.15982872
-0.22276072 0.28288001 -0.15434185
-0.13101389 0.28288001 -0.15042815
-0.068640977 0.28288001 -0.15378416
-0.25774574 -0.28288001 -0.1461827
-0.30506599 -0.02380117 -0.14682885
0.24959999 0.17325467 -0.14886585
0.1678272 0.27178699 -0.14781003
-0.2672419 -0.28288001 -0.13196388
-0.22052637 -0.28288001 -0.13466702
-0.060863249 -0.28288001 -0.13183966
0.090464532 -0.28288001 -0.13134553
0.16683316 -0.28288001 -0.13698167
0.17170773 -0.28288001 -0.13623138
0.19542402 0.27178699 -0.13494661
-0.29825965 0.28288001 -0.13416207
-0.17106089 0.28288001 -0.13373977
-0.15681311 0.28288001 -0.1389304
-0.14899972 0.28288001 -0.13776276
-0.090759367 0.28288001 -0.13684568
-0.04637656 0.28288001 -0.13824038
0.17188904 0.28288001 -0.1348701
-0.26715529 -0.28288001 -0.12511709
0.087421164 -0.28288001 -0.12481555
0.12107912 -0.28288001 -0.12906307
0.19954102 -0.28288001 -0.12402069
0.24959999 -0.22435877 -0.12379454
-0.30506599 -0.18967775 -0.1232681
0.24959999 -0.18826741 -0.1226763
-0.30506599 -0.076011725 -0.12556455
-0.30506599 0.0052380897 -0.12067343
0.24959999 0.10907163 -0.12414367
0.24959999 0.13824287 -0.12608461
0.24959999 0.15139839 -0.12903187
0.12135379 0.186399 -0.12532729
-0.23609902 0.28288001 -0.12316512
-0.10160418 0.28288001 -0.12540907
-0.30506599 -0.24727747 -0.11417155
0.24959999 -0.22520846 -0.11413271
-0.30506599 0.010941982 -0.11976478
0.22186601 0.012878129 -0.11747178
-0.30506599 0.026346296 -0.11530639
-0.30506599 0.044886172 -0.11864441
-0.30506599 0.15976411 -0.11522071
0.079682991 0.186399 -0.1141322
0.28717434 0.186399 -0.11173297
0.30232656 0.18639901 -0.11857724
0.30506599 0.22801356 -0.11181749
-0.0068076923 -0.28288001 -0.10300141
0.10393718 -0.28288001 -0.10246132
0.24959999 -0.22481278 -0.10788664
-0.30506599 -0.19374938 -0.10277173
-0.30506599 -0.071111709 -0.10731468
0.22186601 -0.0050952053 -0.10071873
-0.30506599 0.15274626 -0.1061509
0.0554666 0.23986876 -0.10932919
0.20920241 0.27178699 -0.1087128
0.070388243 0.28288001 -0.10467689
0.12569761 0.28288001 -0.10874116
-0.29005057 -0.28288001 -0.092647746
-0.26964748 -0.28288001 -0.092848189
-0.21152733 -0.28288001 -0.092480481
-0.00027796626 -0.28288001 -0.090336561
0.1480131 -0.28288001 -0.095376484
0.19705561 -0.28288001 -0.093020827
-0.30506599 -0.087376304 -0.090414412
-0.30506599 -0.077776089 -0.098534495
0.22186598 -0.054844365 -0.095281318
0.0752832 0.19770005 -0.098667502
0.088884056 0.19034526 -0.098667502
0.14139144 0.19665551 -0.098667502
-0.30506599 0.20403931 -0.097569644
0.068404242 0.20140828 -0.098667502
0.11324361 0.20482087 -0.098667502
0.23105438 0.210493 -0.098667502
0.2883423 0.224962 -0.098667502
0.17850158 0.23241925 -0.098667502
0.055854939 0.26072997 -0.098667502
0.21993311 0.26323649 -0.098667502
-0.23148924 0.28288001 -0.094233558
0.1079166 0.28288001 -0.092852838
0.22272979 0.28288001 -0.094713844
-0.26999369 -0.28288001 -0.083614409
-0.15391544 -0.28288001 -0.087085582
-0.12367953 -0.28288001 -0.082894534
-0.083332792 -0.28288001 -0.08333686
0.15705335 -0.28288001 -0.080291376
0.20682862 -0.28288001 -0.086164817
-0.30506599 -0.27117366 -0.089097589
0.22186598 0.0107548 -0.085216396
-0.30506599 0.28196844 -0.086823054
0.1895967 0.28288001 -0.083879985
-0.18407328 -0.28288001 -0.076771878
0.24959999 -0.20743236 -0.076997645
-0.30506599 -0.073369578 -0.077032462
0.238507 0.27029583 -0.071969703
0.18594618 0.28288001 -0.079187989
0.02924671 -0.28288001 -0.067866869
-0.30506599 -0.20644414 -0.067003712
-0.30506599 -0.1564711 -0.067526475
0.221866 -0.11474288 -0.060478255
-0.30506599 -0.10404301 -0.066984005
-0.30506599 -0.069016971 -0.063389055
-0.30506599 -0.014512837 -0.064539969
-0.30506599 0.2655035 -0.063627556
0.24954501 0.27890742 -0.067918554
0.079822823 0.28288001 -0.064869002
0.12176386 0.28288001 -0.06431479
-0.16161345 -0.28288001 -0.059478194
0.24959999 0.16572602 -0.055603664
-0.2572782 0.28288001 -0.055981338
-0.23785788 0.28288001 -0.056285195
-0.13044068 0.28288001 -0.05529049
0.068979286 0.28288001 -0.056067213
0.22024967 0.28288001 -0.05425296
-0.050549991 -0.28288001 -0.043830641
0.221866 -0.093758576 -0.042406496
-0.30506599 0.14372444 -0.045302697
0.24959999 0.15896726 -0.048452616
-0.30506599 0.20137736 -0.041183755
0.25417599 0.26355323 -0.041500159
0.23898557 0.27104181 -0.044180803
-0.010481089 0.28288001 -0.042629808
0.13503042 0.28288001 -0.048597477
-0.19771269 -0.28288001 -0.030732729
0.23799452 -0.28288001 -0.037736006
-0.30506599 -0.24285853 -0.038754389
-0.30506599 -0.13015947 -0.038977079
-0.30506599 -0.10951656 -0.031913079
0.221866 -0.095046259 -0.039194655
-0.30506599 -0.073978551 -0.030621029
-0.30506599 -0.040067486 -0.038131975
0.238507 0.20775011 -0.035937332
0.28634143 0.20567644 -0.038093135
0.24037226 0.27178699 -0.030745342
-0.063036151 0.28288001 -0.03568694
-0.28692824 -0.28288001 -0.028066657
-0.24940753 -0.28288001 -0.022218078
0.0019849613 -0.28288001 -0.025411278
0.24959999 -0.24139178 -0.029237902
0.24959999 -0.22441185 -0.029049141
-0.30506599 -0.17709891 -0.025208235
0.221866 -0.0911621 -0.029196797
-0.30506599 -0.060602643 -0.022572272
0.221866 0.034206569 -0.0261978
-0.30506599 0.050211474 -0.021365462
-0.30506599 0.10461978 -0.028682545
0.28407896 0.20974751 -0.027313992
-0.30506599 0.26651728 -0.029866382
0.238507 0.26743394 -0.028868007
0.057674319 0.28288001 -0.023808092
0.1266692 0.28288001 -0.022787895
-0.29473573 -0.28288001 -0.011424094
-0.21507722 -0.28288001 -0.014192551
-0.18062019 -0.28288001 -0.010832772
0.01977618 -0.28288001 -0.012093097
-0.30506599 -0.085262373 -0.01199824
-0.30506599 0.11917281 -0.014366869
-0.30506599 0.13621664 -0.010690771
0.23850699 0.19898421 -0.01542392
-0.30506599 0.21067733 -0.010092497
0.25315353 0.26539254 -0.012763549
0.090551794 0.28288001 -0.011987127
-0.29371893 -0.28288001 -0.0029435903
0.027704678 -0.28288001 -0.0010812283
0.22186598 -0.16283569 -0.007483976
-0.30506599 -0.070563465 -0.0069522168
-0.30506599 -0.057201594 -0.0055510923
-0.30506599 0.097286806 -0.00040401146
0.27418649 0.22754765 -0.0086392704
-0.10939403 0.28288001 -0.0057082027
0.054709807 0.28288001 -0.0029684678
0.098253876 0.28288001 -0.0055638626
0.15682703 0.28288001 -0.00088789314
-0.052829094 -0.28288001 0.0022108341
0.16078499 -0.28288001 0.0066315755
0.24959999 -0.27239513 0.005550921
0.24959999 -0.23576397 0.00672815
0.221866 -0.032918125 0.0042460449
0.221866 0.046506722 0.0045035407
0.238507 0.21504292 0.0061102957
0.26207876 0.24933323 0.00063146278
0.238507 0.25302178 0.0029397793
-0.07982786 0.28288001 0.0054549761
0.15631819 0.28288001 0.0037130192
0.17778285 0.28288001 0.00434836
-0.017261982 -0.28288001 0.018367052
0.1783015 -0.28288001 0.013026215
0.24959999 -0.22322941 0.018085374
0.238507 0.19249207 0.012902426
0.24499136 0.191945 0.013419546
0.25919646 0.23528849 0.01425926
-0.2555097 0.28288001 0.012645036
-0.24581364 0.28288001 0.011071235
-0.19921948 0.28288001 0.014661551
-0.092718475 0.28288001 0.010366946
-0.063413277 0.28288001 0.018618435
0.10232522 0.28288001 0.012198322
0.024457589 -0.28288001 0.022383735
-0.30506599 -0.24391747 0.026056752
0.24959999 -0.21297529 0.023093384
-0.30506599 -0.18853328 0.022365376
0.22186601 -0.16677779 0.029172063
0.221866 -0.11657151 0.027669694
0.22186601 -0.036480673 0.029764548
-0.30506599 -0.029989183 0.023945972
0.221866 0.059264854 0.026622513
0.24959999 0.17671005 0.020387858
-0.022803262 0.28288001 0.024828918
-0.17503318 -0.28288001 0.038103726
-0.092992634 -0.28288001 0.035568088
-0.044644218 -0.28288001 0.030478172
0.24959999 -0.27464116 0.035412878
0.221866 -0.024860738 0.036012277
0.221866 -0.0095254565 0.039208461
-0.30506599 0.017109692 0.034164384
-0.30506599 0.038380068 0.036263164
-0.30506599 0.11082652 0.033745646
0.27654138 0.22331056 0.031289354
0.25306147 0.24651612 0.039506812
0.25736606 0.2578125 0.037402466
0.24104825 0.26744902 0.03832243
-0.21356016 0.28288001 0.038468726
-0.0087318998 0.28288001 0.038750932
0.23503317 0.28288001 0.038898513
-0.033173382 -0.28288001 0.049940884
0.029043861 -0.28288001 0.044651493
-0.30506599 -0.2721777 0.04545144
-0.066044785 0.28288001 0.04063116
-0.012733066 0.28288001 0.041431382
0.23228875 0.28288001 0.048737831
-0.19274001 -0.28288001 0.05677554
0.24959999 -0.26956391 0.05158779
-0.30506599 -0.22990668 0.054733813
-0.30506599 -0.13458195 0.050724942
0.22186598 -0.10340025 0.059395544
-0.30506599 0.015944909 0.050542686
0.221866 0.021336854 0.055854917
-0.30506599 0.067528725 0.056716591
0.24959999 0.15642253 0.059156481
0.25269866 0.24718016 0.056070022
-0.30506599 0.26316446 0.052988656
-0.2342467 0.28288001 0.054660812
-0.19498266 0.28288001 0.055337138
0.046014428 0.28288001 0.05667083
0.10442103 0.28288001 0.051385283
-0.15667593 -0.28288001 0.068207473
0.24960001 -0.20293385 0.066547483
0.22186598 -0.15450807 0.061882526
0.221866 -0.032720067 0.065111309
0.22186598 -0.028265402 0.067212023
-0.15428758 0.28288001 0.067714542
0.11495577 0.28288001 0.064863443
0.12460044 0.28288001 0.062566146
0.17133702 0.28288001 0.069578372
-0.2210533 -0.28288001 0.079726398
-0.18514101 -0.28288001 0.072876595
0.15425208 -0.28288001 0.074166961
-0.30506599 -0.27724928 0.073028944
0.24959999 -0.27447063 0.070957586
0.24959999 -0.2148373 0.078984693
0.221866 -0.122638 0.073471062
0.221866 -0.011370609 0.076638445
-0.30506599 0.046399683 0.07429333
-0.30506599 0.18470149 0.071081549
0.25935981 0.23498949 0.072789475
0.24951196 0.2530013 0.077738062
0.25009364 0.25194758 0.071821131
-0.1025369 0.28288001 0.074905477
-0.044816423 0.28288001 0.075128369
0.040907837 0.28288001 0.079240635
-0.2533972 -0.28288001 0.086335421
-0.16951138 -0.28288001 0.086395621
-0.028191708 -0.28288001 0.085095763
0.035957471 -0.28288001 0.089313656
0.221866 -0.044286571 0.084857523
0.22186601 -0.03933863 0.080264315
0.22186598 -0.026590277 0.084846906
-0.30506599 -0.015838116 0.086144254
-0.30506599 -0.0064621493 0.084765717
-0.30506599 0.22154254 0.082457833
-0.30506599 0.25171763 0.083784752
0.238507 0.25949925 0.08243005
0.25018039 0.25178879 0.08173722
0.24114819 0.27178699 0.081846468
-0.14338988 0.28288001 0.08656659
0.24284512 -0.28288001 0.095307432
0.24959999 -0.25489575 0.098427877
0.24959999 -0.23484808 0.099455804
-0.30506599 -0.20940438 0.091452897
-0.30506599 -0.19441852 0.094381988
-0.30506599 -0.1568267 0.091390967
0.24959999 0.10433851 0.095765881
0.24959999 0.1341411 0.090432495
0.24959999 0.17492837 0.098233864
0.26986927 0.21575607 0.091887176
0.2794655 0.21804884 0.097533874
-0.21405306 0.28288001 0.092883848
-0.20599331 0.28288001 0.095979206
0.039624836 0.28288001 0.096186556
-0.28734881 -0.28288001 0.10927215
0.025657341 -0.28288001 0.10498346
0.14755186 -0.28288001 0.10043447
0.21226154 -0.28288001 0.10219605
-0.30506599 -0.15599284 0.10830142
-0.30506599 -0.04989934 0.1049764
0.221866 -0.039206065 0.10866717
-0.30506599 0.076508112 0.10878839
0.24959999 0.16237594 0.10049485
-0.14591722 0.28288001 0.10595501
0.093565948 0.28288001 0.10872039
0.19400476 0.28288001 0.10550959
-0.27071872 -0.28288001 0.11279513
0.0018629506 -0.28288001 0.11595085
0.043647449 -0.28288001 0.11558667
0.13996829 -0.28288001 0.11979387
-0.30506599 -0.26555634 0.11158818
-0.30506599 -0.1609835 0.11754777
0.221866 -0.034690533 0.11366567
0.24959999 0.085028045 0.11169267
0.238507 0.19584687 0.11232638
-0.29233605 0.28288001 0.1110777
-0.16380164 0.28288001 0.11974634
-0.072897486 0.28288001 0.11007169
0.22794482 0.28288001 0.11599965
-0.25340089 -0.28288001 0.12776646
-0.22692594 -0.28288001 0.12746832
-0.1305237 -0.28288001 0.12930775
-0.096684873 -0.28288001 0.12858899
0.1416063 -0.28288001 0.1283837
0.17188445 -0.28288001 0.12890872
-0.30506599 -0.18901294 0.12409534
0.221866 -0.0062243626 0.12675668
0.24959999 0.15603444 0.12292136
-0.30506599 0.16969001 0.12234234
0.28463903 0.20873976 0.12991191
0.24954498 0.27815533 0.12260784
-0.28794363 0.28288001 0.12114899
0.026872467 0.28288001 0.12295623
0.040537156 0.28288001 0.12137699
0.13401714 0.28288001 0.12697795
0.15235811 0.28288001 0.12112867
-0.084269978 -0.28288001 0.13919446
0.13604808 -0.28288001 0.13173059
-0.30506599 -0.051626712 0.13715872
-0.30506599 -0.046910863 0.1398963
-0.30506599 -0.011805058 0.13581568
-0.30506599 0.045364089 0.13034932
0.24959999 0.18441358 0.1380461
-0.30506599 0.26125413 0.1335178
-0.11729644 0.28288001 0.13731794
-0.016076237 0.28288001 0.13268103
0.10530617 0.28288001 0.13167462
-0.272277 -0.28288001 0.14617082
-0.10600969 -0.28288001 0.14326778
0.14289817 -0.28288001 0.14261161
0.24959999 -0.21133727 0.14158553
0.24959999 -0.18427299 0.14155303
-0.30506599 -0.091753691 0.14332867
0.24959999 0.14780031 0.14917196
0.26461425 0.24477001 0.14760204
-0.30506599 0.26082328 0.14557344
-0.28315583 0.28288001 0.14475915
-0.25178254 0.28288001 0.1460398
-0.092652403 0.28288001 0.14443992
-0.031873576 0.28288001 0.14038819
0.073610961 0.28288001 0.14743167
-0.16634667 -0.28288001 0.15009041
-0.089198306 -0.28288001 0.15314123
-0.037743267 -0.28288001 0.15436739
0.10347245 -0.28288001 0.15577769
-0.30506599 -0.23761135 0.15932335
-0.30506599 0.060978819 0.15361641
-0.30506599 0.1859757 0.1576415
-0.26264542 0.28288001 0.15400432
-0.014976293 0.28288001 0.15680352
-0.25057313 -0.28288001 0.16302061
0.023580186 -0.28288001 0.16130814
0.070775576 -0.28288001 0.16347015
-0.30506599 -0.18441874 0.16546953
0.24959999 0.11008475 0.16069803
0.24959999 0.1615172 0.16685295
-0.30506599 0.21137443 0.16761932
0.25869071 0.23621403 0.16502932
0.26927248 0.23067982 0.16908675
-0.22214952 0.28288001 0.16264296
-0.19481829 0.28288001 0.16093655
0.19762643 0.28288001 0.1678361
-0.24939515 -0.28288001 0.17242596
-0.30506599 -0.26094341 0.17437407
-0.30506599 -0.19363004 0.17382878
-0.30506599 -0.050822683 0.1779712
0.24959999 0.024952171 0.17713226
0.28136313 0.21187349 0.17383276
0.27578941 0.22466375 0.17489615
-0.30296057 0.28288001 0.17705601
-0.086621538 0.28288001 0.17954946
0.13295873 0.28288001 0.17903635
0.09201476 -0.28288001 0.18582657
0.16590157 -0.28288001 0.18612744
-0.30506599 -0.10620555 0.18655561
-0.30506599 -0.087418862 0.18879902
-0.30506599 0.25784039 0.18416634
-0.25309426 -0.28288001 0.19683665
0.2472318 -0.28288001 0.1934756
0.24959999 -0.087427802 0.19302309
0.24959999 -0.077476904 0.19479598
0.24959999 0.05103936 0.19627374
0.238507 0.20053257 0.1920239
0.23850767 0.27178583 0.19199826
-0.2978642 0.28288001 0.19885308
-0.27767897 0.28288001 0.19110085
0.14953525 0.28288001 0.1950991
-0.30506599 -0.28054434 0.20515054
-0.13524735 -0.28288001 0.20642054
-0.0020945966 -0.28288001 0.20853363
-0.30506599 -0.16254854 0.2044908
-0.30506599 0.065433092 0.20035246
-0.30506599 0.12752716 0.208514
-0.30506599 0.17114925 0.20922162
-0.30506599 0.21884356 0.20401442
0.23877281 0.27133322 0.20715968
-0.15337682 0.28288001 0.20874786
0.1128763 0.28288001 0.20548168
-0.27214542 -0.28288001 0.2130037
-0.07258296 -0.28288001 0.21507007
-0.30506599 -0.17844394 0.21886592
-0.30506599 -0.045536801 0.2149578
0.24959999 0.13590029 0.21240808
-0.30506599 0.15481436 0.21733753
-0.30506599 0.16240369 0.21519451
0.24959999 0.18191034 0.21155527
0.27891377 0.19920363 0.21727797
-0.30506599 0.27311844 0.21484686
0.085864678 0.28288001 0.2117174
0.14899629 0.28288001 0.2131286
0.18021509 0.28288001 0.21515688
-0.24481006 -0.28288001 0.22074968
-0.23128667 -0.28288001 0.2262288
-0.017732576 -0.28288001 0.22280005
-0.30506599 0.088028088 0.22428064
-0.30506599 0.17231303 0.22806366
0.238507 0.21888503 0.22282127
-0.30506599 0.26450449 0.22296023
-0.30506599 0.27175614 0.2222762
-0.10926338 0.28288001 0.2222835
-0.039609343 0.28288001 0.2295087
0.13608247 -0.28288001 0.23821455
0.24960001 -0.18005052 0.23373368
0.24959999 -0.10679536 0.23613381
-0.30506599 -0.059049219 0.23856042
-0.30506599 -0.03765586 0.2329661
0.24959999 0.063058101 0.23059431
-0.30506599 0.11592506 0.23107025
-0.30506599 0.19750491 0.23162247
0.2690582 0.23106535 0.23790756
-0.30506599 0.25643474 0.23206855
-0.24467732 0.28288001 0.23921686
0.031665884 0.28288001 0.23622444
0.053606205 -0.28288001 0.2459816
0.11488207 -0.28288001 0.24857309
0.24959999 -0.27012604 0.24597666
0.24959999 -0.14701822 0.24507469
0.24959999 -0.11968684 0.24380133
0.24959999 0.076053768 0.24581751
-0.30506599 0.11587557 0.24601994
0.24959998 0.17337345 0.24016525
0.27227002 0.21136245 0.24835545
0.25451028 0.24386469 0.2449472
0.25188357 0.26767728 0.24536383
0.24840905 0.27178699 0.24865083
-0.16644432 0.28288001 0.24918592
0.0056022927 0.28288001 0.24957845
0.13335329 0.28288001 0.24084379
0.24477038 0.28288001 0.2450873
-0.20731047 -0.28288001 0.25921756
0.17197394 -0.28288001 0.25400019
0.18388991 -0.28288001 0.25954884
-0.30506599 -0.19155505 0.25757396
-0.30506599 -0.16642991 0.25136116
0.24959999 -0.02293472 0.25168532
-0.30506599 0.071640514 0.25348467
0.27156216 0.21417472 0.255146
0.238507 0.22673002 0.25383183
0.24229369 0.2254307 0.255146
0.24770711 0.26784778 0.255146
-0.22048587 0.28288001 0.25165871
-0.12272179 0.28288001 0.25974697
-0.27128935 -0.28288001 0.26723802
0.019149937 -0.28288001 0.26558322
-0.30506599 -0.082181811 0.26249343
0.24954498 0.21469104 0.26684299
-0.28794476 -0.28288001 0.27507499
-0.097545877 -0.28252181 0.27733299
-0.045437343 -0.28288001 0.27203491
0.012347874 -0.28288001 0.27479663
0.026404351 -0.28288001 0.27667418
0.17154983 -0.28241527 0.27733299
0.22622319 -0.28288001 0.27527252
0.14572966 -0.27427274 0.27733299
-0.14655899 -0.26375288 0.27733296
-0.055775728 -0.26339978 0.27733299
-0.06348893 -0.23950136 0.27733299
0.24816461 -0.2370007 0.27733299
-0.30506599 -0.22805619 0.27483189
-0.14410529 -0.22740731 0.27733299
0.016212352 -0.22719589 0.27733299
-0.25954762 -0.20746502 0.27733299
0.1147819 -0.20032927 0.27733299
-0.28635174 -0.19560646 0.27733299
-0.21492612 -0.19924036 0.27733299
0.22975531 -0.19936602 0.27733299
-0.15735503 -0.18928798 0.27733299
-0.21679993 -0.17220676 0.27733299
0.14149387 -0.17128906 0.27733299
-0.30506599 -0.16336492 0.27577087
0.0013008639 -0.16846976 0.27733299
-0.28043443 -0.15064491 0.27733299
0.13801545 -0.14124806 0.27733299
0.17163071 -0.14795345 0.27733299
-0.23243061 -0.13013452 0.27733299
-0.011612281 -0.1384865 0.27733299
0.13497259 -0.13603236 0.27733299
0.14489631 -0.13865839 0.27733299
-0.0095376819 -0.12002612 0.27733299
0.0071844459 -0.1246215 0.27733299
0.12010692 -0.1297068 0.27733299
0.16082937 -0.12887652 0.27733299
-0.28586072 -0.11107328 0.27733299
-0.18324928 -0.11250748 0.27733299
-0.0024202168 -0.11635968 0.27733299
-0.30506599 -0.10456564 0.27456361
-0.079750046 -0.10119279 0.27733299
0.099249989 -0.10729212 0.27733299
0.15500346 -0.091624528 0.27733299
0.18720332 -0.097977124 0.27733299
-0.072170697 -0.085083529 0.27733299
0.14441726 -0.082811773 0.27733299
0.16732647 -0.084050067 0.27733299
-0.2523632 -0.071535014 0.27733299
0.18325576 -0.071086675 0.27733299
-0.075070016 -0.060962468 0.27733299
-0.23842523 -0.055414021 0.27733299
0.046886027 -0.057441708 0.27733299
0.18537267 -0.056100253 0.27733299
-0.22941607 -0.043848291 0.27733299
-0.01381696 -0.049924381 0.27733299
0.18248205 -0.044865057 0.27733299
-0.27125955 -0.037306145 0.27733299
-0.26105368 -0.024823509 0.27733299
-0.14034639 -0.020351358 0.27733299
-0.097386964 -0.021213736 0.27733299
0.039192472 -0.024667855 0.27733299
0.18518192 -0.026258856 0.27733299
-0.27369297 -0.017474756 0.27733299
0.14656626 -0.01504425 0.27733299
-0.15083201 -0.0064975098 0.27733299
-0.095316306 -0.0082768798 0.27733299
-0.21729627 0.0065835193 0.27733299
-0.20871738 0.0073184073 0.27733299
-0.18589912 0.0045558065 0.27733299
0.10289371 0.0030502379 0.27733299
0.14107554 0.0013173074 0.27733299
0.2388542 0.0061741918 0.27733296
-0.25120628 0.024714105 0.27733299
-0.2128994 0.029953577 0.27733299
-0.2152696 0.032217093 0.27733299
-0.11637571 0.039542172 0.27733299
-0.085924894 0.035349652 0.27733299
-0.050607555 0.033158571 0.27733299
0.022884311 0.033566363 0.27733299
0.030250631 0.048826173 0.27733299
0.10015675 0.047273204 0.27733299
0.14732057 0.050854523 0.27733299
0.21896616 0.052443124 0.27733299
0.22994545 0.053627364 0.27733299
0.11247347 0.068020374 0.27733299
0.20761946 0.068109415 0.27733302
-0.27376345 0.076657549 0.27733302
-0.028445024 0.074423678 0.27733299
0.12171727 0.079457283 0.27733299
0.16051573 0.072692975 0.27733299
0.23437491 0.070375323 0.27733299
-0.062716834 0.089135997 0.27733299
-0.044396557 0.097311877 0.27733299
0.053845871 0.094637692 0.27733299
0.13360336 0.09144716 0.27733299
-0.29946077 0.10211438 0.27733299
-0.2139535 0.10879119 0.27733299
-0.17570677 0.10686294 0.27733299
-0.063192293 0.10222522 0.27733299
0.15940507 0.10063478 0.27733299
0.21765132 0.10405125 0.27733299
-0.18757598 0.11200368 0.27733299
-0.13155335 0.11352843 0.27733299
-0.088503741 0.11281234 0.27733299
-0.029418044 0.11843427 0.27733299
0.0030898452 0.11419606 0.27733299
-0.23804054 0.12708794 0.27733299
0.12692373 0.12697348 0.27733299
0.13000593 0.12391902 0.27733299
0.16327567 0.12281333 0.27733299
-0.29242653 0.13721046 0.27733299
-0.26966202 0.13181378 0.27733299
-0.19644 0.13653928 0.27733299
-0.047990788 0.1364691 0.27733299
0.10539944 0.13220599 0.27733299
-0.23189014 0.15863162 0.27733299
-0.12933137 0.15671313 0.27733299
-0.049863353 0.15824783 0.27733299
-0.014204094 0.15189677 0.27733299
-0.18795711 0.16221172 0.27733299
-0.12581113 0.16186197 0.27733299
-0.021420747 0.16030911 0.27733299
0.17984353 0.17875943 0.27733299
-0.19356836 0.18616311 0.27733299
-0.15815362 0.18453722 0.27733299
0.1499196 0.18893903 0.27733299
-0.2558504 0.1914219 0.27733299
-0.13089974 0.19505449 0.27733299
0.21458286 0.19154112 0.27733299
-0.097086929 0.20307176 0.27733299
-0.085324265 0.20361245 0.27733299
-0.28366426 0.21924877 0.27733299
-0.24252923 0.21235102 0.27733299
-0.11832261 0.21870446 0.27733299
-0.0030302852 0.21157384 0.27733299
0.099680588 0.2199721 0.27733299
0.19303833 0.21514159 0.27733299
-0.2474747 0.22251961 0.27733299
-0.072308898 0.22912921 0.27733299
-0.015234336 0.22018079 0.27733299
0.17956051 0.22642961 0.27733299
0.21572006 0.22146417 0.27733299
-0.20768285 0.23936802 0.27733299
-0.11334271 0.23743543 0.27733299
-0.10333754 0.23087282 0.27733299
-0.09911295 0.23669845 0.27733299
0.059645459 0.23584287 0.27733299
0.017116398 0.24038951 0.27733299
0.044840701 0.24898598 0.27733299
-0.16905636 0.25766352 0.27733299
-0.10926884 0.25929144 0.27733302
-0.008054398 0.25341761 0.27733299
-0.22166197 0.26831636 0.27733299
-0.19348791 0.26296732 0.27733299
-0.18062577 0.2608695 0.27733299
-0.083078831 0.26326421 0.27733299
-0.0070755631 0.26371261 0.27733299
0.093878426 0.26257944 0.27733299
-0.16383079 0.27823725 0.27733299
0.051589005 0.27314627 0.27733299
-0.090653703 0.28288001 0.27646902
0.062426835 0.28288001 0.27526924
0.24864723 0.28288001 0.27714708
