# .PCD v0.7 - Point Cloud Data file format
VERSION 0.7
FIELDS x y z
SIZE 4 4 4
TYPE F F F
COUNT 1 1 1
WIDTH 983
HEIGHT 1
VIEWPOINT 0 0 0 1 0 0 0
POINTS 983
DATA ascii
0.044610597 -0.33245903 -0.29059899
-0.20061654 -0.32247242 -0.29059899
-0.21922085 -0.31301078 -0.29059899
-0.092414923 -0.31231961 -0.29059899
-0.01175417 -0.31970769 -0.29059899
0.012566075 -0.3118318 -0.29059899
0.059401341 -0.31545314 -0.29059899
-0.033930972 -0.30863756 -0.29059899
-0.20055619 -0.29369384 -0.29059899
-0.082426518 -0.29303205 -0.29059899
-0.052138515 -0.29387137 -0.29059899
0.067801952 -0.29219112 -0.29059899
0.15401576 -0.29879016 -0.29059899
-0.077584997 -0.28284883 -0.29059899
0.10674419 -0.28899962 -0.29059899
-0.13304032 -0.27259117 -0.29059899
-0.080638327 -0.2729468 -0.29059899
-0.049062558 -0.27294248 -0.29059899
0.1143069 -0.27853301 -0.29059899
-0.10534922 -0.26966715 -0.29059899
-0.06023562 -0.24224113 -0.29059899
-0.021158129 -0.2410619 -0.29059899
-0.22651872 -0.2344265 -0.29059899
-0.047655884 -0.23916127 -0.29059899
0.14440422 -0.23481891 -0.29059899
0.11911333 -0.22438182 -0.29059899
0.16610239 -0.22497822 -0.29059899
-0.14568833 -0.21949109 -0.29059899
-0.07856141 -0.21938373 -0.29059899
0.022117421 -0.21603397 -0.29059899
0.084164307 -0.21811548 -0.29059899
-0.093201227 -0.20255688 -0.29059899
0.020059593 -0.20453748 -0.29059899
0.13101043 -0.2090759 -0.29059899
0.12806407 -0.19254057 -0.29059899
-0.20086978 -0.18567765 -0.29059899
-0.015937537 -0.18448541 -0.29059899
0.047411025 -0.18205586 -0.29059899
0.080445945 -0.18853568 -0.29059899
-0.19079018 -0.17421971 -0.29059899
-0.031309977 -0.17198125 -0.29059899
-0.19511995 -0.16453728 -0.29059899
0.064750567 -0.14882086 -0.29059899
0.081145793 -0.14494944 -0.29059899
0.16004851 -0.13568065 -0.29059899
-0.034967609 -0.12401152 -0.29059899
0.1787536 -0.12249584 -0.29059899
-0.22899318 -0.11776969 -0.29059899
-0.031968486 -0.11719836 -0.29059899
0.039540827 -0.076788619 -0.29059899
-0.1981415 -0.069634572 -0.29059899
-0.0093747824 -0.063234024 -0.29059899
0.046797633 -0.063759096 -0.29059899
-0.059057385 -0.053361014 -0.29059899
0.0068630148 -0.058981951 -0.29059899
-0.046964198 -0.041355465 -0.29059899
0.16789047 -0.04032347 -0.29059899
-0.02287695 -0.037937 -0.29059899
-0.021164911 -0.024917644 -0.29059899
0.063434288 -0.022826932 -0.29059899
0.087874636 -0.028665721 -0.29059899
0.16054323 -0.021036744 -0.29059899
0.12350233 -0.011748992 -0.29059899
-0.14191175 0.00082168728 -0.29059899
-0.10841556 0.0019896701 -0.29059899
0.026533827 0.00038149953 -0.29059899
-0.11472756 0.019969352 -0.29059899
-0.095140532 0.011605814 -0.29059899
0.049322791 0.018518426 -0.29059899
-0.038796566 0.036352329 -0.29059899
0.17953904 0.033908322 -0.29059899
-0.016478926 0.044868752 -0.29059899
0.022037163 0.043157846 -0.29059899
-0.026365481 0.051386707 -0.29059899
0.0014006705 0.053474382 -0.29059899
0.019113496 0.051571548 -0.29059899
0.1814696 0.054562956 -0.29059899
-0.19844659 0.062526688 -0.29059899
-0.1347678 0.069818556 -0.29059899
-0.20317417 0.070118815 -0.29059899
-0.055007972 0.070301317 -0.29059899
0.15501222 0.071570098 -0.29059899
-0.069140561 0.08458323 -0.29059899
0.063232549 0.083120264 -0.29059899
0.086019635 0.084417656 -0.29059899
-0.16740838 0.098013401 -0.29059899
0.17327157 0.090212241 -0.29059899
0.13919534 0.1030333 -0.29059899
-0.22287844 0.11967073 -0.29059899
-0.01503353 0.11769663 -0.29059899
-0.047514312 0.12458938 -0.29059899
0.11545694 0.12943922 -0.29059899
0.16565901 0.12650001 -0.29059899
-0.21182045 0.13881677 -0.29059899
-0.13453165 0.13079101 -0.29059899
-0.011374934 0.13846485 -0.29059899
-0.22466961 0.14185022 -0.29059899
-0.12500043 0.14773083 -0.29059899
0.061595254 0.14860478 -0.29059899
-0.029748797 0.15492797 -0.29059899
-0.19814369 0.16621234 -0.29059899
0.083964944 0.16039169 -0.29059899
-0.037526652 0.17802072 -0.29059899
-0.024581891 0.17758965 -0.29059899
0.1320034 0.17877629 -0.29059899
0.093588665 0.18349421 -0.29059899
-0.15269659 0.19315913 -0.29059899
0.14125852 0.19894585 -0.29059899
0.16462085 0.19215041 -0.29059899
-0.17191957 0.2066125 -0.29059899
0.010696664 0.2024771 -0.29059899
0.045650855 0.21853212 -0.29059899
-0.20710197 0.22691646 -0.29059899
-0.16278496 0.22363004 -0.29059899
-0.058530279 0.2222344 -0.29059899
0.14732526 0.22040327 -0.29059899
0.14837486 0.23796259 -0.29059899
0.15217754 0.23422343 -0.29059899
-0.16578788 0.24567898 -0.29059899
-0.1182679 0.24786742 -0.29059899
-0.10322763 0.24206045 -0.29059899
-0.03096842 0.25220171 -0.29059899
0.018657766 0.25009063 -0.29059899
0.15386581 0.25895548 -0.29059899
-0.17454085 0.26891473 -0.29059899
0.10719645 0.26373744 -0.29059899
0.089257628 0.27379128 -0.29059899
-0.071887851 0.29228792 -0.29059899
0.17052615 0.29018641 -0.29059899
-0.15076514 0.30330113 -0.29059899
-0.14965656 0.30657044 -0.29059899
0.17739138 0.30709866 -0.29059899
-0.12801562 0.31231692 -0.29059899
-0.076829039 0.33000916 -0.29059899
-0.21459627 -0.33286801 -0.28973812
0.12254135 -0.33286801 -0.28664789
0.18869999 -0.20321086 -0.28146189
-0.233989 -0.1903584 -0.28896219
0.18870001 0.23864748 -0.28427643
-0.23398902 0.267782 -0.28909495
0.16555037 0.33286801 -0.28980029
0.1563116 -0.33286801 -0.27567703
0.18870002 -0.28117481 -0.27980512
-0.233989 -0.16827264 -0.27464563
-0.233989 -0.1445134 -0.27000427
0.18870001 -0.10080608 -0.27623734
-0.233989 -0.077194631 -0.27933919
0.18870001 -0.01707916 -0.27627391
-0.23112927 0.33286801 -0.2775417
-0.12633702 0.33286801 -0.27349591
0.14944701 0.33286801 -0.27769411
-0.15348978 -0.33286801 -0.26638192
-0.13218255 -0.33286804 -0.26303887
-0.071691453 -0.33286801 -0.26981229
-0.065014899 -0.33286801 -0.26153514
-0.040032439 -0.33286801 -0.2685802
-0.035498023 -0.33286801 -0.26157534
-0.233989 -0.30728316 -0.26610395
-0.233989 -0.20168924 -0.26989484
0.18869999 -0.2027391 -0.26984507
-0.233989 -0.19057354 -0.26980504
-0.233989 -0.16466731 -0.26338482
0.18870001 -0.074211195 -0.26887226
0.18870001 0.097676136 -0.26687282
0.18870001 0.13448992 -0.26681501
-0.069203317 0.33286801 -0.26376462
0.017127872 -0.33286798 -0.25936633
0.10216658 -0.33286801 -0.25701541
0.13006604 -0.33286801 -0.25120056
0.16343181 -0.33286798 -0.25059491
0.18870001 -0.31942266 -0.25518334
-0.233989 -0.21604654 -0.25712207
-0.233989 -0.1428334 -0.2584998
0.18870001 -0.0458024 -0.25677529
0.18870001 0.04239228 -0.25245619
0.18869999 0.067666978 -0.25343674
0.18870001 0.16734138 -0.25259119
0.18869999 0.21256228 -0.2598024
-0.064665236 0.33286801 -0.25738686
-0.039595339 -0.33286801 -0.24867362
0.10640228 -0.33286801 -0.2476843
0.18870002 -0.1920967 -0.24356788
-0.23398902 -0.16505818 -0.24661036
-0.233989 -0.022947192 -0.24997175
0.18869999 0.19929352 -0.245095
0.18870001 0.30020607 -0.24140397
-0.034285806 0.33286801 -0.24939001
0.041441303 0.33286801 -0.24187334
0.093793407 0.33286798 -0.24053466
-0.23268181 -0.33286801 -0.23820445
-0.16598861 -0.33286801 -0.23760681
-0.12003525 -0.33286801 -0.23817243
2.3841858e-06 -0.33286801 -0.23283267
0.18870001 -0.22049049 -0.23880316
0.18870001 -0.19408068 -0.23378813
0.18869999 0.1089086 -0.23744902
0.18870002 0.16440575 -0.23415372
0.19624899 0.27958268 -0.23007563
0.19624899 0.28668383 -0.23483831
-0.18663573 0.33286804 -0.23194605
-0.072167359 0.33286801 -0.2333678
0.14420646 0.33286801 -0.2319559
0.18869999 -0.3232784 -0.22777066
-0.233989 -0.31838018 -0.22946723
0.18869999 -0.2386951 -0.229375
-0.233989 -0.13980204 -0.22933519
-0.233989 -0.031183958 -0.22309953
-0.233989 -0.0047885478 -0.22027051
-0.233989 0.047219038 -0.22108124
-0.233989 0.065938532 -0.22329941
-0.233989 0.070558131 -0.22521761
-0.233989 0.25418109 -0.2277337
-0.21311843 0.33286801 -0.22893907
-0.19644278 0.33286801 -0.22864108
-0.089405648 0.33286801 -0.22975148
-0.017346488 0.33286801 -0.22539485
0.14018822 0.33286801 -0.22762756
0.1596532 0.33286801 -0.22731937
-0.15941358 -0.33286801 -0.21793148
-0.061238911 -0.33286798 -0.21041358
0.18870001 -0.2865811 -0.21130052
-0.233989 -0.24348284 -0.21496376
0.18870002 -0.17936058 -0.21766952
0.18870001 0.043097928 -0.21131124
0.18870001 0.11538848 -0.21175
0.18870001 0.18298411 -0.21890354
-0.233989 0.28314367 -0.21922955
-0.013501117 0.33286801 -0.21558221
0.015502684 0.33286801 -0.21848613
0.05508972 -0.33286801 -0.2044628
-0.233989 -0.25057498 -0.20223884
-0.233989 -0.23852929 -0.20881537
0.18869999 -0.15926786 -0.20608817
0.18869999 -0.11413665 -0.20696823
0.18870001 0.019807197 -0.20985582
-0.233989 0.047947824 -0.20438996
0.18870001 0.097884431 -0.20141897
-0.233989 0.14145637 -0.20890011
0.19624901 0.28144959 -0.20494539
-0.15848961 0.33286801 -0.20438206
0.11099651 0.33286801 -0.20518064
0.1251348 0.33286801 -0.20314068
0.17238899 0.33286801 -0.20662841
-0.18853559 -0.33286801 -0.19369128
0.12777542 -0.33286801 -0.19199964
0.18870002 -0.2452234 -0.19977334
0.18870002 -0.073782183 -0.19215512
-0.233989 -0.016017959 -0.19547933
-0.233989 0.061546132 -0.19147751
-0.233989 0.11439313 -0.1975821
0.18924701 0.21665299 -0.1934786
0.22430412 0.26616359 -0.19377001
-0.233989 0.27848363 -0.19725344
0.19675645 0.27851495 -0.19024201
0.20632979 0.27545869 -0.19377001
0.21738222 0.27500758 -0.19377002
-0.233989 0.31945592 -0.19608966
-0.12397286 0.33286801 -0.1935671
-0.087241098 0.33286798 -0.19514009
0.050282359 0.33286801 -0.19756199
-0.047891758 -0.33286801 -0.1871679
0.18870001 -0.19172233 -0.18887492
-0.233989 -0.14057976 -0.18342711
-0.233989 -0.10361598 -0.18214375
-0.233989 -0.047093391 -0.18263672
0.18870001 -0.0080852238 -0.18144776
-0.233989 0.059455067 -0.18648431
-0.233989 0.12827006 -0.18088689
0.18870001 0.21388867 -0.18652144
-0.233989 0.32065746 -0.1817601
-0.22572309 0.33286801 -0.18262747
-0.16110265 0.33286804 -0.18737522
0.16753753 0.33286801 -0.18056355
-0.18119414 -0.33286801 -0.17171411
0.18870001 -0.32784361 -0.17613921
0.18870001 -0.28565648 -0.17595412
-0.233989 -0.082743794 -0.17338464
-0.233989 -0.044807076 -0.1773217
0.20404267 -0.038186841 -0.17720665
0.18870001 0.068133637 -0.17224032
-0.233989 0.078788817 -0.17852217
-0.233989 0.12454468 -0.17048848
-0.233989 0.13194387 -0.17367688
0.20380452 0.26788199 -0.17660977
0.18870002 0.32196891 -0.17287199
-0.078001946 0.33286798 -0.17973229
-0.11395982 -0.33286798 -0.16893443
-0.0042101238 -0.33286801 -0.16395864
0.18870001 -0.16371396 -0.16752483
-0.233989 -0.13795923 -0.16694446
0.18870001 0.16784206 -0.16355291
0.18870002 0.29784054 -0.16323455
0.18870001 0.32830313 -0.16909932
-0.19873399 0.33286801 -0.167564
-0.17126739 0.33286801 -0.16172466
-0.053818848 0.33286801 -0.16114029
0.11448081 0.33286801 -0.1612514
0.14103848 0.33286801 -0.16378668
-0.19370684 -0.33286798 -0.15970653
-0.059429616 -0.33286804 -0.1509738
0.20159703 -0.12563023 -0.15133262
0.211345 -0.038003203 -0.15807411
-0.233989 0.11557099 -0.15491173
0.18870001 0.16638313 -0.15484142
-0.10135077 0.33286801 -0.15762377
-0.15351827 -0.33286801 -0.14744374
-0.233989 -0.20569226 -0.14943695
-0.233989 -0.053943604 -0.14933199
0.211345 0.051070929 -0.14644004
-0.233989 0.107494 -0.1437196
-0.233989 0.15596452 -0.14231232
0.19624901 0.22884849 -0.14313596
-0.233989 0.32951754 -0.14691311
-0.13186902 0.33286801 -0.14013711
-0.036852024 0.33286801 -0.144853
0.053152002 0.33286801 -0.14745671
-0.10795715 -0.33286801 -0.1386027
-0.03136244 -0.33286801 -0.13404445
-0.233989 -0.18697168 -0.13748154
0.16605601 -0.17818253 -0.13301052
-0.233989 -0.16020536 -0.13952024
0.16605601 -0.16261874 -0.13437708
0.18870001 -0.15413746 -0.13718192
0.211345 -0.13602445 -0.13006897
-0.23398902 -0.072762892 -0.13687512
-0.233989 0.096684366 -0.13305712
0.18871349 0.095931463 -0.13928828
0.16605601 0.15091823 -0.13290092
0.19623871 0.23336199 -0.13282758
-0.233989 0.31486794 -0.13400725
-0.078938812 0.33286801 -0.13140792
-0.19198653 -0.33286801 -0.12974346
-0.17412843 -0.33286801 -0.12470903
-0.12260408 -0.33286801 -0.12479358
-0.043475114 -0.33286801 -0.12243426
-0.233989 -0.25355712 -0.12547579
0.211345 -0.14322412 -0.12394664
-0.233989 0.0023506209 -0.12317057
0.211345 0.09393169 -0.12014589
0.18869999 0.13066286 -0.12068778
-0.22428802 0.33286801 -0.12972987
-0.10091396 0.33286801 -0.12504309
0.179067 0.33286801 -0.12996793
-0.15616626 -0.33286798 -0.1164206
0.18870001 -0.32927251 -0.11758924
0.18870001 -0.25716504 -0.11397885
0.16605601 -0.20462811 -0.11642507
-0.233989 -0.1135484 -0.1169259
-0.233989 0.019321099 -0.11348193
0.16605601 0.079633497 -0.11263319
0.16605601 0.090078875 -0.11700072
0.16605601 0.15139259 -0.11553412
-0.23398899 0.29232302 -0.11399221
-0.1189052 -0.33286801 -0.10590723
-0.069712117 -0.33286801 -0.10122428
0.1835524 -0.33286801 -0.10694435
0.18870001 -0.27724141 -0.10895625
0.16605601 -0.19398944 -0.1024079
0.211345 -0.14401975 -0.10639444
-0.233989 0.14815332 -0.10999788
0.18442807 0.33286801 -0.10002858
-0.11048313 -0.33286801 -0.092510149
0.16605601 -0.16963407 -0.098121256
0.16605601 -0.14466849 -0.094445944
0.19218558 -0.11409387 -0.093785092
0.16605601 -0.10369671 -0.090025194
0.16605601 -0.080695316 -0.097976401
0.20279719 -0.085640386 -0.0937851
0.211345 -0.040829699 -0.092251271
0.17614032 0.0050746547 -0.0937851
-0.233989 0.03863658 -0.095762581
0.16605601 0.040755637 -0.097932428
0.18497995 0.052291997 -0.093785107
0.20298298 0.067259453 -0.0937851
0.16605601 0.10015133 -0.095356546
0.18870001 0.16210434 -0.097739384
-0.233989 0.21083677 -0.090264902
-0.17719185 0.33286801 -0.097430527
0.082000069 0.33286801 -0.0938427
0.09585911 0.33286801 -0.093807787
0.10372366 0.33286801 -0.09432593
-0.075037651 -0.33286801 -0.082270443
-0.032385126 -0.33286804 -0.083939366
0.18870002 -0.21994355 -0.085757092
0.16860592 0.083447434 -0.089116797
0.19046852 0.11111933 -0.082991317
0.204549 0.14842752 -0.084611312
0.19624899 0.25203216 -0.081699729
-0.070674397 0.33286801 -0.08116623
-0.050846383 -0.33286801 -0.077876411
-0.04954917 -0.33286801 -0.072067522
-0.0017981026 -0.33286801 -0.075837716
0.18870001 -0.27851579 -0.073623329
0.16605601 -0.23887581 -0.07922262
0.20850328 -0.16159718 -0.076168127
-0.233989 -0.081027016 -0.076522216
0.16605601 -0.035482164 -0.070971258
-0.233989 0.013053142 -0.07818839
0.18870002 0.16787055 -0.073122434
-0.233989 0.28598192 -0.070126794
-0.233989 0.29829669 -0.077847101
-0.18883513 0.33286801 -0.073687449
-0.039688267 0.33286801 -0.07348597
0.025455937 0.33286801 -0.072905064
0.034437999 0.33286801 -0.07838209
0.1376175 0.33286801 -0.072295293
-0.10380876 -0.33286801 -0.064615279
-0.074824736 -0.33286801 -0.06642019
0.085029058 -0.33286801 -0.063400552
-0.233989 -0.30363956 -0.063821025
0.18870001 -0.30479714 -0.06781739
0.18870001 -0.25878304 -0.067221664
0.16605601 -0.21193679 -0.065647863
0.16605601 -0.1608059 -0.066155747
0.16605601 -0.092081986 -0.067543186
0.16605601 0.058666024 -0.067287683
0.21134499 0.1251581 -0.063078791
-0.19622412 0.33286801 -0.065176673
0.031735778 0.33286798 -0.064136811
0.099447109 0.33286801 -0.064843491
0.11418303 0.33286801 -0.061692908
-0.12318107 -0.33286801 -0.05091342
-0.233989 -0.27094352 -0.055944234
0.18869999 -0.23224798 -0.053581491
-0.233989 -0.20084697 -0.053767711
0.16605601 -0.088171862 -0.052573621
-0.233989 -0.0033597667 -0.057351954
-0.233989 0.11362152 -0.053151324
-0.19757181 0.33286804 -0.058659159
0.16586912 0.33286801 -0.054989934
0.18870002 -0.30618441 -0.047633857
-0.233989 -0.23648803 -0.042390205
-0.233989 -0.22170526 -0.042611346
0.16605601 -0.13609043 -0.04419262
0.16605601 -0.099218778 -0.045638934
0.16605601 -0.083216235 -0.048004679
-0.233989 -0.068170696 -0.048583724
-0.233989 -0.051151205 -0.041998107
-0.233989 -0.041959394 -0.04762556
0.16605601 -0.022768188 -0.043509804
-0.233989 0.25387251 -0.046047449
-0.051226377 0.33286798 -0.041255761
-0.0094974935 0.33286801 -0.044668972
0.061236784 0.33286801 -0.047318153
-0.233989 -0.32559437 -0.038119048
-0.233989 -0.22803646 -0.033376694
0.16605601 -0.11333971 -0.035934202
0.16605601 0.02406447 -0.036790378
0.16605601 0.12380441 -0.034953944
0.16605601 0.13422276 -0.0313235
-0.233989 0.17056152 -0.03042268
-0.233989 0.18260166 -0.036587685
0.18870001 0.28590399 -0.035701957
-0.233989 0.31199548 -0.035798624
-0.049547635 0.33286801 -0.037393987
0.086143091 0.33286804 -0.033348799
0.11925989 0.33286801 -0.032562107
0.18870002 -0.33226675 -0.020008639
0.21134499 -0.19060723 -0.022608427
0.16605601 -0.10630552 -0.028796084
0.16605601 -0.021396253 -0.028897822
0.16605601 -0.006704472 -0.026399203
0.16605601 0.10451363 -0.027284235
0.16605601 0.13835897 -0.023893166
-0.233989 0.20585015 -0.026523596
-0.233989 0.26883835 -0.02509141
0.030191682 0.33286801 -0.027831465
0.087294713 -0.33286801 -0.016824067
-0.233989 -0.32339081 -0.010971874
0.18870001 -0.26227146 -0.013387181
0.19406858 -0.21783864 -0.013342686
0.16605601 -0.18773758 -0.017694306
0.18684208 -0.18728797 -0.011869779
0.16605601 -0.11320125 -0.016134042
0.16605601 -0.066575103 -0.010363605
0.16605601 -0.012836674 -0.015169054
-0.233989 0.12802622 -0.016891841
0.1723893 0.14047842 -0.017902259
0.19605106 0.17125593 -0.018885717
-0.233989 0.20919152 -0.019065667
0.21889299 0.23922732 -0.012071095
0.19474927 0.28414401 -0.015295509
0.18869999 0.30236316 -0.018413782
-0.11505707 0.33286801 -0.019179061
0.02122692 0.33286801 -0.018162429
0.034607857 0.33286801 -0.017894562
0.09915664 0.33286801 -0.012934148
0.15225501 0.33286801 -0.012421831
-0.19871503 -0.33286801 -0.0034219399
0.081536487 -0.33286801 -0.0024198592
0.13046455 -0.33286801 -0.0097855628
0.16605601 -0.20742804 -0.0092928149
0.16605601 -0.10602137 -0.0052033681
0.16605601 -0.072618358 -0.006197907
0.16605601 -0.058725074 -5.1468611e-05
0.16605601 -0.015534146 -0.0079986006
0.16605601 0.051247064 -0.0023299679
0.16605601 0.10636303 -0.0041255951
0.16605601 0.15285486 -0.0067526326
-0.046889491 -0.33286801 0.0073217154
-0.233989 -0.30603763 0.0068263886
0.18870001 -0.30491063 0.0050872443
0.18870001 -0.27288723 0.00037162751
-0.233989 -0.26639682 0.0057006329
0.18870001 -0.26794744 0.0068425983
0.16605601 -0.1220931 0.006979024
0.16605601 0.01712751 1.832284e-05
0.18951569 0.19696499 0.0084741972
-0.233989 0.27222097 0.0058166236
0.18870001 0.28525817 0.00194728
-0.233989 -0.27928269 0.014660999
0.18870001 -0.27761018 0.010305487
0.18870001 -0.24982572 0.017866241
0.16605601 -0.14789183 0.010148646
-0.233989 0.014890593 0.018551227
0.16605601 0.014358364 0.01753553
0.19624899 0.24460751 0.011155109
-0.15332757 0.33286801 0.015362874
-0.049835026 0.33286804 0.019509032
0.0079073831 0.33286801 0.017819643
-0.088840224 -0.33286801 0.026558325
-0.0076047871 -0.33286801 0.026802111
0.017961854 -0.33286801 0.025576578
0.17985594 -0.33286801 0.027380466
0.18870002 -0.31942251 0.028009064
-0.233989 -0.27269542 0.020779327
0.18870001 -0.22391397 0.026401639
-0.233989 -0.056204855 0.029764228
0.16605601 -0.0011446299 0.021616735
0.16605601 0.017991975 0.027964413
0.21134499 0.14841111 0.029879887
-0.233989 0.28864849 0.023651995
-0.233989 0.30523261 0.029384127
-0.1786463 0.33286801 0.023955435
-0.10823376 -0.33286801 0.036766052
-0.015741855 -0.33286801 0.030165404
-0.233989 -0.31655949 0.033119895
-0.233989 -0.22688088 0.032052107
0.20413502 -0.18695812 0.034994114
-0.233989 -0.13470411 0.037047639
0.16605601 -0.13819104 0.039521106
0.16605601 -0.028328894 0.03884235
-0.233989 0.10445445 0.037466273
0.16605601 0.14346077 0.030608069
-0.233989 0.28256944 0.032085784
0.18870001 0.3257128 0.037130326
-0.233989 0.33148795 0.039955996
-0.11721265 0.33286801 0.033602908
-0.18623345 -0.33286801 0.046401702
-0.087661594 -0.33286801 0.043745279
-0.037854623 -0.33286801 0.048674021
0.14865801 -0.33286804 0.042412579
-0.233989 -0.30566701 0.040385649
0.18870001 -0.22835399 0.040629584
0.16605601 -0.02476861 0.045440428
-0.233989 0.0019477531 0.047481831
0.16605601 0.013842085 0.04179154
-0.233989 0.093608543 0.040608186
0.211345 0.16501853 0.047310371
-0.233989 0.22649004 0.040841527
-0.16425602 0.33286801 0.040308863
-0.041492268 0.33286801 0.045191281
0.16478948 0.33286801 0.045221962
-0.23200825 -0.33286798 0.05660037
0.12562667 -0.33286801 0.056808159
0.211345 -0.19979043 0.053349864
0.16605601 -0.13919343 0.050120439
-0.233989 -0.12631544 0.050732553
0.16605601 -0.1146644 0.051657051
-0.233989 -0.012640715 0.051706783
0.16605601 -0.012267279 0.051837943
0.16605601 0.015697636 0.050565142
-0.233989 0.32018128 0.054505233
-0.15009886 0.33286801 0.057984151
0.071055576 0.33286801 0.057235923
-0.22258773 -0.33286801 0.061730035
-0.233989 -0.21184987 0.068381257
0.16605601 -0.21480039 0.063924052
0.16605601 -0.19975908 0.06373889
0.16605601 -0.14932552 0.066709936
-0.233989 -0.07528723 0.064405456
0.16605601 0.12047016 0.065763429
0.16605601 0.13370457 0.069379643
-0.233989 0.32773751 0.066421218
0.12180754 0.33286801 0.069528878
0.15515664 0.33286801 0.06375768
-0.12871891 -0.33286801 0.074560292
0.15055205 -0.33286801 0.077499613
0.20809378 -0.20866027 0.071768269
-0.233989 -0.15433851 0.072250143
-0.233989 -0.14513481 0.077999145
0.16605601 -0.14567046 0.075818911
0.16605601 -0.11100911 0.070919193
-0.233989 -0.008187782 0.074366242
0.16605601 0.0045037679 0.077965282
-0.233989 0.058515042 0.078896813
-0.233989 0.079826832 0.070047371
0.16605601 0.11568785 0.073737346
-0.233989 0.17036392 0.070208773
0.18870001 0.20363924 0.076035082
-0.233989 0.22979514 0.07075654
-0.233989 0.33235988 0.073152319
-0.11908674 0.33286801 0.070953615
0.023650106 0.33286801 0.072351657
-0.11603101 -0.33286801 0.089539774
-0.046651945 -0.33286801 0.080191165
0.16644898 -0.33286801 0.080378108
-0.233989 -0.28734645 0.085949823
0.18870001 -0.2674104 0.081203893
0.16605601 -0.11501124 0.083139509
0.16605601 -0.076187275 0.086553112
-0.233989 -0.066959985 0.082021005
-0.233989 -0.023793697 0.088798709
0.16605601 0.063841246 0.088259161
0.18870001 0.21550602 0.080934726
0.18870001 0.31866869 0.089684866
-0.027476259 0.33286798 0.081869364
-0.0072262585 0.33286801 0.083264433
-0.011066362 -0.33286801 0.09347859
0.16605601 -0.11334149 0.094262078
0.16605601 -0.072724402 0.092675552
0.16605601 -0.02304385 0.095750719
-0.233989 0.048611939 0.099919908
-0.233989 0.12071405 0.0933595
-0.13335413 0.33286798 0.094971709
-0.033471342 -0.33286798 0.10494179
-0.011960143 -0.33286801 0.102778
0.14856172 -0.33286801 0.10073312
-0.233989 -0.27083623 0.1043453
0.18869999 -0.20683438 0.10846639
0.20054114 -0.19284818 0.10647692
0.18172586 -0.15617397 0.10353592
0.16605601 -0.14653771 0.10902017
0.16605601 -0.093666926 0.10778041
-0.233989 -0.060388744 0.10594751
-0.233989 -0.054292619 0.1077076
-0.233989 0.043238401 0.10037415
-0.233989 0.050740223 0.10995086
0.16605601 0.068262659 0.10496551
0.16605601 0.10146667 0.10010261
0.211345 0.11648603 0.10981223
0.16605601 0.14337742 0.10252858
0.18869999 0.2280702 0.10901632
-0.23187858 0.33286801 0.10451708
-0.10354456 0.33286801 0.1061337
0.045968127 -0.33286801 0.11869065
0.15053079 -0.33286801 0.11466485
0.18870001 -0.25968385 0.11050577
0.16605601 -0.20171948 0.11353146
0.16605601 -0.18445955 0.11611779
0.20514885 -0.18419841 0.11697647
0.16605601 -0.16057867 0.11618499
0.16605601 0.0052229464 0.11623444
-0.233989 0.043931309 0.11265722
0.16605601 0.070275486 0.11855116
-0.233989 0.11741591 0.11476688
-0.233989 0.17719957 0.1169713
0.18870001 0.18911433 0.11378886
0.18870002 0.21930192 0.11707059
0.0039969794 0.33286801 0.1190888
0.13869695 0.33286798 0.11906533
-0.042640004 -0.33286801 0.12757576
0.18870001 -0.28335696 0.12710795
0.18870001 -0.23339677 0.12434873
-0.233989 -0.18831636 0.12837397
0.16605601 -0.13013403 0.12269033
0.18784404 -0.13916263 0.12123218
0.16605601 -0.093513988 0.12429246
-0.233989 -0.057956457 0.12856011
0.16605601 0.0028903298 0.12384212
-0.233989 0.25589836 0.1255517
0.18870001 0.26618576 0.12454071
0.18870001 0.2720468 0.12665844
-0.233989 0.30573359 0.12450995
0.044892348 0.33286801 0.12339401
0.060207017 0.33286801 0.12712508
-0.14012651 -0.33286801 0.13853064
-0.233989 -0.31371841 0.13183898
-0.233989 -0.28594211 0.13221827
0.16605601 -0.10056488 0.13935626
-0.233989 -0.096238889 0.13511081
0.16605601 0.067602426 0.13458514
0.18870001 0.17837721 0.13997771
-0.233989 0.20009501 0.13582239
0.18870001 0.28067309 0.13047577
0.18870001 0.31926277 0.13664395
-0.22880214 0.33286801 0.13344768
-0.20285808 0.33286798 0.1375953
-0.026884496 0.33286804 0.13202587
-0.013348639 0.33286801 0.13629422
0.17406298 0.33286801 0.13079792
-0.233989 -0.24356696 0.14028451
0.16605601 -0.14505926 0.14154531
0.16605601 -0.094699971 0.14794597
-0.233989 -0.059002928 0.14856021
0.16605601 -0.054728478 0.14415964
0.16605601 -0.026423093 0.14721267
0.16605601 -0.0051026866 0.1488864
0.211345 0.084168665 0.1496084
-0.233989 0.11989239 0.14191118
-0.21602437 0.33286801 0.14277263
-0.045774821 0.33286804 0.14799896
0.13394496 0.33286804 0.1473712
0.18870001 -0.28815329 0.15008098
0.18869999 -0.18710485 0.15443508
0.18869999 -0.15462069 0.15797022
0.16605601 -0.03189997 0.15923232
0.18870001 0.13208593 0.15279631
0.18870001 0.17397612 0.15412283
0.18870002 0.23289856 0.15906166
0.18870001 0.28806803 0.15475476
-0.046538495 0.33286801 0.1530931
0.025034688 0.33286801 0.1596425
0.079486713 -0.33286801 0.16248465
-0.233989 -0.16005445 0.16681111
0.16605601 -0.14750545 0.16656125
-0.233989 -0.079592973 0.16213852
-0.233989 -0.056469664 0.1649375
-0.233989 -0.014903843 0.16547835
0.18870001 0.16427284 0.1685272
0.18639538 0.23487 0.16572839
-0.20166196 0.33286804 0.16137099
-0.15552808 0.33286801 0.16017994
-0.1499736 0.33286804 0.16863482
-0.10551184 0.33286801 0.16077448
0.11379202 0.33286801 0.16841358
0.12240324 -0.33286798 0.17346358
0.18870001 -0.27780721 0.17599507
-0.233989 -0.1657373 0.17811054
0.16605601 -0.13908483 0.17181882
0.19277048 -0.12428555 0.17113452
-0.233989 -0.066089451 0.17114256
0.211345 -0.065973759 0.17797184
0.211345 0.015797902 0.17802384
0.21134502 0.043585598 0.1792556
-0.23398899 0.15892375 0.17592375
0.18870002 0.18342105 0.17628415
-0.17080164 0.33286801 0.17042285
-0.059678707 0.33286798 0.17056096
-0.233989 -0.10505712 0.18966481
-0.233989 -0.093555681 0.18173867
0.211345 0.010676881 0.18139943
0.20789784 0.055224027 0.18135646
-0.233989 0.20616046 0.18036279
0.18870001 0.31021184 0.18589433
-0.23238455 0.33286801 0.18552534
-0.21206343 0.33286798 0.1827596
0.069662869 0.33286801 0.18873692
-0.17972371 -0.33286801 0.19841211
-0.014277697 -0.33286801 0.1976302
-0.233989 -0.13074189 0.19016775
-0.233989 -0.12504329 0.19630569
0.20703438 -0.062329542 0.19360605
0.211345 -0.031022284 0.19364505
-0.233989 0.053992093 0.19936723
-0.233989 0.15127715 0.19302616
-0.233989 0.16196193 0.19552068
0.028842214 0.33286801 0.19082338
-0.18337046 -0.33286801 0.20315963
-0.079230547 -0.33286801 0.20285313
-0.233989 -0.31524369 0.2014657
0.18870001 -0.31368357 0.20013489
-0.233989 -0.0051445961 0.20256762
0.18869999 0.033745389 0.20622012
0.18870002 0.041488953 0.20768911
-0.233989 0.28248614 0.20704509
0.18981956 0.28702468 0.20902669
-0.22850078 0.33286801 0.20836505
0.030420346 0.33286801 0.20231336
-0.17785132 -0.33286801 0.21375622
0.18870001 -0.22046712 0.21178581
-0.233989 -0.00042638183 0.21267042
0.18870001 0.036694769 0.21772099
-0.233989 0.18297699 0.21329053
0.18869999 0.31781599 0.21391524
-0.084839649 0.33286801 0.21475673
-0.22823907 -0.33286801 0.22038601
-0.055944093 -0.33286801 0.22432493
-0.00053746998 -0.33286801 0.22000875
0.075602315 -0.33286801 0.22338313
0.12753701 -0.33286798 0.22042637
0.15974869 -0.33286801 0.22959578
-0.233989 -0.32650918 0.22223458
-0.233989 -0.26495409 0.22746076
0.18870001 -0.24294709 0.22640064
-0.233989 -0.22184429 0.22920774
-0.233989 -0.1812091 0.22593918
0.18870002 -0.14982466 0.22030528
0.18870001 -0.052825972 0.22336081
-0.233989 -0.024797246 0.22579202
-0.233989 0.15906945 0.22447561
0.18870001 0.31991339 0.22076359
-0.086566105 0.33286804 0.22773933
-0.0080398247 -0.33286804 0.23468322
0.18869999 -0.26146522 0.23450702
-0.233989 -0.18144581 0.23844722
-0.233989 -0.093471065 0.23227817
0.18870001 0.10668551 0.23388204
0.18870001 0.12157289 0.23076028
-0.233989 0.14013496 0.23226517
-0.23208299 0.33286798 0.23165846
-0.180867 0.33286801 0.23786044
0.057760175 0.33286801 0.23237842
-0.17314574 -0.33286798 0.24631321
0.14130756 -0.33286801 0.24566029
0.18870002 -0.24767524 0.24739577
-0.233989 -0.23225127 0.24101521
-0.233989 -0.15339658 0.24757472
-0.233989 -0.12690416 0.24015597
0.18870001 0.092831299 0.24614978
0.18870002 0.2100282 0.2498467
-0.047212861 -0.33286801 0.25834686
0.18870001 -0.1857599 0.25048119
0.18870001 -0.16193576 0.25771797
-0.233989 -0.15395167 0.25348625
-0.233989 -0.092173703 0.25174603
-0.233989 0.023525015 0.25445127
-0.233989 0.08687368 0.25949436
-0.233989 0.1360862 0.25624156
-0.233989 0.1501714 0.25087488
-0.233989 0.2094132 0.25025758
-0.233989 0.2161442 0.25610372
0.18870001 0.32482791 0.25638524
-0.2073431 0.33286801 0.25492644
-0.14288399 0.33286801 0.25087696
-0.061242733 0.33286801 0.2505818
0.15400879 0.33286801 0.2526921
-0.17814207 -0.33286801 0.26302958
0.18870002 -0.16417024 0.26459849
-0.233989 0.021129489 0.26958621
-0.233989 0.27577463 0.26947701
0.013411791 0.33286801 0.26254529
-0.233989 -0.20144743 0.2751891
0.18870001 -0.20368584 0.27842534
0.18870002 -0.16179946 0.27771366
0.18869999 -0.068995625 0.27493787
-0.233989 -0.025727868 0.27782866
0.18870002 0.099374436 0.27698162
-0.233989 0.2890431 0.2724475
-0.15745974 0.33286804 0.27887088
0.014496677 0.33286801 0.27249175
-0.233989 -0.25328508 0.28916225
0.18870001 -0.16457024 0.28505993
-0.233989 -0.15742698 0.2840938
0.18870001 -0.14789915 0.28121436
0.18870001 0.0010009855 0.28275079
-0.233989 0.057604522 0.28428471
-0.233989 0.18257621 0.28963801
-0.16824004 0.33286801 0.28093189
-0.13656688 0.33286798 0.28934717
0.011202118 0.33286801 0.28984469
0.12000117 0.33286798 0.28302932
0.16412684 0.33286801 0.28559214
-0.17188931 -0.33002555 0.29059899
0.051400885 -0.31403089 0.29059899
0.097812891 -0.30010852 0.29059899
-0.07555595 -0.292981 0.29059899
0.010423936 -0.28153181 0.29059899
0.041398443 -0.28587812 0.29059899
0.055235073 -0.28805265 0.29059899
0.091437437 -0.27228999 0.29059899
0.16033405 -0.2753976 0.29059899
0.10615026 -0.25620842 0.29059899
-0.012717724 -0.24729225 0.29059899
0.11774033 -0.2423092 0.29059899
-0.22542077 -0.2361505 0.29059899
-0.18010469 -0.23959017 0.29059899
0.02181343 -0.23937808 0.29059899
0.044985376 -0.23173268 0.29059899
-0.16212119 -0.22795613 0.29059899
-0.09538056 -0.22626811 0.29059899
-0.031983748 -0.22178921 0.29059899
-0.15182509 -0.21842699 0.29059899
-0.095327146 -0.21093866 0.29059899
0.053892635 -0.2103851 0.29059899
0.1000724 -0.21577407 0.29059899
-0.21263643 -0.20479947 0.29059899
-0.099114396 -0.20531175 0.29059899
0.068645671 -0.20128293 0.29059899
-0.20173696 -0.19249503 0.29059899
-0.19771878 -0.17576922 0.29059899
-0.15151967 -0.17203236 0.29059899
-0.12099835 -0.17861125 0.29059899
-0.055566661 -0.15803671 0.29059899
-0.01466886 -0.15124239 0.29059899
-0.12273772 -0.14186619 0.29059899
0.14531477 -0.14121597 0.29059899
-0.051117577 -0.1382134 0.29059899
0.039658755 -0.12926121 0.29059899
0.11452504 -0.12549034 0.29059899
0.12510255 -0.12066254 0.29059899
-0.035902075 -0.1048551 0.29059899
-0.06286969 -0.09631227 0.29059899
0.00074668974 -0.093945213 0.29059899
0.12278713 -0.098962985 0.29059899
-0.080036208 -0.083121687 0.29059899
0.036058906 -0.086541131 0.29059899
-0.1743907 -0.078452103 0.29059899
0.0016799448 -0.077518702 0.29059899
0.10599782 -0.074763 0.29059899
0.11509706 -0.075365797 0.29059899
-0.22474875 -0.068146229 0.29059899
-0.13884836 -0.068389714 0.29059899
-0.02346845 -0.066538915 0.29059899
0.025146667 -0.060455065 0.29059899
-0.083390802 -0.050263092 0.29059899
-0.031860165 -0.057022743 0.29059899
0.094242714 -0.056803241 0.29059899
0.15500458 -0.035389304 0.29059899
0.051709481 -0.027461201 0.29059899
-0.056291036 -0.015822977 0.29059899
0.000115484 -0.017241638 0.29059899
-0.12322141 -0.004408367 0.29059899
-0.039982647 -0.0075542945 0.29059899
-0.012039639 0.0017454475 0.29059899
0.06516064 0.0016966462 0.29059899
0.18494013 0.0027635098 0.29059899
-0.19507751 0.028894491 0.29059899
0.058248904 0.020562366 0.29059899
0.10989913 0.039828986 0.29059899
0.17503276 0.040182248 0.29059899
-0.0063627288 0.056229219 0.29059899
-0.014953412 0.069985151 0.29059899
-0.23287138 0.077373371 0.29059899
-0.17747669 0.077454105 0.29059899
0.17515285 0.077210337 0.29059899
-0.063025042 0.086017177 0.29059899
-0.14878525 0.093590267 0.29059899
0.13391769 0.090092137 0.29059899
-0.12061089 0.10664579 0.29059899
0.16565806 0.10051503 0.29059899
0.17414829 0.10323814 0.29059899
-0.20466939 0.11887214 0.29059899
-0.096921436 0.11529775 0.29059899
-0.022336617 0.11060441 0.29059899
-0.17603809 0.12423229 0.29059899
0.11417426 0.12361848 0.29059899
-0.12049384 0.13268967 0.29059899
-0.086493552 0.13599584 0.29059899
-0.012212541 0.13445899 0.29059899
0.16392449 0.13154218 0.29059899
-0.22596446 0.14693537 0.29059899
-0.14386955 0.14384687 0.29059899
-0.014497481 0.1539332 0.29059899
-0.00078667328 0.16826612 0.29059899
0.068623513 0.16546205 0.29059899
-0.22949547 0.173307 0.29059899
0.069315955 0.17085712 0.29059899
0.089247957 0.17248347 0.29059899
-0.20690304 0.18437144 0.29059899
-0.12439314 0.18484417 0.29059899
0.11839779 0.18650328 0.29059899
0.16507104 0.18947671 0.29059899
-0.22547343 0.19535354 0.29059899
-0.13358024 0.19980377 0.29059899
-0.076812938 0.19695009 0.29059899
0.14747444 0.19087581 0.29059899
-0.19919233 0.20272221 0.29059899
-0.14277685 0.21784116 0.29059899
-0.048360724 0.2361379 0.29059899
0.14183435 0.23594217 0.29059899
0.18132612 0.23946559 0.29059899
-0.16299039 0.24951658 0.29059899
0.099116392 0.24047484 0.29059899
0.1458582 0.24584521 0.29059899
0.11229603 0.25379384 0.29059899
0.092304081 0.26432815 0.29059899
0.15470822 0.2696788 0.29059899
-0.19203238 0.2794348 0.29059899
-0.11587675 0.27554458 0.29059899
0.16493036 0.27504909 0.29059899
-0.19255368 0.28850132 0.29059899
-0.15038057 0.28249052 0.29059899
0.052444749 0.29182124 0.29059899
0.14224263 0.29025447 0.29059899
0.16993648 0.29675305 0.29059899
-0.19949479 0.30096745 0.29059899
0.14130872 0.30789381 0.29059899
-0.17811581 0.31768081 0.29059899
0.04488834 0.31479311 0.29059899
0.09205775 0.31693047 0.29059899
-0.050279215 0.32153538 0.29059899
0.12260891 0.32546839 0.29059899
