# .PCD v0.7 - Point Cloud Data file format
VERSION 0.7
FIELDS x y z
SIZE 4 4 4
TYPE F F F
COUNT 1 1 1
WIDTH 978
HEIGHT 1
VIEWPOINT 0 0 0 1 0 0 0
POINTS 978
DATA ascii
-0.13984558 -0.33857957 -0.233587
0.0092814416 -0.33901101 -0.233202
0.029555872 -0.33182901 -0.233587
-0.10222228 -0.32010263 -0.233587
-0.025679752 -0.32290792 -0.233587
0.0085071251 -0.3296532 -0.233587
0.17791906 -0.32470572 -0.233587
-0.0052928869 -0.31251857 -0.233587
0.20632564 -0.31374845 -0.233587
0.048282184 -0.3087984 -0.233587
-0.10251639 -0.29267624 -0.233587
0.225318 -0.29757228 -0.23281085
-0.0113675 -0.28610066 -0.233587
-0.080904864 -0.27776062 -0.233587
-0.016111396 -0.27959639 -0.233587
0.043376759 -0.27786657 -0.233587
0.22415182 -0.27304372 -0.233587
-0.22420402 -0.26043054 -0.233587
0.097288541 -0.26069915 -0.233587
-0.10877059 -0.25083485 -0.233587
0.15680735 -0.25775459 -0.233587
0.032867547 -0.24384509 -0.233587
0.16190648 -0.24586061 -0.233587
-0.024851834 -0.23435895 -0.233587
0.027712621 -0.23433056 -0.233587
0.18818069 -0.23981467 -0.233587
-0.17771786 -0.22938582 -0.233587
0.033039007 -0.22924852 -0.233587
-0.053019907 -0.21951729 -0.233587
0.20926487 -0.20948468 -0.233587
-0.2245729 -0.1916993 -0.233587
0.20919529 -0.19850898 -0.233587
0.22404888 -0.19829655 -0.233587
-0.17518356 -0.18926248 -0.233587
-0.13809927 -0.17398559 -0.233587
0.2042173 -0.17292905 -0.233587
-0.19654237 -0.16234843 -0.233587
0.10817801 -0.16852334 -0.233587
-0.060477179 -0.15364261 -0.233587
-0.039335847 -0.15690687 -0.233587
-0.028725151 -0.14334331 -0.233587
0.12944156 -0.14655741 -0.233587
-0.15220702 -0.13380417 -0.233587
-0.14744794 -0.139431 -0.233587
-0.099679992 -0.13637979 -0.233587
0.090659343 -0.12245408 -0.233587
-0.14705795 -0.11406977 -0.233587
0.14122644 -0.11264682 -0.233587
-0.19519307 -0.10134865 -0.233587
-0.18009853 -0.10262967 -0.233587
-0.14091237 -0.1027132 -0.233587
-0.10475913 -0.10536262 -0.233587
0.048425004 -0.10697577 -0.233587
0.059332058 -0.090342373 -0.233587
0.13443501 -0.092037529 -0.233587
0.20594254 -0.093574286 -0.233587
-0.12571526 -0.088926382 -0.233587
-0.1326966 -0.07559295 -0.233587
-0.063595571 -0.076452538 -0.233587
0.037669748 -0.077647984 -0.233587
-0.023077905 -0.065832898 -0.233587
0.032563534 -0.060842905 -0.233587
0.11578561 -0.063600108 -0.233587
-0.20902559 -0.054965317 -0.233587
0.036926825 -0.051766854 -0.233587
0.13748765 -0.054578662 -0.233587
-0.21390763 -0.035361901 -0.233587
-0.17506947 -0.03482087 -0.233587
-0.068850726 -0.033829987 -0.233587
0.027756721 -0.030215561 -0.233587
0.19381738 -0.032994151 -0.233587
-0.12830481 -0.025052115 -0.233587
-0.040091224 -0.022817507 -0.233587
0.1515663 -0.026152223 -0.233587
-0.16489553 -0.010757014 -0.233587
-0.15706226 -0.015415817 -0.233587
-0.057660401 -0.018420657 -0.233587
0.044468254 -0.013653463 -0.233587
-0.036815368 -0.0084127989 -0.233587
0.09550117 -0.0080149993 -0.233587
0.13466161 -0.008375898 -0.233587
-0.12933818 0.0076949969 -0.233587
-0.031313308 0.0084828697 -0.233587
0.087989032 0.0087417141 -0.233587
0.035703212 0.01558356 -0.233587
-0.08525119 0.039765067 -0.233587
-0.077473611 0.037663609 -0.233587
-0.030980162 0.036217928 -0.233587
0.15847522 0.037007824 -0.233587
0.17141691 0.036288232 -0.233587
-0.22042218 0.046542898 -0.233587
-0.1545808 0.042975962 -0.233587
-0.063907504 0.044684622 -0.233587
0.11365815 0.044169165 -0.233587
0.14652769 0.044686101 -0.233587
-0.18620664 0.057917207 -0.233587
0.17313679 0.0547719 -0.233587
-0.051500171 0.069854021 -0.233587
-0.031485837 0.082093388 -0.233587
0.10316679 0.085130461 -0.233587
0.21326168 0.08515007 -0.233587
-0.1919588 0.092466719 -0.233587
-0.029049747 0.092802659 -0.233587
0.11143401 0.095803924 -0.233587
-0.18488175 0.10983919 -0.233587
-0.11003184 0.10804614 -0.233587
-0.088985316 0.10560086 -0.233587
-0.07238695 0.10885745 -0.233587
0.041211251 0.10185426 -0.233587
-0.025927642 0.11691 -0.233587
-0.14966421 0.13903557 -0.23358698
0.085287631 0.13595107 -0.233587
-0.17404878 0.14672969 -0.233587
-0.15159835 0.14958574 -0.233587
-0.13640374 0.14658585 -0.23358698
0.11034287 0.1436639 -0.233587
-0.096539676 0.15728056 -0.233587
-0.054436877 0.15788189 -0.233587
-0.090694524 0.16463143 -0.233587
0.028368521 0.16996548 -0.233587
-0.16537632 0.17033611 -0.233587
-0.054861598 0.17146596 -0.233587
0.013097204 0.17282036 -0.233587
0.074250206 0.17187911 -0.233587
0.225318 0.1708468 -0.23328751
0.225318 0.18609163 -0.23317213
-0.19403899 0.19643933 -0.233587
0.014782701 0.1962204 -0.233587
0.020565256 0.19292112 -0.233587
0.069987535 0.19784492 -0.233587
0.17781669 0.19699594 -0.233587
-0.225318 0.20236212 -0.23100238
-0.19857183 0.20308551 -0.233587
-0.15620786 0.20012461 -0.233587
-0.094546162 0.2052843 -0.233587
-0.031666759 0.213301 -0.233587
0.060623914 0.21701719 -0.233587
0.225318 0.21948478 -0.23354195
-0.10014863 0.24404307 -0.233587
0.14222151 0.24968709 -0.233587
0.17657496 0.24064326 -0.23358698
-0.0045099631 0.25845587 -0.233587
0.019454814 0.25511587 -0.233587
-0.20894091 0.2619648 -0.233587
-0.16053389 0.26859179 -0.233587
-0.024877943 0.26867402 -0.233587
0.15294187 0.26463971 -0.233587
0.1699812 0.26924101 -0.233587
-0.21124412 0.27506611 -0.233587
-0.018338747 0.2746765 -0.233587
0.054373309 0.27204353 -0.233587
0.088384673 0.27830473 -0.233587
0.060359307 0.28420314 -0.233587
-0.042261034 0.30581209 -0.233587
0.15203951 0.30509591 -0.233587
-0.21214513 0.31833899 -0.23042631
-0.055831924 0.31833899 -0.23158082
0.11391015 0.31503069 -0.233587
0.16667369 0.31562519 -0.233587
-0.11748923 0.32049984 -0.233587
0.22458853 0.322474 -0.23343043
-0.0030166283 0.3322061 -0.233587
0.018513929 0.33530062 -0.233587
0.19028047 0.33035973 -0.233587
-0.19191954 0.34521261 -0.233587
-0.052698039 0.34413445 -0.233587
0.14968815 0.3480643 -0.233587
-0.17315541 0.36316013 -0.233587
0.011191614 0.36498657 -0.233587
-0.097009614 0.376468 -0.233587
-0.0032771863 0.37577131 -0.233587
-0.059208266 -0.33901101 -0.22911748
0.090985529 -0.33901101 -0.22435401
0.13816106 -0.33901101 -0.22856615
0.225318 -0.22093049 -0.22137342
0.22531798 0.04246477 -0.22263759
0.225318 0.091099896 -0.223602
-0.090244606 0.31833899 -0.22286505
0.056463137 0.322474 -0.22831509
-0.22531798 0.34396753 -0.22503753
0.15164737 0.36838496 -0.22876561
-0.0046700425 0.37807959 -0.22799748
-0.052207947 -0.38035399 -0.21091953
0.16588601 -0.38035399 -0.21159808
-0.072687954 -0.36112356 -0.212915
-0.025807446 -0.3631449 -0.212915
0.00053277984 -0.36699352 -0.212915
0.16584238 -0.36519536 -0.212915
-0.096280903 -0.34618241 -0.212915
-0.225318 -0.33100563 -0.21969897
0.12031722 -0.33901101 -0.2134631
0.225318 -0.25639769 -0.21726617
0.225318 -0.039647356 -0.21809308
-0.22531798 0.071143866 -0.21831821
-0.225318 0.122339 -0.21181901
-0.22531801 0.28818011 -0.21373247
-0.11760893 0.31833899 -0.21513292
-0.098426968 0.31833899 -0.21916549
-0.11056069 0.322474 -0.21110608
-0.013358936 0.322474 -0.21755439
-0.225318 0.33263704 -0.21164605
-0.14629431 0.38035399 -0.21857736
0.20464699 -0.34387404 -0.20884766
-0.11268651 0.322474 -0.20987979
0.11074224 -0.38035399 -0.19323501
-0.225318 -0.29398704 -0.19880173
-0.225318 -0.25215998 -0.1954468
-0.225318 -0.23590881 -0.19712438
-0.225318 0.032513805 -0.19742635
0.225318 0.057891153 -0.19969761
-0.225318 0.062861778 -0.19880563
-0.225318 0.13167413 -0.19593647
-0.225318 0.21258733 -0.19143526
-0.225318 0.24463604 -0.19834369
0.22531801 0.25007921 -0.19201753
0.225318 0.34729165 -0.19008927
-0.15399116 -0.38035399 -0.18619561
-0.079092704 -0.38035399 -0.18205936
0.22531798 -0.33604687 -0.18620987
0.225318 0.24421759 -0.18433128
0.16193931 0.31833899 -0.18870838
-0.225318 0.3224425 -0.18978944
-0.035690792 0.322474 -0.18310657
0.064473569 0.322474 -0.18645495
0.225318 0.32022899 -0.18169917
-0.031410344 0.37973785 -0.18371876
-0.074310146 -0.38035399 -0.17802659
-0.0078039765 -0.38035399 -0.17737892
0.225318 -0.16816321 -0.17762253
-0.225318 -0.062122285 -0.17306499
-0.225318 0.14245373 -0.17880838
0.22531798 0.14421181 -0.17348452
-0.225318 0.22322063 -0.17918193
0.225318 0.29615802 -0.17459683
-0.044220988 0.31833899 -0.17471868
0.045728661 0.31833899 -0.17698018
-0.19871584 0.322474 -0.17019051
-0.10207208 0.322474 -0.17582037
0.225318 0.34346348 -0.17904186
-0.22531801 0.35207561 -0.17311966
0.225318 0.36254457 -0.17902571
-0.21342279 0.38035399 -0.17936821
-0.19147784 -0.38035399 -0.16988581
-0.11374196 -0.38035399 -0.16085449
-0.04466306 -0.38035399 -0.16480458
-0.225318 -0.33006895 -0.16175282
0.22531798 -0.19550133 -0.1658626
0.22531798 0.015861295 -0.16733184
0.225318 0.18618697 -0.16973983
0.22531801 0.26000643 -0.16513556
-0.058525793 0.31833899 -0.16426441
-0.21782254 0.322474 -0.16091841
0.14405085 0.322474 -0.16432452
-0.022666486 0.37919527 -0.16412297
0.051751293 0.37458038 -0.16667257
-0.20886374 -0.38035399 -0.15611166
-0.19255579 -0.38035399 -0.15161961
-0.15711898 -0.38035399 -0.15824646
0.035937831 -0.38035399 -0.15177701
0.081923127 -0.38035399 -0.1526096
0.11669706 -0.38035399 -0.15972783
-0.22531801 -0.26029098 -0.15132581
-0.22531798 -0.25170782 -0.1593596
0.22531801 -0.17280068 -0.15842223
0.225318 0.016743354 -0.15040886
-0.225318 0.022058979 -0.15555048
-0.225318 0.04687082 -0.15149355
0.22531801 0.10587804 -0.15940648
0.225318 0.11005038 -0.15464914
-0.22531798 0.14112242 -0.15162514
0.225318 0.17953625 -0.15076812
-0.22531798 0.22892092 -0.15515931
-0.072810844 0.31833899 -0.15335287
-0.06757734 0.31833899 -0.15302989
0.14940616 0.31833899 -0.15693027
-0.050055556 0.322474 -0.15476272
-0.2092364 0.38035399 -0.1554274
-0.1208489 0.38035399 -0.15895261
-0.086348474 0.38035399 -0.15202308
-0.035971854 0.38002074 -0.15310244
0.225318 -0.30491319 -0.14690438
-0.22531801 -0.040475979 -0.14826378
0.22531801 -0.046307422 -0.14018828
0.22531801 0.013641842 -0.14961714
0.22531801 0.12638466 -0.14887619
-0.225318 0.16001344 -0.14623773
0.22531798 0.23160768 -0.14150096
-0.225318 0.24264507 -0.14234948
-0.07368248 0.31833899 -0.14498836
0.097906247 0.31833899 -0.14443651
-0.1528223 0.322474 -0.14900358
0.016807053 0.322474 -0.14077592
0.18312398 0.322474 -0.14136195
0.225318 0.32415363 -0.14980051
-0.21274999 0.38035399 -0.1420002
-0.14724192 -0.38035399 -0.13106403
0.0026954263 -0.38035399 -0.13896133
0.10040656 -0.38035399 -0.1380637
0.18673144 -0.38035399 -0.13181758
0.225318 -0.20159176 -0.13852611
0.225318 -0.047495045 -0.13693757
0.225318 -0.0083714128 -0.13739291
-0.22531801 0.14849457 -0.13437948
-0.225318 0.20272005 -0.13563195
-0.225318 0.28599218 -0.13313466
-0.044081986 0.31833899 -0.13554761
-0.044947583 0.322474 -0.13860467
-0.029279061 0.322474 -0.13088191
-0.0040165707 0.322474 -0.13528898
0.09502127 0.37189698 -0.13940801
0.11242317 0.37081775 -0.1352074
0.22531801 -0.21699156 -0.12875457
0.22531798 -0.18750381 -0.12691814
0.22531798 -0.10705957 -0.12970367
0.22531798 0.061659615 -0.12426308
0.225318 0.18959056 -0.12835068
-0.225318 0.25852409 -0.12608823
0.01446116 0.31833899 -0.12512285
0.087736346 0.31833899 -0.12472587
-0.052737072 0.322474 -0.12165622
0.08235652 0.322474 -0.12417607
-0.22531801 0.37386587 -0.12281355
-0.17553777 0.38035399 -0.12453423
0.21592194 -0.33901101 -0.1102466
0.225318 -0.31107312 -0.11476237
0.225318 -0.29059738 -0.11060075
-0.22531801 -0.27658945 -0.11620432
-0.225318 -0.17235434 -0.11142781
0.225318 0.0093818009 -0.11779954
0.22531801 0.031659342 -0.11915675
0.225318 0.11268397 -0.11867037
0.22531798 0.2388974 -0.11457042
-0.12570128 0.31833899 -0.11245695
-0.074293643 0.31833899 -0.11663795
-0.225318 0.32016969 -0.11950138
-0.17270535 0.322474 -0.11359595
-0.066227674 0.322474 -0.11936795
-0.0033530146 0.322474 -0.11824361
0.0094821155 0.322474 -0.11175217
0.10810844 0.322474 -0.11090451
0.094503954 0.37192899 -0.11093023
-0.19716248 -0.38035399 -0.10348248
0.225318 -0.3309446 -0.10726688
-0.225318 -0.19303961 -0.10608856
0.225318 -0.0095246807 -0.10119111
0.22531801 0.031095818 -0.10841668
-0.225318 0.049684569 -0.10985465
0.22531801 0.16501662 -0.10682383
-0.225318 0.31098145 -0.10524397
-0.19518477 0.31833899 -0.10917569
0.11287341 0.31833899 -0.10871925
0.21453702 0.31833899 -0.10428201
0.13143648 0.322474 -0.10694867
-0.22531798 0.333359 -0.10614291
0.13911848 0.36916232 -0.10162336
0.12068685 0.37030524 -0.10357131
-0.22389618 0.38035399 -0.10920991
-0.15225624 0.38035399 -0.10277799
-0.22145607 -0.38035399 -0.098141126
-0.225318 -0.18130933 -0.094791554
0.225318 0.25587329 -0.09589301
-0.086082689 0.31833899 -0.099542044
-0.070330657 0.31833899 -0.097413369
-0.18900666 0.322474 -0.091588557
0.01601173 0.322474 -0.090926126
0.048026707 0.322474 -0.090916589
0.22531801 0.34520733 -0.096581891
0.036795132 0.3755073 -0.092234232
0.087549008 0.37236029 -0.093606427
0.058102675 -0.38035399 -0.088491365
0.225318 -0.33572894 -0.084012099
-0.225318 -0.30440706 -0.082395725
0.225318 -0.13614874 -0.085311562
0.225318 -0.079093412 -0.088485599
-0.225318 0.19739895 -0.084592126
-0.225318 0.29973918 -0.081838116
-0.069159828 0.31833899 -0.083977796
-0.225318 0.32305896 -0.085125707
-0.0021691415 0.37792379 -0.081714213
0.10336799 -0.38035399 -0.075555295
0.22531801 -0.2526837 -0.072871566
0.225318 -0.18250744 -0.076339416
-0.225318 -0.15556723 -0.071372524
0.22531798 -0.070362523 -0.07482671
0.22531798 -0.026403669 -0.077796295
-0.225318 0.0062410608 -0.075852275
-0.225318 0.06593997 -0.077376038
0.225318 0.17709704 -0.079499647
-0.225318 0.21847762 -0.074747436
-0.225318 0.27194104 -0.070783004
-0.023996666 0.31833899 -0.073787287
-0.20349996 0.322474 -0.079773851
-0.1168866 0.322474 -0.070648909
0.052193508 0.322474 -0.072938032
0.18492559 0.322474 -0.073995963
-0.22200623 0.38035399 -0.078022659
-0.19119209 0.38035399 -0.07384181
-0.22531801 -0.047671489 -0.067916058
0.22531798 0.058603056 -0.060669012
-0.225318 0.11729694 -0.068860225
0.22531798 0.20414226 -0.06127537
0.225318 0.27964234 -0.066157162
0.06341362 0.31833899 -0.062218882
0.15433525 0.31833899 -0.068779968
0.057384629 0.322474 -0.068104431
0.040677343 0.37526655 -0.067519426
-0.05075895 0.38035399 -0.063456088
-0.16040441 -0.38035399 -0.057006538
0.038801558 -0.38035399 -0.052567989
-0.225318 -0.37320581 -0.057037719
-0.225318 -0.24844545 -0.054346602
-0.22531801 -0.17529893 -0.059776895
-0.22531798 0.01602531 -0.058959529
-0.22497407 0.31833899 -0.058800727
0.11849345 0.31833899 -0.059355479
-0.087386705 0.322474 -0.054636694
-0.012430063 0.322474 -0.056589436
0.10917941 0.322474 -0.055328213
0.15716302 0.36804372 -0.052913483
0.039949417 0.3753117 -0.055262458
0.074306615 0.37318164 -0.05651639
-0.19606975 0.38035399 -0.053038336
0.18314584 -0.38035399 -0.042685248
-0.22531798 -0.32128018 -0.045785733
-0.22531798 0.0096533112 -0.045178615
-0.22531801 0.22602671 -0.04913681
-0.0044318717 0.31833899 -0.043877508
0.034503259 0.31833899 -0.049333282
0.19246578 0.31833899 -0.049205221
-0.20148805 0.322474 -0.045695208
-0.13255517 0.322474 -0.040931795
-0.18875527 -0.38035399 -0.031434491
0.204647 -0.3520208 -0.034727614
0.225318 -0.16791806 -0.033997022
-0.22531798 -0.14344122 -0.03308779
-0.22531798 -0.11144814 -0.039207406
-0.225318 0.00039871037 -0.032775052
0.225318 0.20909899 -0.03797359
0.225318 0.21190825 -0.036137361
-0.22531798 0.26764947 -0.036548652
-0.22420956 0.31833899 -0.030543074
0.18656738 0.31833899 -0.036060154
0.20151962 0.31833899 -0.031486221
-0.031126067 0.322474 -0.034222081
0.0098165665 0.37718046 -0.033616833
-0.22424394 0.38035399 -0.035422996
-0.2052462 -0.38035399 -0.024465533
-0.10471489 -0.38035399 -0.020144098
0.075007081 -0.38035399 -0.020601235
0.12812963 -0.38035399 -0.025434863
-0.225318 -0.37538803 -0.026763096
-0.22531801 -0.36969507 -0.024353955
0.225318 -0.15740483 -0.027010426
0.22531798 -0.082742527 -0.029888988
0.225318 -0.025182582 -0.020691214
-0.225318 0.012646541 -0.0293262
-0.22531798 0.066206209 -0.026884418
0.225318 0.069734186 -0.023295525
-0.225318 0.08242581 -0.025852934
-0.041489545 0.31833899 -0.023619311
0.017220005 0.31833899 -0.025509901
0.1676424 0.31833899 -0.0297345
0.0040075332 0.322474 -0.020912439
0.16199765 0.322474 -0.027842321
0.21795803 0.36427295 -0.022292435
-0.04171776 0.38035399 -0.027736912
-0.087970495 -0.38035399 -0.010907296
0.1883577 -0.38035399 -0.017517149
0.22531801 -0.25181317 -0.017398443
0.225318 -0.11871936 -0.016355082
0.22531801 -0.075685076 -0.019746825
-0.225318 -0.048040912 -0.014514714
0.225318 0.072188422 -0.012315528
0.225318 0.11880747 -0.018143177
0.225318 0.13553391 -0.016790122
0.225318 0.21431035 -0.018044263
-0.22531798 0.23384118 -0.010971479
0.22531801 0.25450203 -0.017224059
0.097858302 0.31833899 -0.015702762
-0.20285493 0.38035399 -0.019423522
-0.038494132 0.38017726 -0.015882798
-0.066838242 -0.38035399 -0.0088632554
0.0029032379 -0.38035399 -0.0079380944
0.088829376 -0.38035399 -0.0087827183
0.22531798 -0.28237635 -0.0069011003
0.22531801 -0.1221907 -0.0064476207
0.22531798 0.12310588 -0.0068566054
-0.22531798 0.13692975 -0.0052828975
0.077289253 0.31833899 -0.0081442669
-0.160743 0.322474 -0.0025002211
-0.1023672 0.322474 -0.0046862252
0.071019635 0.322474 -0.0058268681
0.18218407 0.36649203 -0.0041491427
-0.15654051 -0.38035399 0.0084289759
0.19714828 -0.38035399 0.0097528771
0.225318 -0.2864306 0.0062743723
0.225318 -0.23408698 0.0023830086
0.22531801 -0.18019786 0.00022348389
-0.22531801 -0.13122533 0.0086675733
0.22531798 0.28115425 0.0099230334
0.1499598 0.322474 0.00074784458
0.21244083 0.3646155 0.0025123805
-0.024238354 0.37929282 0.0029408615
-0.20357299 0.38035399 0.0044581518
-0.18395203 -0.38035399 0.01471319
-0.031546582 -0.38035399 0.015414882
-0.024129771 -0.38035399 0.013156839
0.047183603 -0.38035399 0.016623721
0.10858172 -0.38035399 0.016064838
-0.225318 -0.34779668 0.016646042
0.225318 -0.26508844 0.014934421
0.22531798 -0.15405256 0.015416358
0.22531798 -0.13273706 0.019897554
0.225318 -0.04121659 0.010226548
-0.225318 -0.0028768834 0.019162858
-0.225318 0.093198285 0.014652848
-0.22531798 0.20865941 0.010322139
-0.0016169697 0.31833899 0.011720955
-0.225318 0.3270672 0.014175631
-0.10973082 0.322474 0.01027419
0.21351944 0.36454856 0.014629655
0.076059468 0.37307289 0.011497214
-0.21051344 0.38035399 0.017326519
-0.2039734 0.38035399 0.015452038
-0.15120892 0.38035399 0.018733544
-0.045381438 0.38035399 0.016318321
-0.19777282 -0.38035399 0.029525531
-0.17309597 -0.38035399 0.022271305
0.046828479 -0.38035399 0.022477994
0.11333752 -0.38035399 0.021077871
0.16191201 -0.38035399 0.022815168
0.225318 -0.096425816 0.027932592
0.225318 -0.02844014 0.020257814
0.22531798 0.22867529 0.025340572
0.225318 0.27827007 0.025949173
-0.086276643 0.31833899 0.024454109
0.10794462 0.322474 0.022490479
0.22209147 0.36401632 0.029480644
0.22026622 -0.33901101 0.036352728
0.22531798 -0.18019877 0.0371015
0.225318 -0.054785486 0.033161886
-0.22531801 0.0052876621 0.037187599
0.225318 0.11190928 0.039375942
-0.22531801 0.12613638 0.031469673
-0.22531798 0.14570996 0.036386974
0.225318 0.23935333 0.036185063
0.22261761 0.31833899 0.037445605
-0.22473314 0.322474 0.037408724
-0.21350755 0.322474 0.032762744
-0.20356634 0.322474 0.039850961
-0.17839296 0.322474 0.032638423
-0.012191183 0.322474 0.034896068
0.16845377 0.322474 0.039753411
0.17042352 0.36722162 0.037680574
0.034147758 0.37567151 0.036123969
0.070652857 0.37340814 0.037606396
-0.085364379 0.38035399 0.038149431
0.18154138 -0.38035399 0.040067919
-0.22531801 -0.13655961 0.040975504
0.225318 0.079241306 0.04969516
-0.225318 0.08476302 0.044458605
-0.225318 0.27745497 0.045564443
-0.21127842 0.322474 0.041050009
-0.05992629 0.322474 0.047731668
0.21995108 0.36414921 0.048291415
0.225318 -0.28028047 0.052389808
0.22531798 -0.26878941 0.059230857
0.22531801 -0.036841847 0.059068918
0.225318 0.064467981 0.058601975
0.22531801 0.097002313 0.050117217
-0.22531798 0.27895442 0.058480002
-0.12377995 0.322474 0.052697085
0.021579325 0.322474 0.058396794
0.10245343 0.322474 0.056083594
0.12146495 0.322474 0.05416989
0.074501246 0.3731696 0.059739798
-0.10905775 0.38035399 0.051096905
-0.13685155 -0.38035399 0.065579236
-0.098141775 -0.38035399 0.069122478
0.225318 -0.08503031 0.065242395
0.225318 -0.058817178 0.069605246
-0.22531798 0.039293937 0.067139417
-0.225318 0.071738638 0.063431785
-0.17815496 0.322474 0.063277759
0.060774107 0.322474 0.063090019
0.19783436 0.322474 0.063796714
-0.023187339 0.37922761 0.069781363
-0.0032071597 0.37798816 0.062329676
-0.099035963 0.38035399 0.060188264
-0.22531798 -0.2442634 0.076316707
-0.225318 -0.16003703 0.071967453
-0.095674433 0.322474 0.074644618
0.10354923 0.322474 0.071021512
0.022521667 0.37639254 0.070943266
0.074861698 0.37314719 0.072426431
-0.225318 0.38013864 0.075968713
-0.22531798 -0.21798402 0.081492633
-0.225318 -0.16578937 0.085985921
-0.22531798 -0.1241814 0.082094066
-0.225318 0.19516751 0.082424894
-0.22531798 0.21308187 0.08039102
0.22531798 0.27637663 0.08410804
-0.225318 0.28315884 0.085965067
0.225318 0.29557607 0.088959515
0.016472287 0.31833899 0.082179204
0.14988549 0.31833899 0.080601893
0.21999188 0.31833899 0.082643777
-0.18017626 0.322474 0.088866681
-0.054737762 0.322474 0.081014268
0.14201221 0.36898291 0.082331412
0.16283295 0.3676922 0.082381696
-0.10786948 -0.38035399 0.097199455
0.080664635 -0.38035399 0.096398875
0.18022309 -0.38035399 0.093371406
-0.225318 -0.27369034 0.093005791
0.22531798 0.23224826 0.097024113
-0.0044530183 0.31833899 0.09704601
-0.2077543 0.322474 0.097702071
-0.038421236 0.322474 0.09157104
0.036688469 0.322474 0.092709169
0.17940485 0.322474 0.094411507
0.225318 -0.23056492 0.10947262
-0.225318 -0.21386597 0.10409304
-0.22531801 -0.14135425 0.10814728
0.22531798 -0.13205774 0.10051116
-0.225318 -0.11563841 0.10827665
0.22531798 0.048989028 0.10012709
-0.22531801 0.10949337 0.10604787
-0.225318 0.16602534 0.1087049
-0.12310517 0.31833899 0.10163863
0.091719232 0.31833899 0.10771665
-0.225318 0.32379308 0.1044698
-0.14633852 0.322474 0.10202205
-0.081044458 0.322474 0.10356134
0.0054400982 0.3774519 0.10071363
0.049161054 0.37474042 0.1030373
0.074378699 0.3731772 0.1076044
-0.13170795 -0.38035399 0.11093379
-0.015770897 -0.38035399 0.11196107
-0.22531798 -0.37488225 0.11307678
-0.225318 -0.27636573 0.11504316
0.225318 -0.27613723 0.11737281
0.225318 -0.24777925 0.11886887
-0.225318 -0.086814471 0.11681253
-0.22531798 -0.0059831738 0.11116191
0.22531798 0.10753986 0.11852747
-0.225318 0.12974314 0.11062732
0.225318 0.15713419 0.11773501
-0.22531801 0.27408817 0.11752459
-0.16844401 0.31833899 0.11002189
-0.18651626 0.322474 0.11565766
0.14820567 0.36859897 0.11155207
-0.21710351 0.38035399 0.11833817
0.07884305 -0.38035399 0.12446006
0.17980218 -0.38035399 0.12573856
0.2130702 -0.33901101 0.12361528
0.225318 -0.30190104 0.12205756
-0.225318 -0.2478257 0.12211147
-0.225318 0.057192221 0.1284335
0.225318 0.12798214 0.12677383
0.22531801 0.21372205 0.12951979
0.225318 0.28914455 0.12085613
-0.026976217 0.31833899 0.12451992
0.16364084 0.31833899 0.12440208
-0.1351949 0.322474 0.12023669
0.22531798 0.33499146 0.12596896
0.22531798 0.35290271 0.1204527
0.15536459 0.36815518 0.12667382
-0.16855159 0.38035399 0.12761383
-0.22529176 -0.38035399 0.13182929
0.17289911 -0.38035399 0.13000573
0.22531798 -0.28418374 0.13468999
-0.225318 -0.2683236 0.13969009
0.225318 -0.20854822 0.13932735
-0.22531798 -0.15237093 0.13398312
-0.225318 -0.10274735 0.13941616
-0.084304154 0.31833899 0.13704072
-0.17171381 0.322474 0.13097526
-0.087545872 0.322474 0.13206962
0.15298001 0.368303 0.13049866
-0.14050373 0.38035399 0.13484044
0.20172402 -0.38035399 0.14626473
0.225318 -0.32615617 0.14679816
-0.22531798 0.15952933 0.14243837
-0.225318 0.20533954 0.14277592
-0.11558679 0.31833899 0.14680561
-0.086825863 0.31833899 0.14539909
-0.033197861 0.31833899 0.1449956
0.047589041 0.31833899 0.14218098
0.13266367 0.31833899 0.14610097
0.225318 0.34527725 0.14446144
-0.2038509 0.38035399 0.14285833
-0.12200174 -0.38035399 0.15336625
0.22531801 -0.33651584 0.15090084
-0.225318 -0.24092177 0.1515191
0.22531798 -0.19239107 0.15455478
0.22531798 -0.11079421 0.15685597
-0.225318 0.21474865 0.15415563
0.225318 0.21150114 0.15157349
0.005311273 0.31833899 0.1588189
-0.12727785 0.322474 0.15122765
0.050719984 0.322474 0.15079549
0.20993444 0.322474 0.15809998
0.015341778 0.37683782 0.15918125
-0.20811433 0.38035399 0.15919942
0.15340486 -0.38035399 0.16429004
0.204647 -0.36351916 0.16834053
-0.225318 -0.28864178 0.16776899
0.225318 -0.28873721 0.16544122
0.225318 -0.25745174 0.16326863
0.22531801 -0.22159722 0.16428478
0.22531801 -0.1648166 0.16125795
-0.225318 -0.1330034 0.16953719
0.225318 0.11146162 0.16015995
0.22531801 0.26438853 0.16477476
-0.22531801 0.31553236 0.16495177
0.032405846 0.31833899 0.16791645
0.16664723 0.31833899 0.16450657
-0.225318 0.32470754 0.16609043
-0.22531801 0.35867459 0.16769153
0.095216624 0.37188491 0.16588984
-0.041711941 -0.38035399 0.17257544
0.204647 -0.357986 0.17267066
0.225318 -0.33047593 0.17355219
-0.22531798 -0.2796517 0.17698635
0.22531798 0.0038834363 0.1732876
-0.22531798 0.22623615 0.17403176
-0.057771046 0.31833899 0.17705612
0.021108389 0.31833899 0.17933011
0.039009057 0.322474 0.17832148
0.055890009 0.322474 0.17306937
-0.21590494 0.38035399 0.17213124
-0.17862205 0.38035399 0.17629066
0.225318 -0.3065539 0.18402399
0.22531801 -0.28062055 0.18378448
0.22531798 -0.265369 0.18644103
0.22531798 -0.16031936 0.18402827
0.225318 -0.087352097 0.18758388
0.22531801 -0.0020967461 0.18117511
-0.225318 0.10318976 0.18324718
-0.22177662 0.31833899 0.18120815
-0.0029331744 0.31833899 0.18103266
-0.11095241 0.322474 0.1872209
0.12618005 0.36996445 0.18190277
-0.029249579 0.37960398 0.18970884
0.051039211 0.37462461 0.18636358
0.090670109 0.37216678 0.18432324
-0.040231794 -0.38035399 0.19379449
-0.02198828 -0.38035399 0.19192213
0.071549416 -0.38035399 0.19188336
0.204647 -0.34559283 0.19474998
-0.22531798 -0.21050459 0.1951282
-0.225318 -0.03886652 0.19058034
0.225318 0.089327812 0.19442073
-0.225318 0.16321911 0.19349962
-0.22531801 0.17973426 0.19794065
-0.225318 0.18841144 0.19323641
-0.14583459 0.31833899 0.1982284
-0.048485979 0.322474 0.19330643
-0.22531801 0.34172469 0.19753735
0.098352268 0.37169033 0.1917043
-0.030591324 -0.38035399 0.20400521
0.067569837 -0.38035399 0.20419551
-0.22531801 -0.37176013 0.20151763
0.22531798 -0.24074441 0.20682533
-0.225318 -0.19238497 0.20365044
-0.225318 -0.12771076 0.20118171
0.225318 -0.070235543 0.20418325
0.225318 0.069048591 0.204092
-0.225318 0.1918837 0.20998719
0.225318 0.28233755 0.208643
-0.17219825 0.31833902 0.20667784
-0.077412121 0.31833899 0.20812005
0.096683778 0.31833899 0.20778528
-0.22143592 0.322474 0.20642766
-0.20722099 0.322474 0.20148322
0.042636834 0.322474 0.20835334
0.10126077 0.322474 0.20285353
0.225318 0.33949655 0.20055744
0.20602013 0.36501291 0.2046244
0.017370153 0.37671265 0.20528758
0.065071173 -0.37126899 0.212915
-0.20240429 -0.36573344 0.21291499
-0.18340793 -0.3620671 0.212915
0.056999695 -0.36157167 0.212915
0.091931686 -0.3560608 0.212915
-0.055145942 -0.34820533 0.212915
0.12280719 -0.34484026 0.212915
0.14897002 -0.34428185 0.212915
-0.19572334 -0.33901101 0.21415076
-0.057238653 -0.33901101 0.21798512
0.22531798 -0.17159472 0.21983933
0.22531801 -0.052621692 0.21921647
0.22531798 0.010109693 0.21221215
0.22531798 0.19749746 0.21636605
-0.11378923 0.31833899 0.21703272
-0.079635337 0.31833899 0.21750382
-0.16256292 0.322474 0.21019733
-0.027105898 0.322474 0.21021041
0.1565965 0.322474 0.21196254
0.15856165 0.36795616 0.21207249
0.22106339 0.36407998 0.21336259
-0.20034772 0.38035399 0.21134564
-0.11743814 0.38035399 0.2166006
0.0085858302 -0.33901101 0.22126511
0.15387966 -0.33901101 0.22568704
-0.225318 -0.20322877 0.22417521
0.22531801 -0.20835342 0.22840816
-0.225318 -0.18145993 0.22862053
-0.22531798 -0.15542051 0.22471793
-0.22531801 0.056951802 0.22337428
-0.225318 0.22283979 0.22411701
0.225318 0.25729418 0.22321391
-0.225318 0.31876451 0.22443706
-0.12627316 0.31833899 0.22076347
-0.06098333 0.31833899 0.22453624
-0.1205243 0.38035399 0.22928688
-0.069653541 0.38035399 0.22379334
0.014383812 -0.33273211 0.233587
-0.038089834 -0.32508603 0.233587
0.077951342 -0.32354274 0.233587
0.1978763 -0.3270472 0.233587
-0.17193213 -0.31793454 0.233587
-0.16225104 -0.31135866 0.233587
-0.07105165 -0.31501725 0.233587
0.14589696 -0.3175419 0.233587
-0.14245978 -0.30156401 0.233587
-0.1065973 -0.30988976 0.233587
-0.096471369 -0.30317852 0.233587
0.14974073 -0.30386809 0.233587
0.0068787858 -0.29522264 0.233587
0.20144629 -0.2850714 0.233587
0.15663414 -0.2701239 0.233587
-0.19997676 -0.26459861 0.233587
-0.14722 -0.26523179 0.233587
0.036438167 -0.26522151 0.233587
-0.21745659 -0.25462538 0.233587
-0.1330912 -0.25083858 0.233587
0.087349579 -0.2549707 0.233587
-0.18907879 -0.2426596 0.233587
0.12701797 -0.24471229 0.233587
0.00037267432 -0.23761804 0.233587
0.14932293 -0.23079243 0.233587
-0.098530315 -0.22510615 0.233587
0.1872561 -0.22331767 0.233587
0.18008846 -0.2146828 0.233587
-0.08003287 -0.204069 0.233587
0.18104553 -0.20353624 0.233587
0.19451761 -0.2035448 0.233587
0.049937233 -0.19182789 0.233587
-0.17535374 -0.18746708 0.233587
0.19867873 -0.18356712 0.233587
-0.20012675 -0.177384 0.233587
0.045933224 -0.1752992 0.233587
0.14493333 -0.17644104 0.233587
0.18334292 -0.16175556 0.23358701
-0.18136671 -0.15049376 0.233587
-0.14386241 -0.15816973 0.23358698
0.19682366 -0.15099491 0.233587
-0.17906426 -0.14552672 0.233587
-0.066083685 -0.14388876 0.233587
-0.057992741 -0.14732097 0.233587
0.0081328116 -0.14420249 0.233587
0.19741271 -0.14401266 0.233587
-0.14983261 -0.1348815 0.233587
-0.12254864 -0.13675913 0.233587
0.21092376 -0.13983747 0.233587
-0.15751566 -0.12562065 0.233587
-0.13860106 -0.12279898 0.233587
-0.020829804 -0.12225682 0.233587
-0.073456816 -0.11185753 0.233587
-0.051745057 -0.11618411 0.233587
0.1196734 -0.11928373 0.233587
0.18333991 -0.1126545 0.233587
0.2250315 -0.11492859 0.23358701
-0.15504716 -0.10357283 0.233587
-0.080053933 -0.10070316 0.233587
0.056019664 -0.10489986 0.233587
-0.10201439 -0.098653153 0.233587
-0.08718735 -0.092959888 0.233587
-0.062584706 -0.095583282 0.233587
-0.22531798 -0.086734734 0.23235175
-0.0081247985 -0.086816296 0.233587
-0.21087515 -0.078891635 0.233587
-0.17908689 -0.079856634 0.233587
-0.043983661 -0.075276479 0.233587
0.13542187 -0.076747805 0.233587
0.1434752 -0.07994806 0.233587
0.0044200197 -0.069522336 0.233587
0.21058205 -0.065094173 0.233587
-0.11929047 -0.037990317 0.233587
-0.21758687 -0.022351354 0.233587
-0.16691364 -0.025691047 0.233587
-0.14586483 -0.02817452 0.233587
-0.052435219 -0.027198315 0.233587
0.1213753 -0.02076643 0.233587
-0.22130954 -0.018570706 0.233587
0.0095973685 -0.012637004 0.233587
0.020389222 -0.012956133 0.233587
0.1610074 -0.012647547 0.233587
0.018717485 -0.0099745039 0.233587
0.21609914 -0.006847471 0.233587
0.076626755 0.0064963698 0.233587
0.11261609 0.0031402111 0.233587
0.12421254 0.002502203 0.233587
0.20834444 0.0072162896 0.233587
-0.093680181 0.020275444 0.233587
0.159676 0.028560758 0.233587
0.19800067 0.035531983 0.233587
-0.21074712 0.041444421 0.233587
-0.096392132 0.041816711 0.233587
-0.017358273 0.048004128 0.233587
0.16183345 0.048124298 0.233587
0.031610489 0.050021514 0.233587
-0.225318 0.068889394 0.23329979
-0.18939473 0.068593428 0.23358698
0.046079159 0.068124831 0.233587
0.043050397 0.075369582 0.233587
0.14582175 0.07662385 0.233587
0.13403447 0.099391147 0.233587
0.21311879 0.099463403 0.233587
-0.00032823533 0.1027004 0.233587
-0.023303008 0.1112205 0.233587
0.027416507 0.11843204 0.233587
-0.19027933 0.12621683 0.233587
-0.011672297 0.1281295 0.233587
-0.1989044 0.13419697 0.233587
-0.0086856671 0.14793253 0.233587
0.19458799 0.14605802 0.233587
-0.036805972 0.15665573 0.233587
-0.097302385 0.16368906 0.233587
-0.086241849 0.16713808 0.233587
0.18498333 0.16212827 0.233587
-0.14684865 0.1736699 0.233587
0.17636332 0.17986956 0.233587
-0.1503676 0.18788922 0.233587
-0.12461546 0.18826488 0.233587
0.099396504 0.18682484 0.233587
-0.1607139 0.19441882 0.233587
0.057749901 0.20426649 0.233587
0.12807515 0.20574702 0.233587
-0.14264499 0.22729805 0.233587
-0.033459574 0.22364199 0.233587
-0.0081996024 0.23444752 0.233587
0.13618159 0.23525749 0.233587
-0.12981136 0.24199365 0.233587
0.066992506 0.24707168 0.233587
0.16575062 0.24393579 0.233587
0.22531801 0.24601978 0.2310679
-0.17964363 0.2500163 0.233587
-0.21803585 0.277062 0.233587
0.068070583 0.28213176 0.233587
0.14962517 0.28924575 0.233587
0.18854314 0.28761253 0.233587
-0.17578898 0.29519925 0.233587
-0.052436888 0.29309949 0.233587
-0.024264801 0.29932734 0.233587
0.11827052 0.29271153 0.233587
0.18114308 0.2969887 0.233587
0.21140793 0.29537213 0.23358698
-0.20531388 0.30334166 0.233587
-0.19507657 0.30526564 0.233587
-0.050950985 0.30319932 0.233587
0.17455141 0.30699712 0.233587
0.18058734 0.30541426 0.233587
-0.07053902 0.31727985 0.233587
-0.064335927 0.32721746 0.233587
-0.045551561 0.32550377 0.233587
0.051102467 0.322474 0.2328593
0.21295583 0.32010043 0.233587
-0.0097388998 0.33432788 0.233587
0.0035328083 0.33811778 0.233587
0.041747753 0.33329356 0.233587
0.098612212 0.33661073 0.233587
-0.063477382 0.34200358 0.233587
-0.16383636 0.35997802 0.233587
-0.067862391 0.35911503 0.233587
0.21103029 0.35022378 0.233587
