# .PCD v0.7 - Point Cloud Data file format
VERSION 0.7
FIELDS x y z
SIZE 4 4 4
TYPE F F F
COUNT 1 1 1
WIDTH 989
HEIGHT 1
VIEWPOINT 0 0 0 1 0 0 0
POINTS 989
DATA ascii
0.054289471 -0.32958099 -0.2420042
0.24216345 -0.3293601 -0.24413399
-0.10439602 -0.29613116 -0.24413398
0.16613461 -0.29714501 -0.24413398
0.061003797 -0.2807278 -0.24413401
-0.219578 -0.26349893 -0.24413399
0.17849922 -0.26960123 -0.24413399
0.15896025 -0.25328082 -0.24413399
-0.096221872 -0.23722427 -0.24413398
0.12511988 -0.23701426 -0.24413401
0.15940875 -0.23185468 -0.24413399
0.0058563873 -0.22403371 -0.24413401
0.15582156 -0.22944435 -0.24413399
-0.050522875 -0.21627006 -0.24413399
0.078420579 -0.21959908 -0.24413401
-0.10766118 -0.20277715 -0.24413399
0.19955747 -0.19945548 -0.24413399
-0.18267107 -0.18512096 -0.24413401
-0.042796321 -0.1716516 -0.24413401
0.096016109 -0.17520699 -0.24413401
-0.10799459 -0.16640395 -0.24413399
0.0079471841 -0.16683654 -0.24413399
0.021135636 -0.15767738 -0.24413399
0.12247691 -0.15648139 -0.24413398
0.14644712 -0.15089989 -0.24413398
0.11558983 -0.13684855 -0.24413399
0.22125867 -0.12798478 -0.24413401
-0.11346203 -0.10175202 -0.24413401
0.15545964 -0.10381968 -0.24413398
0.068706825 -0.09416914 -0.24413399
0.20319526 -0.093017519 -0.24413399
0.13052776 -0.077083357 -0.24413399
-0.02588303 -0.067473285 -0.24413399
0.068048462 -0.067714386 -0.24413399
-0.0950194 -0.055630215 -0.24413401
-0.12956487 -0.049232312 -0.24413399
-0.020590387 -0.048285842 -0.24413401
0.14140794 -0.049766749 -0.24413401
-0.19614398 -0.034629032 -0.24413399
-0.042560868 -0.033331215 -0.24413398
-0.17537355 -0.023999073 -0.24413399
0.015510365 -0.029506534 -0.24413399
-0.18270871 -0.013065597 -0.24413398
-0.25512001 -0.0017496981 -0.24279867
0.1650559 -0.0044125319 -0.24413399
0.16548035 0.0010551661 -0.24413398
-0.13752542 0.018550389 -0.24413398
-0.11559028 0.010314129 -0.24413399
-0.15332863 0.026266931 -0.24413401
0.019519068 0.023075566 -0.24413401
-0.14456749 0.044602424 -0.24413399
-0.03269171 0.056280773 -0.24413398
0.13620108 0.076431341 -0.24413399
0.16982529 0.092666104 -0.24413398
-0.2168543 0.10288943 -0.24413401
-0.085790202 0.10736226 -0.24413401
0.080593728 0.10234126 -0.24413399
0.24173853 0.1141592 -0.24413398
0.08859618 0.13669756 -0.24413399
-0.0984855 0.14935987 -0.24413398
0.081194684 0.14591856 -0.24413398
-0.058983952 0.15181053 -0.24413401
0.12381393 0.17709358 -0.24413399
-0.048901565 0.18435924 -0.24413401
0.16930053 0.18255077 -0.24413401
-0.18300892 0.19828418 -0.24413401
-0.11347485 0.19995023 -0.24413398
0.15659574 0.19342448 -0.24413399
0.1905109 0.20072034 -0.24413399
-0.027747743 0.21368939 -0.24413398
-0.12734744 0.23736954 -0.24413399
-0.11030046 0.23291409 -0.24413399
0.14706631 0.23662078 -0.24413399
0.15986775 0.23393936 -0.24413399
-0.086295031 0.24292505 -0.24413398
-0.0711319 0.2516486 -0.24413399
0.0053666458 0.2501345 -0.24413399
0.034629539 0.25980133 -0.24413399
-0.22320119 0.26246756 -0.24413399
-0.065716542 0.26951286 -0.24413399
0.24291298 0.26138183 -0.24122684
-0.0054087862 0.27373827 -0.24413401
0.073772982 0.2716904 -0.24413401
-0.1646283 0.29200995 -0.24413401
-0.19439769 0.30098808 -0.24413401
-0.14469731 0.3159551 -0.24413399
-0.13062093 0.31199089 -0.24413398
-0.17210643 0.34980205 -0.24413398
-0.017233897 0.353995 -0.24384335
0.21151748 0.353995 -0.2433228
-0.14064063 -0.32958099 -0.232162
0.029294612 -0.32958099 -0.23171237
0.22576627 -0.31213486 -0.23599599
-0.18528248 -0.30315176 -0.23599599
0.24291299 -0.30764154 -0.23240128
0.069354966 -0.29448816 -0.23599601
-0.1716466 -0.27200937 -0.23599601
0.10947481 -0.26847392 -0.23599599
0.23086686 -0.26246017 -0.23599599
-0.21199 -0.25882512 -0.23085663
-0.0033503696 -0.24906711 -0.23599598
0.24291298 -0.22034112 -0.23412561
-0.20654917 -0.21713492 -0.23599598
-0.1024138 -0.20348504 -0.23599599
-0.14532392 -0.19428657 -0.23599599
0.062124334 -0.19200967 -0.23599601
0.23988621 -0.1905455 -0.23599599
0.20769902 -0.18522978 -0.23599599
-0.094870299 -0.16717233 -0.23599599
-0.058573335 -0.16817327 -0.23599599
0.15536548 -0.1435364 -0.23599599
-0.18982127 -0.13726598 -0.23599599
-0.094658397 -0.13557717 -0.23599601
-0.031526349 -0.13815343 -0.23599601
0.21985748 -0.1034264 -0.23599601
-0.11063058 -0.081358254 -0.23599599
-0.1217528 -0.074867599 -0.23571862
0.14340046 -0.074867599 -0.23568621
-0.10101259 -0.06454806 -0.23599599
-0.04623469 -0.064303078 -0.23599598
-0.0035468265 -0.068258397 -0.23599599
0.21794404 -0.064895168 -0.23599599
-0.20745172 -0.057753455 -0.23599599
0.11971992 -0.044596162 -0.23599599
0.23477601 -0.03624732 -0.23482925
-0.22122742 -0.020684633 -0.23599599
-0.054775417 -0.010419138 -0.23599601
-0.17787331 -0.0043942165 -0.23599599
-0.085949153 0.00087127648 -0.23599598
0.0037729666 0.0059308149 -0.23599599
0.20979638 0.0036001597 -0.23599599
0.1291983 0.010245816 -0.23599599
0.23477601 0.010271005 -0.23071313
0.071470514 0.049570568 -0.23599599
0.23703422 0.046521217 -0.23599601
-0.12700181 0.053737186 -0.23599601
0.13400181 0.056779832 -0.23599601
-0.19290411 0.060544401 -0.23599598
-0.17267409 0.086400524 -0.23599598
-0.14018038 0.080837116 -0.23599598
0.18667421 0.089836508 -0.23599601
-0.19961804 0.092492543 -0.23599598
0.23017433 0.096979767 -0.23599599
-0.088128075 0.10160103 -0.23599599
0.10558336 0.12682939 -0.23599598
0.12690838 0.12246877 -0.23599599
-0.25512001 0.13405035 -0.2380365
-0.10398171 0.13404451 -0.23599598
0.10620765 0.14653914 -0.23599599
0.1731845 0.14929047 -0.23599598
0.24217589 0.15955299 -0.23599598
0.06893602 0.16924788 -0.23599601
-0.21300644 0.18208361 -0.23599598
-0.23153648 0.20992951 -0.23599599
-0.18571371 0.21020125 -0.23599598
-0.10751197 0.21577697 -0.23599599
0.18563017 0.21310633 -0.23599599
0.24291299 0.21134834 -0.23453635
-0.13307151 0.22064087 -0.23599599
-0.11477484 0.22612153 -0.23599599
-0.10458212 0.22910474 -0.23599599
-0.1391073 0.23963711 -0.23599599
-0.084620506 0.25765413 -0.23599598
-0.098925963 0.26356465 -0.23599599
-0.24661531 0.29913461 -0.23599598
-0.18608676 0.32958099 -0.23872322
-0.05884032 0.32800442 -0.23599598
-0.017510077 0.353995 -0.23561846
-0.01896809 -0.33771899 -0.22780362
0.18400674 -0.32958099 -0.22411552
-0.21199 -0.2977953 -0.22611852
0.24291299 -0.19035804 -0.22304797
0.23477601 -0.063689962 -0.22125515
0.23477601 0.090786934 -0.22404487
-0.25512001 0.1630401 -0.22633126
0.0059833601 0.24820299 -0.22246057
0.23780173 0.24820299 -0.22187416
-0.25512001 0.25325239 -0.22006954
0.016103864 0.353995 -0.2279405
0.16362634 0.353995 -0.22330551
0.18032202 0.353995 -0.22707625
0.16836858 -0.33771899 -0.21129096
0.056997277 -0.32958099 -0.21277328
0.13334766 -0.32958096 -0.21940336
-0.220128 -0.28813416 -0.21328323
-0.21824235 -0.21033195 -0.21612027
-0.2177932 -0.2096622 -0.21138571
0.24291301 -0.15924269 -0.21154338
0.23477601 -0.058902226 -0.21884277
0.24291299 -0.041456297 -0.21414851
-0.24698301 -0.017373201 -0.21910919
-0.25512001 0.04798574 -0.2127274
0.24291301 0.085600689 -0.21237832
0.23477602 0.12882605 -0.21073586
-0.25512001 0.15594068 -0.21268441
0.079479322 0.24820298 -0.21703389
0.17492171 0.32958099 -0.216013
0.17050838 -0.34703279 -0.20686252
0.15632646 -0.32958099 -0.20061162
-0.24698301 -0.14487182 -0.20935021
-0.25512001 -0.0338111 -0.20586608
0.24291299 -0.0089617744 -0.20494558
0.23477602 0.098083988 -0.20664036
0.23477601 0.10980085 -0.20444342
-0.15169042 0.24820299 -0.20228972
-0.088698342 0.32958099 -0.20604798
-0.057794973 0.353995 -0.20871444
0.17569293 -0.353995 -0.19859865
0.19949785 -0.34585699 -0.19895469
0.24291298 -0.22963007 -0.19530001
-0.24698301 -0.14394969 -0.1908512
-0.24698299 -0.12208132 -0.19824207
-0.25512001 0.060402758 -0.19015962
0.24291301 0.084271833 -0.19660762
-0.24698301 0.24102956 -0.19216448
-0.19916303 0.24820299 -0.19842575
0.014333177 0.35399503 -0.19798876
0.14857428 -0.33771899 -0.18261397
-0.21199 -0.32054925 -0.18812068
0.022890203 -0.32958099 -0.180769
-0.21511316 -0.16725534 -0.18313706
0.076720804 -0.074867599 -0.18931565
0.23477602 0.06267713 -0.18336615
-0.24698302 0.081256732 -0.18134187
0.24291301 0.12865113 -0.18915172
0.23477601 0.13866301 -0.18348564
-0.25512001 0.22423716 -0.18209986
-0.17454271 0.32958099 -0.1837016
0.17857678 0.32958102 -0.18261336
0.17708865 -0.32958099 -0.17695324
0.24291301 -0.29144841 -0.17197704
-0.220128 -0.25202531 -0.17532468
-0.21454038 -0.19551733 -0.17709938
-0.21199 -0.17833558 -0.17457207
-0.24698301 -0.1529837 -0.17743462
0.23477602 0.043556444 -0.17271005
-0.24698299 0.070939466 -0.17954049
-0.25512001 0.17836967 -0.17372097
0.23477601 0.21163574 -0.17360568
-0.16606247 0.24820299 -0.17760561
-0.035413519 0.24820298 -0.17225346
0.24291299 0.2823669 -0.17618275
-0.15499668 0.353995 -0.17740399
0.13556857 0.353995 -0.17226499
-0.014233068 -0.33771899 -0.16057932
-0.14888743 -0.32958099 -0.16793078
-0.21327245 -0.30190837 -0.16373472
-0.25512001 -0.10410237 -0.1699919
0.24291298 -0.050897837 -0.16805591
-0.24698301 -0.048475787 -0.16018988
0.23477601 0.0097532161 -0.1619065
-0.24698299 0.062014956 -0.16598549
0.24291299 0.14991872 -0.16915321
-0.24698301 0.20242198 -0.16957936
-0.20728081 0.24820299 -0.16477081
-0.00062632561 -0.33771899 -0.15720922
0.080724999 -0.33771902 -0.15480711
-0.088135436 -0.32958099 -0.15599445
0.1211959 -0.32958102 -0.15437219
-0.21199 -0.23311557 -0.15061896
0.18388838 -0.074867599 -0.15728267
0.23477601 0.023220837 -0.1544356
0.23477602 0.035685226 -0.15402713
-0.25512001 0.054292768 -0.15957634
-0.25512001 0.076225512 -0.15400019
-0.24698301 0.18915944 -0.15924479
-0.25512001 0.3328377 -0.15388675
-0.14995785 0.353995 -0.15757564
-0.024270028 0.35399503 -0.1563727
-0.17008609 -0.33771899 -0.14601755
0.21919915 -0.33771899 -0.14461863
-0.15188685 -0.32958099 -0.14323017
-0.12538642 -0.32958099 -0.14494556
-0.020375926 -0.32958099 -0.14230888
0.027922019 -0.32958096 -0.14391749
-0.220128 -0.22021663 -0.14955081
-0.24698301 -0.16325948 -0.14838329
-0.24698301 0.048432801 -0.1449782
0.23477602 0.041266683 -0.14759032
-0.24698302 0.10841182 -0.14400329
-0.24698299 0.15488872 -0.1489615
-0.24698299 0.23629399 -0.14922906
-0.25512001 0.24777217 -0.14103943
-0.1878244 0.24820299 -0.1427833
-0.13254231 0.24820301 -0.14227651
0.14051633 0.24820299 -0.14219299
0.24291301 0.2760666 -0.14679679
0.24291301 0.29179806 -0.14903107
-0.25512001 0.30860159 -0.14841944
-0.1961118 0.32958099 -0.14498577
0.021599676 0.353995 -0.14481935
0.068458654 -0.33771899 -0.13768245
0.21394387 -0.33771896 -0.13928363
-0.1630725 -0.32958099 -0.13657582
-0.21222028 -0.21508668 -0.13928904
-0.220128 -0.17924362 -0.13647468
0.23397945 -0.074867606 -0.13022289
-0.25512001 0.078949966 -0.13458112
0.24291299 0.075175293 -0.13343164
-0.25512001 0.10032346 -0.1379521
-0.12207131 0.24820298 -0.13165836
0.12142573 0.24820299 -0.13090867
-0.16901629 0.32958102 -0.13085552
0.067177877 0.35399497 -0.1355601
0.12812546 0.35399497 -0.13264877
0.21989611 0.35399497 -0.1374958
-0.17986831 -0.33771899 -0.12883154
0.12537634 -0.32958099 -0.12869912
-0.220128 -0.27212241 -0.120599
0.24291299 -0.26892233 -0.12305713
-0.25512001 -0.14290862 -0.12024736
0.24291299 -0.14409131 -0.12915981
-0.24698301 0.11284563 -0.12127278
0.24291299 0.16765517 -0.1228708
0.018808924 0.24820301 -0.12430836
0.098708257 0.24820299 -0.12893923
0.20816877 0.24820299 -0.12733351
-0.24698301 0.28138429 -0.12422814
-0.22522558 0.32958102 -0.12210253
-0.12311327 0.32958099 -0.12974638
-0.060650095 0.353995 -0.12987384
0.15537003 0.35399497 -0.1257586
-0.091536924 -0.33771899 -0.11681455
0.048114695 -0.33771902 -0.11307632
0.23111975 -0.33771899 -0.11542867
0.24291298 -0.33764982 -0.11013275
-0.010375611 -0.32958099 -0.11301081
0.24291299 -0.30764902 -0.11685045
-0.21199 -0.21181153 -0.11536102
-0.24698301 -0.073241659 -0.11930842
-0.20629238 -0.074867599 -0.11305992
-0.25512001 0.15858234 -0.1109688
0.19585161 0.32958099 -0.11894368
-0.19493207 0.35399497 -0.11974353
-0.037493814 0.353995 -0.11331193
0.20623301 0.353995 -0.11559463
0.22174621 0.353995 -0.11994416
-0.12604272 -0.33771899 -0.10300657
0.02738522 -0.33771902 -0.1000578
-0.20580186 -0.32958099 -0.10472649
-0.15751372 -0.32958099 -0.10238484
0.24291299 -0.24803312 -0.10462937
-0.25512001 -0.14113291 -0.10773633
-0.041241035 -0.074867591 -0.10275641
0.035949059 -0.074867599 -0.10524115
0.058550514 -0.074867599 -0.10289734
-0.24698299 -0.066132456 -0.10882753
0.23477601 -0.004719086 -0.10425274
-0.24698299 0.039748389 -0.10805594
0.23477599 0.15066005 -0.10706668
-0.25512001 0.18784177 -0.10349331
0.23477602 0.1835672 -0.10410698
-0.25512001 0.32461798 -0.10837312
-0.11884761 0.353995 -0.10333969
-0.070857778 -0.33771899 -0.096700549
0.062032569 -0.33771899 -0.098590955
0.11304161 -0.33771899 -0.093507729
-0.16678643 -0.32958099 -0.090228267
0.24291298 -0.2997714 -0.093665287
-0.21309699 -0.17200857 -0.09768118
0.24291298 -0.084201425 -0.09526363
0.024605546 -0.074867599 -0.095502228
0.10046085 -0.074867599 -0.090502255
0.23477599 -0.068052098 -0.093202405
-0.25512001 -0.031457692 -0.095814265
0.24291299 0.13249099 -0.098084241
-0.078875341 0.24820301 -0.097294077
0.14983541 0.24820298 -0.096026987
-0.18282312 0.32958099 -0.098024718
0.0065053701 0.32958099 -0.092307873
0.11197204 0.32958099 -0.099207096
0.24291299 0.32591051 -0.091733411
0.24291299 -0.17928776 -0.089783192
-0.25512001 -0.087472051 -0.08777485
-0.154277 -0.074867599 -0.080750927
0.24291299 0.017894559 -0.081849769
0.23477602 0.057362046 -0.086040184
0.23477601 0.10765057 -0.081514046
0.23477601 0.11456714 -0.084739015
-0.25512001 0.20476565 -0.086191371
0.24291298 0.24438414 -0.088236496
-0.25444156 0.353995 -0.086098351
0.1556294 -0.33771902 -0.073991954
0.19718878 -0.33771899 -0.073211163
-0.220128 -0.22689746 -0.070183918
-0.21354926 -0.21875834 -0.07621786
-0.220128 -0.18141352 -0.074759088
0.24291301 -0.17434187 -0.072388358
-0.25512001 -0.10805728 -0.077071317
-0.17791705 -0.074867599 -0.079352796
0.23477602 0.075121015 -0.072113603
0.24291298 0.15935475 -0.07901296
-0.24698301 0.16273503 -0.071560845
-0.25512001 0.17915754 -0.072833247
-0.041301854 0.32958099 -0.073851116
0.12434003 0.353995 -0.07978633
-0.063935384 -0.33771899 -0.068434313
0.21461526 -0.33771896 -0.066671677
0.24291299 -0.32953435 -0.063740671
0.24291298 -0.30292299 -0.06393034
-0.057872958 -0.074867599 -0.0693895
0.24291298 -0.027374975 -0.063186318
0.23477602 0.11506408 -0.064072259
-0.25512001 0.30802709 -0.069080882
-0.22580197 0.35399503 -0.069144323
0.096910432 -0.33771899 -0.059832618
0.20901276 -0.33771899 -0.055003043
-0.220128 -0.30782098 -0.05491323
-0.21395606 -0.25850591 -0.056911517
0.24291301 -0.092669412 -0.053878907
-0.099312417 -0.074867599 -0.059325792
0.24291301 -0.079350859 -0.058504358
-0.24698301 0.10289607 -0.0569501
0.23477601 0.12540632 -0.0568856
-0.24698301 0.24444148 -0.05371093
-0.22626939 0.24820299 -0.059766948
-0.13952811 0.24820298 -0.050872311
0.0026624128 0.24820298 -0.05164776
0.14496285 0.24820298 -0.053608339
-0.068793312 0.32958099 -0.050207663
0.17140856 0.353995 -0.052547954
0.024977185 -0.33771899 -0.048626348
0.11988441 -0.33771899 -0.043063484
-0.085042208 -0.32958099 -0.040548734
-0.2142102 -0.25127399 -0.044850655
0.24291298 -0.18777853 -0.041473366
-0.24698302 -0.16103724 -0.04300921
0.24291299 -0.11886595 -0.041075788
-0.046374902 -0.074867599 -0.048331507
0.02046472 -0.074867599 -0.049112935
0.12829423 -0.074867599 -0.047893338
0.22954205 -0.074867599 -0.045968145
0.23477601 0.08053337 -0.041991189
0.23477601 0.12878978 -0.04509059
0.24291301 0.13727163 -0.047710285
0.024715625 0.32958099 -0.048062101
-0.065324426 -0.33771899 -0.033858806
0.19047958 -0.33771899 -0.039526403
0.20765872 -0.32958099 -0.034954563
0.24291298 -0.090238787 -0.030042879
-0.062161915 -0.074867599 -0.036799386
0.21735838 -0.074867599 -0.032044835
-0.25512001 0.031604864 -0.03015361
0.24291299 0.096236199 -0.033100627
-0.25512001 0.17190635 -0.030197233
-0.25512001 0.22431241 -0.034347646
-0.070631504 0.24820299 -0.038709477
-0.037600115 0.24820299 -0.032019023
-0.24698301 0.25194228 -0.030041156
-0.24698299 0.30900827 -0.036138393
0.043976575 0.32958099 -0.030004643
-0.25512001 0.33158123 -0.030890629
-0.05535768 -0.33771899 -0.026823025
0.12282436 -0.33771899 -0.028387778
-0.098697066 -0.32958099 -0.028019845
0.24291301 -0.24983984 -0.02702906
0.24291299 -0.11597255 -0.023260325
0.23477599 -0.031047273 -0.024171583
-0.24698301 -0.01322794 -0.021539865
0.24291299 0.013369057 -0.022327807
-0.24698301 0.034083948 -0.029712932
0.24291298 0.13086128 -0.02025944
0.25427935 0.21031615 -0.02217295
0.24291299 0.28075558 -0.021965429
-0.25512001 0.29015809 -0.027223863
-0.21712127 0.32958099 -0.026216783
-0.066767693 0.35399503 -0.024347384
-0.054510679 -0.32958099 -0.015874922
0.031366006 -0.32958099 -0.019566998
0.19056404 -0.32958099 -0.016942337
-0.21488167 -0.20585963 -0.012984062
-0.24698301 -0.11099608 -0.019207835
0.13106264 -0.074867599 -0.01056651
-0.25512001 -0.038649935 -0.018425815
-0.24698301 -0.014849454 -0.01548326
0.24291299 0.025619738 -0.012089707
-0.25512001 0.05563511 -0.019443586
-0.25512001 0.073074281 -0.01881025
-0.25512001 0.16756411 -0.019950479
0.24291298 0.16999513 -0.019391321
-0.24698301 0.20650342 -0.010209879
-0.16813767 0.24820299 -0.011356384
0.086094603 0.24820299 -0.018236712
0.23049071 0.24820299 -0.010111108
-0.25512001 0.2766265 -0.019454271
0.24291299 0.34257126 -0.015085995
-0.17630401 0.353995 -0.018859006
-0.068627119 0.35399503 -0.01287161
0.14787373 0.35399503 -0.012906447
0.15641986 0.353995 -0.014797904
-0.19971982 -0.32958099 -0.00044457614
-0.2151114 -0.2575691 -0.0020813672
0.24291301 -0.13017367 -0.0047345534
0.23477601 -0.061847251 -0.0055437149
-0.24698302 0.21195795 -0.0059159826
0.093972251 0.24820299 -0.004664056
0.13521558 0.24820299 -0.0092425793
-0.24698299 0.31117955 -0.0048573837
-0.091754049 0.32958099 -0.0066881627
-0.088644564 0.32958099 -0.008498732
-0.21524325 -0.27265659 0.0041754544
-0.21199 -0.17557123 0.0065492913
-0.25512001 -0.11310133 0.0087986067
0.24291299 -0.02454805 0.0093427151
0.24291299 0.035658415 0.0025260001
0.23477601 0.16445261 0.009097293
0.24291301 0.19898824 0.0037002377
-0.12406715 0.24820299 0.0098485202
0.24291299 0.28444162 0.0061191316
-0.13271812 0.32958099 0.0021633692
-0.13704853 0.353995 0.0061724409
-0.19913909 -0.33771899 0.01422295
0.10567112 -0.33771899 0.014394026
-0.25512001 -0.10799506 0.010660173
-0.23871794 -0.074867606 0.016724795
0.027372446 -0.074867599 0.013512368
0.13216737 -0.074867599 0.012946665
-0.25512001 -0.048068117 0.011536945
0.24291299 -0.04460308 0.016308188
-0.25512001 0.18600883 0.016452126
-0.24698301 0.19432741 0.019031778
0.24291299 0.20718978 0.011218138
-0.25512001 0.21578136 0.015575349
-0.25512001 0.24363275 0.018450543
-0.080924705 0.24820301 0.013213128
0.078641303 0.24820299 0.017252937
0.1963717 0.24820298 0.019047394
-0.11074588 0.32958099 0.016963281
-0.22694746 0.353995 0.010371089
-0.13434437 -0.33771899 0.026307469
-0.095493227 -0.33771899 0.022468168
0.022665605 -0.33771899 0.028954208
-0.21199 -0.25623205 0.028908741
-0.21199 -0.22656453 0.022502737
-0.22860162 -0.074867599 0.029819392
-0.25512001 -0.041882847 0.02283451
0.24291298 -0.036660485 0.024685621
0.23477601 0.23885924 0.025414743
0.24444965 0.23458579 0.025184616
-0.026901945 0.24820299 0.025018811
0.10011628 0.32958099 0.024542026
0.18118149 0.32958099 0.020090992
0.06444414 -0.33771899 0.033371445
-0.21199 -0.30491352 0.033127155
-0.21596664 -0.24152696 0.038507029
0.24291301 -0.10078453 0.035255954
-0.22907275 -0.074867599 0.030942373
0.065140896 -0.074867599 0.037526235
-0.24698299 0.035977695 0.03042645
-0.24698301 0.23826516 0.03036207
-0.1928066 0.24820298 0.037989616
-0.12761141 0.24820298 0.039135937
-0.16557091 0.32958099 0.038365223
0.10234848 0.32958099 0.035722207
-0.23275746 0.35399497 0.03395021
-0.19527751 0.35399503 0.037818924
0.027573083 0.353995 0.034659222
-0.220128 -0.3358053 0.048223935
-0.090241045 -0.33771899 0.044697091
0.161531 -0.33771899 0.042496197
-0.220128 -0.18736263 0.040163394
-0.25512004 -0.16012114 0.049712673
0.027690157 -0.074867599 0.043338045
0.19296342 -0.074867599 0.049007334
0.24291299 0.035015617 0.046166442
-0.24698299 0.050213214 0.044263802
0.24693313 0.2348029 0.04316429
-0.16068164 0.24820298 0.042399421
-0.16016719 -0.33771899 0.05582729
0.069976471 -0.33771899 0.05654468
0.087549314 -0.33771899 0.052199621
-0.21199 -0.31009391 0.056787059
-0.21636602 -0.27842677 0.057459753
0.24291298 0.19533585 0.059207577
0.20851398 0.24820299 0.055351168
0.23477602 0.24076225 0.053365588
-0.24698301 0.29083642 0.059967622
0.099857301 0.32958099 0.055309832
0.19841656 0.353995 0.054755338
-0.21649502 -0.31340438 0.063582063
0.24291298 -0.28716987 0.068402737
-0.21646181 -0.27471051 0.062006392
-0.24698301 -0.075782806 0.062143844
-0.21777901 -0.074867599 0.061546154
-0.24698301 0.10598427 0.061814398
-0.25512001 0.17331395 0.065915242
-0.23409402 0.24820298 0.068561144
0.020492621 0.24820301 0.061717488
0.2181907 0.24820299 0.067160271
-0.25512001 0.25965211 0.063220873
-0.24698299 0.32184082 0.061299376
0.22779004 0.32958099 0.06503056
0.0042625889 0.353995 0.064164497
0.18971047 0.35399503 0.061905272
0.072410032 -0.33771899 0.073543914
0.038112447 -0.32958099 0.074074477
-0.21675605 -0.31209186 0.075970061
0.19911289 -0.074867599 0.073814653
0.24291301 0.018178139 0.076615691
-0.25512001 0.15718578 0.070323095
-0.24698301 0.19514024 0.072131231
0.24739166 0.22478087 0.070915088
-0.17008623 0.24820298 0.072930217
-0.13059261 0.24820299 0.076546602
0.23683238 0.24820299 0.076210842
0.24253199 0.24820299 0.072677888
-0.24698302 0.32058644 0.070779867
0.22356136 0.32958099 0.077491209
-0.19886746 -0.33771899 0.081720822
-0.030666068 -0.32958099 0.085974544
0.1992799 -0.32958099 0.082620807
-0.21687236 -0.31299663 0.081490666
-0.25512001 -0.14661767 0.082777306
-0.24698301 -0.11273576 0.089329481
0.19154704 -0.074867599 0.086288497
-0.25512001 -0.061334193 0.083745837
0.24291299 0.013472982 0.080596566
-0.24698299 0.1004277 0.087886676
0.25451827 0.20951979 0.088127226
0.052075919 0.24820299 0.086799107
-0.24698301 0.25969827 0.084843874
-0.18016033 0.32958099 0.08998245
0.23723316 -0.33771899 0.093227535
0.24291298 -0.3090567 0.092533104
0.24291299 -0.24556604 0.098709673
-0.220128 -0.18340743 0.095385179
-0.25512001 -0.14518772 0.092727907
-0.24698301 -0.080468029 0.092573285
-0.20952442 -0.074867599 0.098047987
-0.19755898 -0.074867591 0.098339379
-0.10915293 -0.074867599 0.097588934
-0.019170586 -0.074867599 0.099783592
0.069855295 -0.074867599 0.091646887
-0.25512001 -0.039595414 0.094346158
0.021614823 0.24820301 0.091365479
-0.20042987 0.32958099 0.096881963
-0.003499154 0.32958099 0.095775515
-0.15369523 -0.33771899 0.10257266
-0.12823622 -0.32958096 0.1044593
0.17850241 -0.32958099 0.10193703
0.24291298 -0.21320729 0.10307422
0.15389721 -0.074867599 0.10725214
-0.24698299 0.067988843 0.1055987
0.24291299 0.12114927 0.10328553
0.23477601 0.17219654 0.10191362
-0.25512001 0.20224859 0.10154773
-0.24698301 0.21393102 0.10769138
0.027750306 0.24820298 0.10858708
0.24291301 0.31033251 0.10926615
-0.016729884 0.32958099 0.10282375
-0.0026396662 0.32958099 0.10223472
0.2314828 0.353995 0.10898687
-0.099724412 -0.33771899 0.11892226
0.2366934 -0.33771899 0.11588544
0.24291299 -0.13870782 0.11633278
-0.10625367 -0.074867599 0.11589653
-0.045451466 -0.074867599 0.11990381
0.13972092 -0.074867591 0.1126734
0.24291299 -0.030798059 0.11476746
-0.25512001 -0.029216111 0.11332346
-0.25512001 0.26285723 0.1106016
0.24291299 0.29540792 0.11455846
-0.24698302 0.30962202 0.11784084
-0.093716748 0.32958099 0.11989424
0.060225222 0.353995 0.11039658
0.18202519 0.353995 0.1174283
-0.15157397 -0.32958096 0.12224742
-0.25512001 -0.12379727 0.12641326
0.065515824 -0.074867599 0.12133886
0.09703064 -0.074867599 0.12677176
0.23477599 0.22247894 0.12835632
-0.15103208 0.32958099 0.12967436
-0.053412471 0.32958099 0.12520149
-0.20895895 0.35399503 0.12529854
-0.095410667 0.353995 0.12387926
0.010636494 0.353995 0.1216919
0.10747503 -0.33771899 0.1355027
0.24291298 -0.32276356 0.1378842
-0.24698301 -0.13990246 0.13557591
-0.25512001 -0.091326497 0.13732588
0.23477602 0.061256286 0.13052109
-0.25512001 0.16950785 0.13102908
-0.10418495 0.24820299 0.13222063
-0.24698299 0.3029837 0.13694552
-0.13584705 0.353995 0.13783048
0.19739725 -0.33771902 0.14811555
0.22807142 -0.33771899 0.14999473
-0.220128 -0.21305181 0.14270511
-0.16199639 -0.074867599 0.14570276
0.24291298 0.19725616 0.14915833
0.23477599 0.20345871 0.14940505
-0.25512001 0.24931099 0.14076425
-0.24698302 0.2446216 0.14218092
0.01579129 0.24820298 0.14774688
-0.24698299 0.30773866 0.14648363
-0.082802251 0.353995 0.14367157
0.24291299 -0.28860417 0.15054026
0.16089281 -0.074867599 0.15111542
-0.25512001 -0.015193835 0.15121153
0.23477601 0.01401123 0.15068015
0.23477601 0.025456809 0.15693328
0.23477601 0.17710185 0.15380791
-0.22982118 0.24820298 0.15980707
-0.14982322 0.24820301 0.15385351
-0.17417565 0.353995 0.15841737
0.14718351 0.353995 0.15547088
0.13586757 -0.33771896 0.16177547
-0.097029716 -0.32958099 0.16398093
-0.02432318 -0.32958099 0.16923115
0.24291299 -0.24965596 0.16796508
-0.21199 -0.17439868 0.16514976
-0.090573594 -0.074867599 0.16699892
-0.041873947 -0.074867599 0.16800143
0.23477601 0.040844209 0.16239496
-0.24698301 0.22969617 0.16543838
-0.15708371 0.24820299 0.16153815
-0.088079616 0.24820301 0.16219595
0.083159596 0.24820299 0.16163771
-0.25512001 0.25733966 0.16597906
-0.20351014 0.32958099 0.16683862
-0.092029549 0.35399497 0.16597304
0.0011137947 -0.33771902 0.17758641
0.077244401 -0.32958099 0.1771211
-0.220128 -0.21133767 0.17763361
-0.21885425 -0.19340578 0.17554651
-0.149395 -0.074867591 0.17439608
0.24291299 -0.050749294 0.17194569
0.1807619 0.24820299 0.17936774
0.24291301 0.28885308 0.1742786
-0.21424511 0.353995 0.17221472
-0.21199 -0.30376542 0.18641353
0.24291299 -0.30835652 0.18742208
-0.21199 -0.20011698 0.18775707
-0.24698302 -0.085736535 0.18494298
-0.24698301 -0.0060710162 0.18311937
0.23477599 0.017783776 0.18996182
0.23477601 0.020224944 0.18755025
-0.25512001 0.17474249 0.18951845
0.24291299 0.20037967 0.18308738
0.23477602 0.23683041 0.18411975
-0.25512001 0.30961105 0.18592185
-0.016164675 -0.33771899 0.19799802
0.13897264 -0.33771902 0.19133396
0.088237181 -0.32958096 0.19986899
0.15789308 -0.32958102 0.19102745
0.16976443 -0.32958099 0.19752246
0.24291299 -0.30352405 0.19982977
-0.21935707 -0.23632598 0.19940941
0.24291301 -0.13389 0.19117594
-0.11516348 -0.074867599 0.19256073
-0.062160142 -0.074867599 0.19318333
0.18050325 -0.074867599 0.19096728
0.23477601 -0.027513362 0.19803938
-0.24698302 -0.011729633 0.19407034
-0.24698301 0.081895299 0.19533105
0.24291301 0.13128741 0.19959977
-0.24698301 0.17981151 0.19662879
-0.24698301 0.2010773 0.19989829
0.24790668 0.22306442 0.19111851
-0.053642932 0.24820299 0.19180237
-0.0012820512 0.24820301 0.19299859
0.049207076 0.32958099 0.1959672
0.13459982 0.32958099 0.19901371
0.072557762 0.35399503 0.19301564
0.09218967 -0.32958096 0.20390773
0.24291298 -0.31257886 0.20855656
-0.220128 -0.21821554 0.20422292
-0.25512001 -0.1515702 0.2063801
-0.24698302 -0.11124857 0.20300254
-0.23919791 -0.074867599 0.20635818
0.18755017 -0.074867599 0.20505759
0.23477601 0.0045679137 0.20961091
0.027556898 0.24820299 0.20260757
0.093060993 0.24820298 0.20629418
0.16551763 0.24820298 0.20386134
0.24291298 0.34569213 0.20875411
-0.14329639 0.353995 0.20207463
0.030660961 0.353995 0.20261338
0.19258782 0.353995 0.20570512
-0.16851097 -0.35380957 0.21339065
-0.064160526 -0.33771899 0.21391904
0.18112938 -0.33771899 0.21295287
0.24291301 -0.15358961 0.21114959
-0.026113702 -0.074867599 0.21665104
-0.25512001 0.11477704 0.21440071
0.23477601 0.24083221 0.21504386
-0.04063534 0.353995 0.21285367
0.11492528 0.353995 0.21216059
-0.13511893 -0.32958099 0.22133085
-0.10881253 -0.32958099 0.22294968
-0.0042690984 -0.32958099 0.22223394
-0.016363705 -0.074867599 0.22429164
0.043158099 -0.074867599 0.22792223
0.23477601 -0.033394221 0.22776203
-0.25512001 -0.022275733 0.2228937
-0.24698301 -0.0085316375 0.22676593
0.24291299 0.028556786 0.22103119
0.23477601 0.052974373 0.22086868
0.23477602 0.11211644 0.22073458
-0.25512001 0.22657456 0.22210655
-0.10302419 0.24820298 0.22154354
-0.04558067 0.24820301 0.22706747
0.071282834 0.24820301 0.22622986
-0.041385271 0.32958099 0.22493368
0.022176564 0.353995 0.22564216
0.18266216 -0.33771899 0.23249328
0.049000025 -0.32958099 0.23471953
0.22862172 -0.32958099 0.23184189
-0.10954061 -0.30530685 0.23599599
0.0080496594 -0.27301925 0.23599598
-0.19506417 -0.25141439 0.23599598
-0.035112798 -0.25113407 0.23599599
0.044238232 -0.25380057 0.23599599
-0.13248268 -0.24155951 0.23599599
-0.11816476 -0.23224787 0.23599599
0.021192186 -0.21683438 0.23599599
-0.18617435 -0.194831 0.23599599
-0.17900155 -0.19172367 0.23599601
0.18769673 -0.19635457 0.23599599
0.08451616 -0.17266849 0.23599599
-0.096359208 -0.14114232 0.23599599
0.20896283 -0.14719747 0.23599599
-0.09315604 -0.13917458 0.23599599
-0.18361843 -0.12483746 0.23599601
0.032440327 -0.11991955 0.23599599
0.21120706 -0.1158448 0.23599599
-0.058388211 -0.10936479 0.23599598
0.18809903 -0.10364521 0.23599601
-0.22454996 -0.091041662 0.23599598
0.088010326 -0.096567482 0.23599599
0.22271609 -0.086553708 0.23599599
0.07055036 -0.074662201 0.23599601
0.087408088 -0.066121727 0.23599598
-0.20887801 -0.055194072 0.23599598
-0.074239954 -0.054861709 0.23599599
0.14136697 -0.052836601 0.23599601
-0.24698301 -0.042104315 0.23386768
-0.10036604 -0.043127708 0.23599601
-0.07220187 -0.044774763 0.23599601
-0.036213435 -0.044772606 0.23599598
-0.25512001 -0.028449252 0.23296496
-0.034610189 -0.027807444 0.23599599
0.060954615 -0.028761955 0.23599598
0.24291299 -0.027308516 0.2339808
-0.14634247 -0.01792895 0.23599599
0.044913821 -0.016192755 0.23599599
0.11563163 -0.017238114 0.23599601
0.097373717 -0.00034885481 0.23599601
0.11139365 -0.0023829285 0.23599598
-0.25316867 0.010854919 0.23599599
-0.16412741 0.018885529 0.23599599
-0.12894642 0.017456338 0.23599599
-0.24698301 0.028569773 0.23363939
-0.016730499 0.033443149 0.23599598
-0.17239448 0.047336243 0.23599599
-0.12938713 0.047640741 0.23599601
-0.064873211 0.049746126 0.23599598
0.24176569 0.045349393 0.23599599
-0.24598432 0.064457357 0.23599599
0.21105839 0.072050229 0.23599599
0.20268437 0.081736147 0.23599599
-0.14033523 0.09605737 0.23599598
-0.23187861 0.10656707 0.23599598
-0.025099441 0.1122641 0.23599599
0.044822335 0.11397512 0.23599601
0.19638038 0.12824394 0.23599601
-0.17272621 0.13013028 0.23599598
-0.034062818 0.13989925 0.23599599
0.24291298 0.13357373 0.23423985
0.17835319 0.14404497 0.23599598
0.15129736 0.15730621 0.23599599
-0.0075400248 0.18320949 0.23599599
0.20733182 0.18880016 0.23599599
-0.043728203 0.19310433 0.23599601
0.18070464 0.19221288 0.23599599
0.17009255 0.20615962 0.23599599
0.18761921 0.20298894 0.23599599
0.095064074 0.21414828 0.23599598
0.25250694 0.21622401 0.23466673
0.24725796 0.22930118 0.23599599
0.18642987 0.24736694 0.23599599
-0.019371662 0.25397301 0.23599599
0.18406457 0.25641406 0.23599598
0.20839123 0.25254804 0.23599599
0.037374668 0.27145064 0.23599598
-0.24698301 0.29909983 0.23396912
-0.18224856 0.29159912 0.23599599
-0.0011628047 0.29517338 0.23599599
-0.10192093 0.30705708 0.23599601
-0.24294108 0.31646782 0.23599599
0.0066264644 0.31972051 0.23599599
0.014844663 0.31061822 0.23599599
-0.13706313 0.32958099 0.23569341
0.10867824 0.353995 0.23974837
0.23954353 0.353995 0.23316447
0.021399468 -0.32958099 0.24180062
0.22377312 -0.3018001 0.24413399
0.18852875 -0.28324187 0.24413399
-0.12248516 -0.26754248 0.24413398
-0.078719765 -0.26554877 0.24413398
0.11702359 -0.26868278 0.24413401
0.23207477 -0.26024878 0.24413399
-0.043086927 -0.25863975 0.24413398
-0.0027251653 -0.25714624 0.24413399
-0.21150419 -0.24485081 0.24413401
-0.14500442 -0.24403846 0.24413399
0.13228486 -0.23702058 0.24413401
0.17944127 -0.22307214 0.24413399
0.1813501 -0.22936788 0.24413399
-0.0355912 -0.21911168 0.24413398
-0.220128 -0.20947593 0.2400111
0.087334767 -0.20205794 0.24413399
-0.092468366 -0.18332109 0.24413399
0.017673552 -0.18766847 0.24413399
-0.16712555 -0.17056689 0.24413398
-0.10255224 -0.16937293 0.24413399
0.037870884 -0.16132237 0.24413401
-0.18493026 -0.14155686 0.24413399
-0.048181318 -0.14601602 0.24413401
0.18358099 -0.14230758 0.24413398
-0.2132673 -0.1367489 0.24413399
-0.17554775 -0.13342787 0.24413398
-0.13405837 -0.11656067 0.24413398
0.071112759 -0.10605377 0.24413398
0.20418549 -0.10020824 0.24413398
0.09228158 -0.090014324 0.24413399
-0.17376603 -0.080520645 0.24413401
-0.17651278 -0.071932971 0.24413399
0.1894719 -0.079131477 0.24413401
0.2200228 -0.070624143 0.24413401
0.19658768 -0.063448787 0.24413399
0.00073680282 -0.050960705 0.24413399
0.032162406 -0.047631901 0.24413399
0.15975282 -0.048327364 0.24413398
0.16360316 -0.04053627 0.24413401
0.23747161 -0.043232456 0.24413398
-0.02100677 -0.035368189 0.24413399
0.14759105 -0.031733073 0.24413398
-0.13510203 -0.023356698 0.24413399
0.23582315 -0.012443677 0.24413399
-0.045850739 -0.0046766363 0.24413401
-0.23140058 0.0034122616 0.24413401
0.15821189 0.0082214475 0.24413401
-0.11705239 0.014848404 0.24413401
-0.10242037 0.021907035 0.24413401
-0.085701495 0.027625589 0.24413398
-0.032983474 0.022018507 0.24413401
-0.0843364 0.036814459 0.24413399
0.034195311 0.039284281 0.24413399
0.23071268 0.037562728 0.24413398
-0.16185082 0.04272135 0.24413401
-0.18329187 0.058551375 0.24413399
-0.0075606089 0.053851217 0.24413399
-0.12012713 0.065046884 0.24413398
-0.20926116 0.079290166 0.24413399
0.063267387 0.078065693 0.24413398
0.19632299 0.079845205 0.24413399
2.1722168e-05 0.08434201 0.24413401
0.043988839 0.093023583 0.24413401
0.10747395 0.10291236 0.24413398
-0.044061963 0.12470007 0.24413399
0.12828496 0.12829277 0.24413401
0.20780803 0.14995453 0.24413398
0.06589222 0.15323508 0.24413399
0.17610742 0.15910278 0.24413398
-0.095794261 0.16094764 0.24413401
0.1357443 0.1846686 0.24413401
-0.25116509 0.19169846 0.24413399
-0.16825867 0.19458431 0.24413399
0.074263379 0.19862863 0.24413401
0.14482793 0.19556509 0.24413401
0.11788355 0.20200294 0.24413401
0.13324781 0.21836337 0.24413399
-0.12726623 0.22174853 0.24413399
-0.0022548661 0.22974077 0.24413401
-0.14298749 0.24190208 0.24413399
-0.12510237 0.25458762 0.24413399
0.08715605 0.25835535 0.24413399
-0.027112953 0.26307976 0.24413399
0.063821614 0.26343679 0.24413401
-0.23062056 0.2814633 0.24413398
-0.16276424 0.28382802 0.24413399
0.10906678 0.28748983 0.24413398
-0.16779965 0.29045838 0.24413399
0.24291299 0.29637727 0.24112037
0.02575215 0.30695969 0.24413399
-0.062885188 0.32214257 0.24413398
0.012807488 0.34049883 0.24413401
-0.16028553 0.353995 0.24410419
