# .PCD v0.7 - Point Cloud Data file format
VERSION 0.7
FIELDS x y z
SIZE 4 4 4
TYPE F F F
COUNT 1 1 1
WIDTH 979
HEIGHT 1
VIEWPOINT 0 0 0 1 0 0 0
POINTS 979
DATA ascii
0.035229411 -0.280536 -0.27227131
-0.21938179 -0.27856991 -0.273752
-0.037800103 -0.27090105 -0.273752
-0.080876663 -0.26821613 -0.273752
0.0925304 -0.26073697 -0.273752
0.19440138 -0.26413193 -0.273752
0.14759496 -0.25453973 -0.273752
-0.0019758493 -0.24370235 -0.273752
0.083553836 -0.24502696 -0.273752
0.1635893 -0.2421284 -0.273752
0.24987221 -0.24258687 -0.273752
-0.054193348 -0.23691332 -0.273752
0.14112279 -0.23649164 -0.273752
-0.10460541 -0.22006197 -0.27375203
0.0088351965 -0.22875173 -0.273752
0.19999689 -0.22340207 -0.273752
-0.29145384 -0.21406701 -0.27375197
-0.15074441 -0.21601608 -0.273752
0.14257793 -0.21662632 -0.273752
-0.28553703 -0.20201339 -0.273752
-0.0078692585 -0.20703459 -0.273752
0.10210812 -0.20517206 -0.273752
0.28622606 -0.20846124 -0.273752
-0.30058002 -0.19326165 -0.273752
-0.177268 -0.19505888 -0.273752
0.2087198 -0.19581504 -0.273752
0.24541742 -0.190879 -0.273752
-0.2440331 -0.1832988 -0.273752
0.25497973 -0.18626451 -0.273752
-0.27672404 -0.17737196 -0.273752
-0.21526593 -0.17895202 -0.273752
0.18767181 -0.17782576 -0.273752
-0.26870403 -0.16570741 -0.273752
0.036002129 -0.16928482 -0.273752
0.087413952 -0.16643524 -0.273752
0.099215716 -0.15960586 -0.273752
0.19585507 -0.15850928 -0.273752
-0.14930353 -0.14447597 -0.273752
0.15357438 -0.140205 -0.273752
0.27031028 -0.14293365 -0.273752
-0.27817675 -0.12011331 -0.273752
-0.20792893 -0.12267685 -0.273752
-0.033962563 -0.12621723 -0.273752
-0.021128014 -0.12864898 -0.27375203
-0.13256024 -0.11422516 -0.273752
-0.26275864 -0.10999706 -0.273752
0.00056184828 -0.10455751 -0.273752
0.29204199 -0.10278372 -0.27161041
-0.18900016 -0.09964627 -0.273752
0.22625604 -0.096317187 -0.273752
0.23122147 -0.09573283 -0.273752
0.24962942 -0.092253342 -0.273752
0.25520545 -0.093621425 -0.27375197
-0.28882894 -0.088464066 -0.273752
-0.16809958 -0.084848724 -0.273752
0.22274989 -0.089734912 -0.273752
-0.13793953 -0.072204851 -0.273752
-0.00097920001 -0.07192497 -0.273752
0.065993913 -0.074599907 -0.273752
0.15914917 -0.07308583 -0.273752
0.22725581 -0.074964523 -0.273752
-0.26489434 -0.065618202 -0.273752
0.15235601 -0.06766481 -0.273752
0.22453216 -0.061237194 -0.273752
0.28770414 -0.065223038 -0.27375203
-0.29788861 -0.047424391 -0.273752
-0.18866488 -0.049158752 -0.273752
0.046118677 -0.045683943 -0.273752
0.12403802 -0.040794984 -0.273752
-0.29759908 -0.03935717 -0.273752
0.26327005 -0.031349689 -0.27375203
0.12484028 -0.029364467 -0.273752
0.17867509 -0.02278756 -0.273752
0.20395635 -0.023798067 -0.273752
-0.25226671 -0.010115914 -0.273752
-0.18199199 -0.0056281127 -0.273752
-0.09799967 -0.0064136013 -0.273752
-0.0094767213 -0.0037102103 -0.273752
0.0079851598 -0.0092054904 -0.273752
0.042920746 -0.0043520704 -0.273752
0.25531769 -0.004133217 -0.273752
-0.27101821 0.0085645467 -0.273752
0.061136968 0.0091693103 -0.273752
0.24718289 0.0053180121 -0.273752
-0.17929345 0.010125883 -0.273752
-0.16933301 0.015218347 -0.273752
-0.15870747 0.012339208 -0.273752
-0.016753891 0.01194937 -0.273752
0.045333255 0.018665429 -0.273752
-0.015699629 0.02434523 -0.273752
0.27231529 0.023676857 -0.273752
-0.24882793 0.039198466 -0.273752
0.050378487 0.037874334 -0.273752
0.18981969 0.035029206 -0.273752
-0.30965039 0.044927564 -0.273752
-0.28186852 0.04786066 -0.27375197
-0.25023642 0.041909873 -0.273752
-0.24402383 0.045367949 -0.273752
-0.11185391 0.045825906 -0.273752
-0.055973385 0.041659411 -0.273752
0.018860936 0.049300715 -0.273752
0.046861559 0.042368673 -0.273752
0.14648929 0.046602152 -0.273752
-0.16311374 0.05718993 -0.273752
0.072729349 0.054556184 -0.273752
-0.08123675 0.063288748 -0.273752
0.1456947 0.069583274 -0.273752
-0.31030971 0.075770572 -0.273752
-0.24851555 0.075996049 -0.273752
0.013639808 0.070134051 -0.273752
0.050586745 0.072183691 -0.273752
-0.14025816 0.089647539 -0.273752
0.17101443 0.084832795 -0.273752
-0.0016364381 0.092434302 -0.273752
0.0025602505 0.098376572 -0.273752
0.2580412 0.092253312 -0.273752
-0.27032596 0.10855409 -0.273752
-0.065112166 0.10997604 -0.273752
0.038577348 0.10672814 -0.273752
0.11408402 0.10758795 -0.273752
-0.24119724 0.11134293 -0.273752
0.085960202 0.11733937 -0.273752
0.1672985 0.1124976 -0.273752
-0.12105602 0.12437628 -0.273752
0.010820061 0.12252761 -0.273752
-0.25948989 0.13890386 -0.273752
0.19419721 0.1314069 -0.273752
-0.19212961 0.14440325 -0.273752
-0.24006143 0.15730016 -0.273752
-0.024068564 0.15112038 -0.273752
-0.0031319484 0.15465292 -0.273752
-0.0015207827 0.16167727 -0.273752
0.084046572 0.16688189 -0.273752
0.2225543 0.16740836 -0.27375197
0.23089263 0.16608003 -0.273752
-0.22969295 0.17256761 -0.273752
-0.077318877 0.17863625 -0.273752
-0.29110056 0.18165147 -0.273752
-0.1817383 0.18162312 -0.273752
-0.16414115 0.18045171 -0.273752
0.018454075 0.18836206 -0.273752
0.05188752 0.18110409 -0.273752
0.063561074 0.18155785 -0.273752
0.14941755 0.18201837 -0.273752
0.020314954 0.19880733 -0.273752
-0.016763352 0.20046499 -0.273752
0.058673292 0.20785484 -0.27375203
0.2200952 0.20926042 -0.273752
0.265504 0.20005855 -0.273752
0.036516681 0.21416259 -0.273752
-0.1885208 0.22541378 -0.273752
-0.15092747 0.22827423 -0.273752
-0.10674744 0.22827044 -0.273752
-0.2063197 0.23314637 -0.273752
-0.07894513 0.23408519 -0.273752
0.06219478 0.23691052 -0.273752
-0.29965323 0.24636927 -0.273752
-0.28666532 0.24197963 -0.273752
-0.1349628 0.24579206 -0.273752
0.026587501 0.2465241 -0.273752
0.12603639 0.24227509 -0.273752
0.24157043 0.24791789 -0.273752
-0.22805068 0.25244522 -0.273752
0.0011096671 0.25940278 -0.273752
0.041278228 0.25023058 -0.273752
0.2807034 0.25411895 -0.273752
-0.13120604 0.26261422 -0.273752
-0.0115446 0.2690579 -0.273752
0.084111586 0.26534715 -0.273752
0.087112807 0.27486548 -0.27375197
0.23435292 0.27146924 -0.273752
-0.31021976 0.280536 -0.27286574
-0.10803051 0.28035766 -0.27331093
-0.083864152 -0.280536 -0.26411524
0.082049266 -0.280536 -0.26780489
0.29204199 -0.25880298 -0.26180795
0.29204199 -0.24227172 -0.26415312
-0.31041801 -0.12546735 -0.26127452
-0.31041801 0.022005588 -0.26355514
0.29204199 0.12507728 -0.2604546
-0.28416219 0.280536 -0.26126081
-0.27072552 0.280536 -0.26286325
0.20286763 0.280536 -0.26335025
0.22234109 0.280536 -0.26298708
-0.29149109 -0.28053603 -0.25173286
-0.13078442 -0.280536 -0.25368905
-0.035318628 -0.280536 -0.25778821
0.059176773 -0.280536 -0.25734058
0.1640815 -0.280536 -0.25770214
0.18581057 -0.280536 -0.25516579
0.2507776 -0.280536 -0.25378564
-0.31041801 -0.19511512 -0.25395107
-0.31041801 -0.02839081 -0.25584844
-0.31041801 0.1262686 -0.25479287
-0.31041801 0.16977677 -0.25923547
0.28105101 0.18490939 -0.2564159
-0.31041801 0.27825192 -0.25685182
0.28105101 0.27519423 -0.25165144
-0.24541014 0.280536 -0.25447899
-0.28277752 -0.280536 -0.2494438
-0.047535323 -0.280536 -0.24071178
0.197549 -0.280536 -0.24928072
0.29204199 -0.24759321 -0.24300857
-0.31041801 -0.20477471 -0.24474886
0.29204199 -0.19550376 -0.24333867
-0.31041801 -0.11469135 -0.24138641
0.29204199 -0.077543586 -0.24431136
-0.31041801 -0.046425194 -0.24152172
-0.31041801 0.043655999 -0.242781
0.28105101 0.26292375 -0.24797803
0.2327832 0.280536 -0.24816009
-0.21349683 -0.280536 -0.23559196
-0.13934001 -0.280536 -0.23289087
-0.076273635 -0.280536 -0.23936215
-0.049384244 -0.280536 -0.23691991
0.025368452 -0.280536 -0.23545051
0.092428491 -0.280536 -0.23653004
0.1087712 -0.280536 -0.23521069
0.29204202 -0.217655 -0.23859319
-0.31041801 -0.12656213 -0.23633081
-0.31041801 -0.084580109 -0.23913258
0.29204199 -0.063609421 -0.23683345
0.29204199 0.087181285 -0.23519769
0.29204199 0.11656103 -0.23905312
-0.31041801 0.13682944 -0.23880172
-0.26285329 0.280536 -0.23753045
-0.17553112 0.280536 -0.23015776
0.11577645 0.280536 -0.23030019
-0.30719227 -0.280536 -0.22340922
-0.1797114 -0.280536 -0.22385031
0.081621565 -0.280536 -0.2274954
0.10649566 -0.280536 -0.22949024
0.29204199 -0.23301467 -0.22818559
-0.31041801 -0.061849952 -0.22172458
-0.31041801 0.033801198 -0.22058246
0.29204199 0.057574809 -0.22554556
0.29204199 0.10442033 -0.22787414
-0.31041801 0.19742388 -0.22474706
-0.31041801 0.24394174 -0.22881691
-0.20350586 0.280536 -0.22209522
-0.19365582 0.280536 -0.22248802
-0.10836662 0.280536 -0.22467691
0.29204196 -0.28025112 -0.21968232
-0.31041801 -0.158115 -0.21201661
-0.31041801 -0.11810356 -0.21879999
-0.31041801 0.22329919 -0.21427411
-0.30009973 0.280536 -0.21301883
-0.25046945 0.280536 -0.21684632
-0.18506359 0.280536 -0.21016431
0.10484688 0.280536 -0.21796942
-0.023071356 -0.280536 -0.20729582
0.23462769 -0.280536 -0.20262481
0.29204199 -0.26838273 -0.20279588
0.29204199 -0.24642712 -0.20115258
0.29204196 -0.18985771 -0.20565414
-0.31041801 -0.095913142 -0.20151386
-0.31041801 -0.069791831 -0.20758544
0.29204202 -0.0042675212 -0.209887
0.29204199 0.043403462 -0.20437869
-0.31041801 0.11087509 -0.2079652
-0.31041798 0.27517688 -0.20935091
-0.24411644 0.280536 -0.20530444
0.035646591 0.280536 -0.20466432
0.16405767 0.280536 -0.20455378
0.21473637 0.280536 -0.20806405
-0.31041801 -0.27062005 -0.19279329
-0.31041801 -0.19610623 -0.19141674
-0.31041801 -0.13622233 -0.19030397
0.29204199 0.029640015 -0.19279042
0.29204199 0.07426998 -0.19609575
-0.31041801 0.12894049 -0.19662093
-0.088878512 0.280536 -0.1965259
-0.24563313 -0.280536 -0.18246236
-0.16383259 -0.280536 -0.18688574
-0.038877957 -0.280536 -0.18539733
0.10581222 -0.280536 -0.18449643
-0.31041801 -0.15644145 -0.18192874
-0.31041801 -0.093548566 -0.18142115
0.29204199 -0.014449313 -0.18642035
0.29204199 0.0060745738 -0.18176217
-0.31041801 0.047441833 -0.18510629
-0.31041801 0.0671212 -0.18710698
0.29204199 0.12286425 -0.18876588
0.29496199 0.1832681 -0.18682015
-0.31041801 0.27322847 -0.1847672
-0.016189784 0.280536 -0.18194398
-0.14799935 -0.280536 -0.17553627
-0.061617956 -0.280536 -0.17917797
0.018435232 -0.280536 -0.17855705
0.18141302 -0.280536 -0.17017895
0.28158981 -0.280536 -0.17345363
0.29204199 -0.25541484 -0.17228405
-0.31041801 0.023879856 -0.17863804
0.29496199 0.20413521 -0.17797065
0.29496199 0.2230317 -0.17531115
-0.25273106 0.280536 -0.17013575
-0.24195354 0.280536 -0.17448547
-0.22272776 0.280536 -0.17501578
0.061114442 0.280536 -0.1787415
0.15341778 0.280536 -0.17997463
0.25702083 0.280536 -0.17555852
-0.23516934 -0.280536 -0.1617593
-0.16531295 -0.280536 -0.16784568
0.14253119 -0.280536 -0.16684875
0.29204199 -0.17241013 -0.16894172
-0.31041801 -0.16715986 -0.16360374
-0.31041801 -0.091059566 -0.16368315
0.29829144 -0.097924978 -0.16305052
-0.31041801 0.055241831 -0.16453195
0.29204199 0.063020453 -0.16476162
-0.27735397 0.280536 -0.16973986
-0.21204408 0.280536 -0.16510096
0.1702887 0.280536 -0.16118087
0.29204199 -0.21092355 -0.15601741
-0.31041801 -0.20288888 -0.15082061
-0.31041801 -0.077658549 -0.15432158
-0.31041801 -0.062598065 -0.15814379
0.31041801 -0.021362768 -0.15188125
-0.31041801 0.025076717 -0.15611218
0.28801864 0.13683775 -0.15471306
-0.15008664 0.280536 -0.15968984
0.0096164048 0.280536 -0.15242139
-0.21354222 -0.280536 -0.1410844
0.23483278 -0.280536 -0.14688393
-0.31041801 -0.22367598 -0.14245512
0.31041801 -0.07352946 -0.14764035
-0.31041801 0.038543787 -0.1453982
0.2928986 0.171104 -0.1434446
-0.14239489 0.280536 -0.14494474
-0.12980117 0.280536 -0.14773765
-0.083850756 0.280536 -0.14086667
0.053898692 0.280536 -0.14757484
-0.19572282 -0.280536 -0.13889593
-0.072808035 -0.280536 -0.13726568
0.13930148 -0.280536 -0.13652806
0.30064046 -0.15492097 -0.13489614
-0.31041801 0.049726754 -0.1399477
0.31041801 0.046845548 -0.13165447
-0.31041801 0.15182386 -0.13682388
0.29496199 0.21442387 -0.13116178
-0.31041801 0.27899283 -0.13948524
-0.15509495 0.280536 -0.13134724
-0.026083615 0.280536 -0.1313781
0.084330283 0.280536 -0.13390225
-0.25055176 -0.280536 -0.1222218
-0.064196765 -0.280536 -0.12552769
0.11280265 -0.280536 -0.12825467
-0.31041801 -0.26988435 -0.12084024
0.29204196 -0.26308236 -0.12073176
0.30136484 -0.092360184 -0.12190555
0.25904799 -0.07559225 -0.12505066
0.30551106 -0.074864209 -0.12514651
0.28448802 -0.064440891 -0.12651873
0.30973002 -0.064994343 -0.12644586
-0.31041801 -0.059729606 -0.12872222
0.233823 -0.038907278 -0.12106228
0.25021917 -0.023294011 -0.12329221
0.29204199 0.10193965 -0.12997474
0.28105101 0.16301574 -0.12606066
0.29496199 0.20184657 -0.1221349
-0.27574959 0.280536 -0.12038091
-0.18596709 0.280536 -0.1200802
0.26070985 0.280536 -0.12632212
-0.22690073 -0.280536 -0.11750227
-0.19782016 -0.280536 -0.11926236
-0.15166073 -0.280536 -0.11755887
0.058833409 -0.280536 -0.11758692
0.12507248 -0.280536 -0.11002176
0.1475087 -0.280536 -0.11550034
0.24773167 -0.11382242 -0.11301548
0.233823 -0.0071772402 -0.11651137
0.25173312 -0.001688821 -0.11436911
-0.31041801 0.15840378 -0.11114317
-0.029280927 0.280536 -0.11490709
-0.25601533 -0.280536 -0.10801734
-0.199497 -0.280536 -0.10967131
0.13669397 -0.280536 -0.10419711
0.26032752 -0.280536 -0.10453983
-0.31041801 -0.12988396 -0.10912451
0.25052518 -0.12348214 -0.10768542
-0.31041801 -0.03702464 -0.10612611
0.27185005 0.015064467 -0.10474992
0.29465839 0.01659032 -0.1035791
-0.31041801 0.045756981 -0.10146344
0.28105101 0.14052932 -0.10189232
-0.31041801 0.18573231 -0.10026931
-0.31041801 0.22348541 -0.10181758
-0.1718975 0.280536 -0.10005975
0.066086769 0.280536 -0.10815794
-0.14638871 -0.280536 -0.099767447
-0.070277981 -0.280536 -0.099729232
0.23425564 -0.280536 -0.095838957
-0.31041801 -0.27390462 -0.096854277
0.30197781 -0.19753298 -0.091024548
-0.31041801 -0.18661746 -0.094461299
-0.31041801 -0.083851904 -0.094707638
0.3075172 0.022143133 -0.099318288
-0.015114315 0.280536 -0.094147533
-0.13438469 -0.280536 -0.087147027
-0.079094797 -0.280536 -0.083111584
0.095396452 -0.280536 -0.089359097
0.24318723 -0.15130754 -0.083523318
0.233823 -0.085205354 -0.083656073
-0.31041801 -0.074587338 -0.084485538
0.29204199 0.089725114 -0.084292181
0.287458 0.19986457 -0.080181502
0.28533131 0.20329343 -0.080181502
-0.31041801 0.24910921 -0.089401625
-0.30821729 0.280536 -0.089031458
-0.25604558 -0.280536 -0.073006704
0.26584402 0.042651914 -0.078848243
0.28105101 0.15076877 -0.077701598
0.28105101 0.20762447 -0.07818453
-0.31041801 0.263762 -0.074608572
-0.29146147 0.280536 -0.074647166
-0.10263333 0.280536 -0.07167086
0.041821033 0.280536 -0.071383812
0.26068878 0.280536 -0.077904947
-0.083560683 -0.280536 -0.062569596
-0.033348113 -0.280536 -0.06145104
0.11859283 -0.280536 -0.062804304
0.20903882 -0.280536 -0.066213422
0.29204199 -0.25543794 -0.061100639
0.233823 -0.13416494 -0.066418126
0.233823 0.040142383 -0.06881991
-0.31041801 0.063450918 -0.060671654
-0.31041801 0.1300741 -0.06806156
-0.31041801 0.18421546 -0.066690132
-0.31041801 0.19530755 -0.068734244
0.28105101 0.19917017 -0.066016532
-0.26326799 0.280536 -0.065739974
-0.099181898 0.280536 -0.067769013
0.24880841 0.280536 -0.06420657
-0.22051938 -0.280536 -0.053514794
0.29204199 -0.27042004 -0.058174036
0.29553807 -0.16967645 -0.055807367
0.233823 -0.10982355 -0.056791641
0.233823 -0.032208886 -0.053610813
-0.31041801 -0.017533511 -0.056826122
-0.31041801 0.06984622 -0.059964854
-0.26658183 0.280536 -0.058660857
-0.22511455 -0.280536 -0.040723376
-0.15248314 -0.280536 -0.047961805
-0.10556996 -0.280536 -0.04568325
-0.02750819 -0.280536 -0.043990083
0.0044171587 -0.280536 -0.040001541
0.16536573 -0.280536 -0.049494185
-0.31041801 -0.26998416 -0.045767188
0.29204199 -0.2297104 -0.04760386
0.31041801 -0.19372633 -0.04221303
0.2971158 -0.1722444 -0.049607925
0.233823 -0.12102008 -0.041377325
-0.31041801 -0.048334002 -0.043884322
0.31041801 0.097322755 -0.04348167
0.28105101 0.22714934 -0.040460374
-0.29129344 0.280536 -0.043127708
-0.049933463 0.280536 -0.04430183
-0.037466589 0.280536 -0.048591234
-0.30803061 -0.280536 -0.036772303
-0.31041801 0.1015852 -0.034977764
-0.31041801 0.11496493 -0.034508388
0.28105098 0.19735171 -0.039012291
0.28105101 0.24864075 -0.03376234
0.28105101 0.25108552 -0.037540488
0.16353144 0.280536 -0.039529108
0.19790834 0.280536 -0.039371759
-0.067064375 -0.280536 -0.024093822
-0.31041801 -0.22888535 -0.023762926
-0.31041801 0.057211518 -0.021819614
0.24927047 0.068367913 -0.020971032
-0.31041801 0.076783001 -0.022554293
0.31041801 0.076786175 -0.022003308
0.016548783 0.280536 -0.020789474
0.074182577 0.280536 -0.025314182
-0.16626059 -0.280536 -0.012359247
0.233823 -0.085930727 -0.010092556
-0.31041801 -0.012549561 -0.017475732
0.31041801 0.072947927 -0.013464971
-0.31041801 0.080381118 -0.01997105
0.31041801 0.10651731 -0.012324788
-0.15616813 0.280536 -0.011520386
-0.26014191 -0.280536 -0.0032235608
-0.091011465 -0.280536 -0.0060655475
0.29449323 -0.22408731 -0.0069587156
0.31041801 -0.19267519 -0.0032697804
0.27750292 0.070380911 -0.0056793853
-0.31041801 0.086078554 -0.00045277923
-0.31041801 0.22451511 -0.005370155
-0.041159846 0.280536 -0.0048689842
0.037514366 0.280536 -0.0096089393
0.04464145 0.280536 -0.0039381087
0.16940005 0.280536 -0.0021380782
0.18639031 0.280536 -0.0064529851
0.15825948 -0.280536 0.0089206025
0.28914285 -0.18282716 0.0033018363
0.233823 -0.14705853 0.0057551339
-0.31041801 -0.13350451 0.0036254674
-0.31041801 -0.096230321 0.009544678
0.233823 -0.031005805 0.0016598031
-0.31041801 -0.016022237 0.0064306329
0.233823 0.056912113 0.008409299
0.28105101 0.22686344 0.0049304124
-0.30515683 0.280536 0.006858632
-0.16438669 0.280536 0.0040737689
0.11399682 0.280536 0.0050690658
0.21451421 0.280536 0.0035636872
0.22481352 0.280536 0.0032555163
0.10160682 -0.280536 0.019545604
0.22271258 -0.280536 0.019652873
-0.31041801 -0.12184015 0.018402833
-0.31041801 0.20081764 0.013382688
-0.31041801 0.26835811 0.012365635
-0.2337611 0.280536 0.012789153
-0.046531547 0.280536 0.013646005
0.15881789 0.280536 0.010721251
-0.10353699 -0.280536 0.025018647
0.00065033138 -0.280536 0.028416611
0.012248127 -0.280536 0.025248319
0.16771901 -0.280536 0.024964646
0.24160722 -0.280536 0.021205693
0.29204199 -0.269995 0.025457337
-0.31041801 -0.20443389 0.028038688
-0.31041801 -0.021440059 0.029896304
-0.31041801 0.043626368 0.024413288
0.25868738 0.067692012 0.025267567
0.26881376 0.067156509 0.029335521
-0.31041801 0.14287397 0.029960439
0.29204199 0.16987868 0.028485987
-0.31041801 0.19318376 0.029213801
-0.31041801 0.21094203 0.025307342
0.28105101 0.26398823 0.021893561
-0.25074616 0.280536 0.023096353
-0.17125469 0.280536 0.023033161
0.034928598 0.280536 0.021092266
-0.23805261 -0.280536 0.031354077
0.29204199 -0.24758139 0.034896187
-0.31041801 -0.20872602 0.034847319
0.24156275 -0.1779829 0.034916218
0.29583293 -0.17898223 0.032503672
-0.31041801 0.0081841052 0.036900237
0.30561194 0.06463179 0.037590805
-0.31041801 0.14779171 0.0309496
-0.055681698 0.280536 0.037479244
-0.030041642 0.280536 0.030708782
0.14296585 0.280536 0.032774974
-0.29389089 -0.280536 0.040525943
-0.24235187 -0.280536 0.043711647
-0.10185708 -0.280536 0.041209221
-0.030867051 -0.280536 0.045852248
0.24535227 -0.280536 0.040546782
0.29204199 -0.24815615 0.047073182
-0.31041801 -0.21996632 0.048709169
0.30683151 -0.17577253 0.040252462
-0.31041801 0.24190456 0.049995825
-0.17824388 0.280536 0.043064434
-0.081557706 0.280536 0.04929357
-0.30759487 -0.280536 0.053319044
-0.29416776 -0.280536 0.058151342
-0.16265547 -0.280536 0.059725005
0.18131916 -0.280536 0.056530394
-0.31041801 -0.23335747 0.051422186
-0.31041801 -0.042958856 0.057816073
0.233823 -0.004607779 0.053128183
-0.31041801 0.16927069 0.050650615
-0.31041801 0.27986959 0.053438313
-0.20742536 0.280536 0.057920728
-0.044586916 0.280536 0.050408065
0.1080189 0.280536 0.058302931
0.26568493 0.280536 0.054479063
-0.31041801 -0.28019106 0.065986492
0.29204199 -0.23958075 0.068323411
0.30913347 -0.21153179 0.060355812
0.27634901 -0.16474876 0.065169111
-0.31041801 -0.076181032 0.068359613
0.233823 0.036770515 0.069070354
0.29204199 0.15927014 0.066444762
-0.31041801 0.25461686 0.062868088
-0.16870725 0.280536 0.064073354
-0.089128584 0.280536 0.069329321
0.074387282 0.280536 0.063794971
0.17078489 0.280536 0.062184915
0.18178529 0.280536 0.063496731
-0.16037622 -0.280536 0.070237786
-0.043405905 -0.280536 0.075542212
0.22945762 -0.280536 0.0790492
-0.31041801 -0.25368685 0.074322902
0.29204199 -0.25860274 0.07188797
0.27371475 -0.15351263 0.079812214
-0.31041801 -0.07895419 0.07291735
0.29994607 0.093595803 0.073517002
0.29204199 0.17378448 0.076498933
-0.21818608 0.280536 0.077656545
-0.11975592 0.280536 0.075266413
-0.096827202 0.280536 0.071002088
0.055365186 0.280536 0.076261729
0.20947966 0.280536 0.070189402
0.26959223 0.280536 0.074092209
-0.14229213 -0.280536 0.084348857
0.0073143467 -0.280536 0.088059328
0.18119158 -0.280536 0.089080334
0.29204202 -0.27166414 0.089193612
0.29204199 -0.23962894 0.087337978
0.30258653 -0.20206843 0.082500286
-0.31041801 -0.19215772 0.080606595
-0.31041801 -0.17475928 0.08365076
0.28401634 -0.14976728 0.084693216
-0.31041801 0.029877454 0.086474925
0.29940659 0.035348672 0.087528393
-0.31041801 0.20732003 0.080560625
-0.31041801 0.24882254 0.080288939
-0.16581017 0.280536 0.080463871
-0.11109706 0.280536 0.08455684
0.21235868 0.280536 0.089232117
-0.02461955 -0.280536 0.098857969
0.0060404353 -0.280536 0.096819624
-0.31041801 -0.22007829 0.09455514
0.29204199 -0.22664176 0.099068627
0.26387727 -0.14227985 0.09242405
-0.31041801 -0.12736259 0.099805385
0.233823 -0.018578442 0.097751945
-0.31041801 0.048452556 0.098296054
0.29429853 0.08506044 0.090468399
-0.22142605 0.280536 0.096020095
-0.20190799 0.280536 0.097480103
-0.026065655 0.280536 0.091707088
0.17780022 0.280536 0.094872378
-0.3030811 -0.280536 0.10074443
-0.1550938 -0.280536 0.10984293
0.17628226 -0.280536 0.1082281
0.20520598 -0.280536 0.10195389
-0.31041801 -0.26869962 0.10811348
0.31041801 -0.12851998 0.10594088
0.233823 -0.10224746 0.10707983
0.29204199 0.10552143 0.1077381
-0.21134186 0.280536 0.10373341
0.016276803 0.280536 0.10482253
0.1004221 0.280536 0.10885197
0.20035511 0.280536 0.10235309
0.2171399 0.280536 0.1025233
0.088605784 -0.280536 0.11180976
-0.31041801 -0.26816553 0.1166582
-0.31041801 -0.25110972 0.11416348
0.233823 -0.0024952255 0.1135304
0.28404182 0.0017511272 0.11210621
-0.24970903 0.280536 0.11259978
-0.27920619 -0.280536 0.12075325
-0.037687678 -0.280536 0.12017977
0.043501623 -0.280536 0.12532961
0.13138764 -0.280536 0.12309971
0.1440621 -0.280536 0.12554851
0.21202877 -0.280536 0.12864962
0.26528001 -0.094537422 0.12016569
0.25417629 -0.064520605 0.12567022
0.23883869 -0.031661265 0.12355577
-0.31041801 -0.0094301403 0.12741341
-0.31041801 0.0021026768 0.1209317
-0.31041801 0.1111346 0.12419583
-0.31041801 0.15757681 0.12951128
-0.23728214 0.280536 0.12401333
0.31041801 -0.11214769 0.13385895
0.31041801 -0.046806939 0.13740847
0.29204199 0.061153188 0.1337537
-0.31041801 0.20192406 0.1314536
-0.28117961 0.280536 0.13561803
-0.045189112 0.280536 0.13268867
0.014821675 0.280536 0.13325098
0.23367156 0.280536 0.13141501
0.26009235 0.280536 0.13824917
-0.043688439 -0.280536 0.14004952
0.29204202 -0.26121444 0.14953759
-0.31041801 -0.23239139 0.14455332
0.2971406 -0.13200808 0.14842434
-0.31041801 0.17335425 0.14077361
0.28105101 0.23682876 0.14343441
-0.31041801 0.27932757 0.14756233
-0.24483889 0.280536 0.14753172
-0.15428418 0.280536 0.14116442
0.10196713 0.280536 0.14762917
0.17118081 0.280536 0.14043313
0.24838457 0.280536 0.14770508
0.13637993 -0.280536 0.15306488
0.29204199 -0.24711233 0.15703887
0.29204199 -0.19031146 0.15261093
0.29899344 -0.1191429 0.15419583
-0.31041801 -0.10822718 0.15588503
0.29204196 0.048356939 0.15819018
-0.31041801 0.24218948 0.15574475
-0.31041801 0.27741098 0.15929607
0.069251016 0.280536 0.15840051
0.18125494 0.280536 0.15319344
0.26481572 0.280536 0.15341662
-0.03918625 -0.280536 0.16056484
0.15539679 -0.280536 0.16470501
0.20847082 -0.280536 0.16068973
0.29204199 -0.27742723 0.16710259
-0.31041801 -0.24464267 0.16572487
-0.31041801 -0.12189984 0.16927221
0.29316112 -0.047720425 0.16645601
0.29204199 -0.02324879 0.16408318
0.29204199 0.13216183 0.16112173
-0.043157738 0.280536 0.16896147
0.16532578 0.280536 0.16494188
0.078122579 -0.280536 0.17050853
0.16681011 -0.280536 0.17459771
0.29204199 -0.15364674 0.17573392
0.29204199 -0.11712132 0.17906781
0.29204199 -0.076999158 0.17978907
-0.31041801 -0.026243374 0.17120267
-0.31041801 -0.0088984817 0.1786693
-0.31041801 0.013233796 0.1791431
-0.31041801 0.084138297 0.17934321
-0.31041801 0.090654381 0.1797217
-0.31041801 0.16289286 0.17745347
-0.31041801 0.1944184 0.17540322
0.236285 0.280536 0.17718297
-0.2330735 -0.280536 0.1869095
0.0027372241 -0.280536 0.1861729
-0.31041801 -0.22168808 0.18183579
-0.31041801 -0.18602067 0.18391424
-0.31041801 -0.13357626 0.18780923
0.29204199 -0.0067899413 0.18735379
-0.080348492 0.280536 0.18535405
5.71087e-06 0.280536 0.18518463
-0.23827127 -0.280536 0.19138178
-0.089840278 -0.280536 0.19109307
0.19023627 -0.280536 0.19824424
0.29204199 -0.15292329 0.19076096
-0.31041801 0.072868533 0.19250947
0.29204199 0.17668788 0.19644395
-0.30222261 -0.280536 0.2076095
0.022321209 -0.280536 0.20725411
0.18574941 -0.280536 0.20529726
0.20486617 -0.280536 0.2076475
-0.31041801 -0.12692928 0.20384715
-0.31041801 -0.074870691 0.20034119
-0.31041801 -0.011049062 0.20741171
-0.31041801 0.054824099 0.20567554
-0.31041801 0.22962372 0.20494375
-0.010127235 0.280536 0.2098279
0.12461051 0.280536 0.20465249
0.24698247 0.280536 0.20921372
0.26286107 0.280536 0.20980898
-0.23068275 -0.280536 0.21784848
-0.056650043 -0.280536 0.21132004
0.13531774 -0.280536 0.21467975
0.24587871 -0.280536 0.21774283
0.29204199 -0.23090255 0.21121489
0.29204202 -0.11955026 0.21041527
-0.31041801 -0.041664064 0.21270213
0.29204199 -0.036982294 0.21869457
-0.31041801 0.090299472 0.21284074
0.29204199 0.15635297 0.21246132
-0.27715713 0.280536 0.21177424
-0.14024055 0.280536 0.21348399
-0.13061516 0.280536 0.21983558
-0.085688546 0.280536 0.21500245
0.14638397 0.280536 0.21276063
0.011628076 -0.280536 0.22107786
-0.31041801 -0.20162529 0.22115658
0.29204199 -0.092600703 0.22312587
0.29204199 0.13386393 0.22396809
0.29204199 0.21856549 0.22088189
0.056961976 0.280536 0.22253409
0.068631865 0.280536 0.22946259
0.23506349 0.280536 0.22891691
-0.27440318 -0.280536 0.23606709
-0.22369793 -0.280536 0.23203363
0.2244934 -0.280536 0.23141855
-0.31041801 -0.054722503 0.23969989
0.29204199 -0.043050479 0.23491763
0.29204199 -0.013718158 0.23889872
0.29204199 0.023631774 0.23715153
-0.31041801 0.040175013 0.23715144
-0.31041801 0.24609871 0.23923787
0.28105101 0.27050251 0.23723179
-0.15290618 0.280536 0.23714139
-0.024312947 0.280536 0.23954192
-0.2308192 -0.280536 0.24778089
-0.17405017 -0.280536 0.24888477
-0.10158595 -0.280536 0.24971554
-0.04420536 -0.280536 0.24336961
0.17736936 -0.280536 0.24673615
-0.31041801 -0.10324331 0.24445061
0.29204199 -0.0033568516 0.24074537
0.29204199 0.018353991 0.24892467
0.28105101 0.22952437 0.24022496
0.010947412 0.280536 0.24925223
-0.31041801 -0.26112396 0.25665283
-0.31041801 -0.25280917 0.25385454
-0.31041801 -0.16859418 0.25212476
-0.31041801 -0.13986829 0.25685072
0.29204199 -0.11291958 0.25384057
-0.31041801 0.0071537942 0.25988889
-0.15706044 0.280536 0.25282395
0.00015589595 0.280536 0.2580511
0.23004128 -0.280536 0.26302871
0.29204199 -0.030596055 0.26987636
-0.31041801 0.11236057 0.26118642
-0.31041801 0.1263971 0.26762396
0.21402831 -0.280536 0.27265647
-0.15491046 -0.27365103 0.273752
0.099152632 -0.27773464 0.273752
0.18312441 -0.27840626 0.273752
0.20679969 -0.273251 0.273752
-0.19849657 -0.26956391 0.273752
0.096349105 -0.26466039 0.273752
-0.22988412 -0.25143227 0.273752
-0.18278873 -0.25669 0.273752
0.19837947 -0.25283268 0.273752
0.26884806 -0.25726283 0.273752
-0.084602885 -0.24691984 0.273752
0.082092613 -0.24093367 0.273752
0.10181399 -0.24276632 0.273752
-0.24619347 -0.23069762 0.273752
-0.19618793 -0.2392132 0.273752
-0.069993101 -0.23219627 0.273752
0.0045466125 -0.23040737 0.27375203
0.15808645 -0.23762549 0.27375203
-0.22660962 -0.2294818 0.273752
0.0028371811 -0.22059932 0.273752
0.27801436 -0.22991197 0.273752
-0.24961935 -0.21767986 0.273752
0.17438355 -0.21592848 0.273752
-0.11154141 -0.20610949 0.273752
0.0049606487 -0.20841405 0.273752
0.19090292 -0.20421444 0.273752
-0.2079846 -0.1921179 0.273752
-0.19710383 -0.19530071 0.273752
0.16746944 -0.19666189 0.273752
0.19230482 -0.19902398 0.273752
0.21725827 -0.19809414 0.273752
0.032595471 -0.18797334 0.273752
0.071369708 -0.18408689 0.273752
0.095061459 -0.18031909 0.273752
-0.11548182 -0.1754047 0.273752
-0.26444906 -0.16223183 0.273752
0.050917387 -0.16918129 0.273752
0.12092817 -0.16963813 0.273752
0.16561598 -0.16901502 0.273752
0.20518532 -0.16436745 0.273752
-0.14937209 -0.1505308 0.273752
-0.25106931 -0.14695457 0.273752
-0.19287422 -0.1449862 0.273752
-0.15445176 -0.14498323 0.273752
0.19410004 -0.14791891 0.273752
-0.20983636 -0.13450198 0.273752
0.12087654 -0.13764015 0.273752
0.2184561 -0.13772483 0.273752
-0.1588214 -0.12266727 0.273752
0.0021796897 -0.12746474 0.273752
0.064361304 -0.1280162 0.27375197
-0.15185122 -0.11956263 0.273752
-0.14475857 -0.11648412 0.273752
-0.30512729 -0.1073857 0.27375197
-0.17257814 -0.10447371 0.273752
-0.069242731 -0.1038939 0.273752
0.29204199 -0.10600204 0.2724776
0.26053947 -0.095007136 0.273752
-0.19663298 -0.088370264 0.273752
-0.066521108 -0.081170477 0.273752
0.23258805 -0.085261405 0.273752
-0.2587415 -0.079175577 0.273752
-0.19549546 -0.073480763 0.273752
0.28080511 -0.079395503 0.273752
-0.28260192 -0.061801579 0.273752
-0.15782529 -0.063754283 0.273752
0.0020722151 -0.065736018 0.273752
0.025481703 -0.065331556 0.273752
0.078947395 -0.064271003 0.273752
0.10398947 -0.067217365 0.273752
0.18859044 -0.067258343 0.273752
0.19303325 -0.06259314 0.273752
-0.27599087 -0.055777796 0.273752
0.27833402 -0.057553709 0.273752
-0.17728683 -0.041870691 0.273752
0.037051179 -0.041003738 0.273752
-0.22691512 -0.037939247 0.273752
0.011034712 -0.036092363 0.27375203
0.23866169 -0.030580379 0.273752
-0.08536233 -0.022623688 0.273752
0.11891215 -0.021218613 0.273752
0.16472644 -0.02820516 0.273752
0.23269358 -0.024737529 0.273752
0.27143097 -0.021587342 0.273752
-0.26770148 -0.015452523 0.273752
0.13962325 -0.011550128 0.273752
0.27180108 -0.010947015 0.273752
-0.033900127 -0.0063666357 0.273752
0.10978843 0.0090008564 0.273752
-0.05549112 0.017451145 0.273752
0.12173383 0.017768066 0.273752
0.17773554 0.022170871 0.273752
-0.026884558 0.034877397 0.273752
-0.011816403 0.03791444 0.273752
0.066469774 0.035230868 0.273752
0.19068658 0.047089245 0.273752
-0.23566702 0.050636068 0.273752
-0.0033199601 0.057683788 0.273752
0.048751079 0.054868896 0.273752
-0.30882505 0.065209068 0.273752
-0.22987084 0.065277122 0.273752
-0.084760159 0.063847907 0.273752
0.1389986 0.060627624 0.273752
0.17701176 0.063721776 0.273752
0.24235512 0.061554875 0.273752
-0.21532403 0.078876436 0.273752
-0.057838798 0.076095715 0.273752
0.20455463 0.074348196 0.273752
0.28313795 0.076694213 0.273752
-0.25990984 0.085066669 0.27375203
-0.1488198 0.089879408 0.273752
0.011622995 0.086561307 0.273752
0.10179222 0.082572311 0.273752
-0.30888993 0.097171135 0.273752
-0.056347124 0.094781063 0.273752
0.0096302778 0.098569833 0.273752
0.073759757 0.092508607 0.273752
0.12312514 0.099838339 0.273752
0.28274748 0.092676148 0.273752
-0.26711428 0.10039745 0.273752
-0.22782041 0.10470103 0.273752
0.13469203 0.11607717 0.273752
0.1499685 0.11241804 0.273752
-0.18197046 0.12123191 0.273752
0.037863009 0.12214915 0.273752
0.046292283 0.12561202 0.273752
-0.11838931 0.13055152 0.273752
-0.02856645 0.13492456 0.273752
0.098193593 0.1366417 0.273752
0.035219759 0.14554274 0.273752
0.22956298 0.14108375 0.273752
-0.21464123 0.15538538 0.273752
-0.0084480494 0.15971836 0.273752
0.19536291 0.1538258 0.273752
0.069463186 0.16991311 0.273752
-0.2218748 0.17739336 0.273752
-0.15677956 0.17938291 0.273752
-0.045266941 0.17288822 0.273752
0.12279575 0.17757851 0.27375197
-0.17691374 0.1848435 0.273752
-0.20236573 0.19182642 0.273752
-0.17578632 0.19663717 0.273752
-0.13608213 0.190825 0.273752
-0.15475731 0.20188707 0.273752
-0.12182827 0.20731202 0.273752
-0.075142302 0.200721 0.273752
-0.04686667 0.20776141 0.273752
0.025870331 0.20676595 0.27375197
0.14852133 0.20173064 0.273752
0.2421407 0.20764141 0.273752
-0.31041801 0.21207775 0.27239856
-0.24514289 0.21614209 0.273752
-0.10636949 0.21188553 0.273752
0.11921248 0.21672957 0.273752
0.22037175 0.21960573 0.273752
-0.29704103 0.22843206 0.273752
-0.24962959 0.22147582 0.273752
-0.19997251 0.2299206 0.273752
0.054138795 0.22766329 0.273752
0.27090377 0.22840497 0.273752
-0.20606315 0.23556955 0.27375197
-0.16720614 0.23581316 0.273752
-0.30959007 0.24980745 0.273752
-0.010046612 0.24247473 0.273752
0.040111296 0.24724907 0.273752
0.11474706 0.24614134 0.273752
0.15252419 0.24978432 0.273752
-0.099125728 0.25614446 0.273752
0.22234887 0.25500885 0.27375203
0.26229811 0.25065523 0.273752
-0.31041798 0.26413488 0.27004784
-0.15850246 0.26879248 0.273752
-0.040071286 0.2693643 0.273752
-0.027465992 0.26125771 0.273752
-0.017848909 0.26612243 0.273752
0.1962568 0.26157424 0.273752
-0.2524375 0.27726907 0.273752
-0.074470878 0.27316457 0.273752
0.054140992 0.27667394 0.273752
