# .PCD v0.7 - Point Cloud Data file format
VERSION 0.7
FIELDS x y z
SIZE 4 4 4
TYPE F F F
COUNT 1 1 1
WIDTH 92
HEIGHT 1
VIEWPOINT 0 0 0 1 0 0 0
POINTS 92
DATA ascii
0.23073927 0.25873363 0.075944096
0.22674398 0.26482067 0.078457914
0.23084544 0.26415995 0.075055636
0.22746173 0.27389202 0.078036591
0.23070233 0.27508825 0.075220697
0.22703762 0.28661522 0.07802406
0.23047763 0.28749031 0.07547126
0.22783792 0.29575223 0.077415161
0.23024996 0.29077739 0.075691983
0.22712497 0.30152631 0.077994719
0.23049602 0.30447802 0.076202251
0.22891638 0.25943032 0.081715524
0.23091316 0.25716409 0.080912396
0.22448915 0.2631053 0.084257446
0.22406401 0.27511963 0.084315568
0.22406401 0.28458193 0.084247448
0.22406401 0.2938287 0.083368488
0.22601105 0.30347231 0.085783735
0.23058872 0.30719265 0.084859021
0.22843365 0.2593424 0.095587403
0.23015669 0.25769746 0.092869461
0.2243901 0.26362762 0.095779732
0.22406404 0.27452353 0.094750628
0.22406401 0.28355959 0.095332049
0.22406404 0.29419893 0.096448369
0.22622626 0.30360034 0.095896244
0.22938719 0.25776792 0.1086622
0.22442795 0.26547784 0.10536132
0.22406402 0.2753005 0.10473935
0.22406399 0.28583139 0.10380578
0.22406399 0.29323512 0.10774885
0.22643732 0.30380228 0.10419438
0.23004511 0.30761752 0.10289373
0.22867502 0.25838456 0.11281369
0.22447492 0.26374868 0.11369257
0.22406404 0.27549508 0.11571126
0.22406401 0.28338215 0.11430394
0.22406402 0.29531556 0.11606296
0.22611304 0.30385911 0.11489625
0.22789371 0.25868371 0.12374765
0.22598299 0.26572105 0.12552141
0.22679727 0.27498871 0.12619549
0.22583251 0.28434032 0.12540276
0.22561045 0.29471251 0.12483328
0.2269747 0.3035807 0.12489714
0.22766511 0.27452388 0.14921261
0.23330106 0.2764715 0.14906739
0.24296263 0.27549562 0.14944799
0.22781046 0.28256601 0.14927547
0.23494226 0.28223217 0.14941806
0.24206416 0.28175834 0.14960933
0.22721051 0.26585811 0.1550612
0.23479651 0.26561195 0.15477358
0.2440348 0.26545706 0.15634227
0.22572398 0.27594718 0.15502317
0.23653388 0.27135041 0.15028679
0.24597465 0.27577025 0.15493231
0.22634621 0.28560248 0.15544657
0.23487884 0.28863287 0.15240818
0.24491192 0.28447109 0.1544264
0.22735548 0.29196182 0.1563748
0.2362227 0.29203868 0.15615892
0.24299565 0.29252863 0.15772673
0.22640677 0.26418805 0.16467054
0.23591273 0.26140746 0.16458242
0.24459308 0.26533252 0.16471267
0.225724 0.27428129 0.16268462
0.24581803 0.27540526 0.16496196
0.22572398 0.28663328 0.16483355
0.24602123 0.28562284 0.16424297
0.22667263 0.29388973 0.16523159
0.23445824 0.2949146 0.16585781
0.24469212 0.29310307 0.16459705
0.2269928 0.26428071 0.17377824
0.23660558 0.26398718 0.17516775
0.24421147 0.26610211 0.17412074
0.22572398 0.2732453 0.17529182
0.24558286 0.27491277 0.17442812
0.22572398 0.28460917 0.1761815
0.2458031 0.28552404 0.17448668
0.22669707 0.29425278 0.17289352
0.23568252 0.2928817 0.17461172
0.24308249 0.29274493 0.17289965
0.22902113 0.26796371 0.18032464
0.23963395 0.26923904 0.18067823
0.24135615 0.26877239 0.18027905
0.22798051 0.27602568 0.18268341
0.23422818 0.27415201 0.18270016
0.2444067 0.27501351 0.18145107
0.2274594 0.28417993 0.18212445
0.23340149 0.28464222 0.18184887
0.24398296 0.28231865 0.18163811
