# .PCD v0.7 - Point Cloud Data file format
VERSION 0.7
FIELDS x y z
SIZE 4 4 4
TYPE F F F
COUNT 1 1 1
WIDTH 984
HEIGHT 1
VIEWPOINT 0 0 0 1 0 0 0
POINTS 984
DATA ascii
-0.014329739 -0.36664927 -0.24079299
-0.070388049 -0.35109031 -0.240793
-0.19588603 -0.34501794 -0.24079299
-0.18733642 -0.33117381 -0.24079302
-0.078581825 -0.33635023 -0.24079302
-0.059579477 -0.33884963 -0.240793
0.1824735 -0.33780044 -0.24079299
-0.026351586 -0.32349011 -0.24079299
-0.19660188 -0.31233123 -0.240793
-0.1362325 -0.31030345 -0.240793
-0.18370539 -0.30341712 -0.240793
-0.17308864 -0.30374432 -0.24079299
0.12426874 -0.30951995 -0.24079302
0.1553885 -0.30450213 -0.240793
-0.21671163 -0.29151562 -0.240793
0.057162441 -0.29308838 -0.240793
0.13184428 -0.2803793 -0.240793
-0.067337923 -0.27071276 -0.24079299
0.11972115 -0.27704105 -0.240793
-0.19853717 -0.26645619 -0.240793
-0.020641249 -0.26462358 -0.24079299
0.12122756 -0.25283527 -0.24079302
-0.083188429 -0.24291408 -0.240793
0.1108993 -0.22868641 -0.240793
-0.19063383 -0.20178333 -0.240793
-0.12494889 -0.19782759 -0.240793
-0.0027406327 -0.19945055 -0.24079299
0.11307439 -0.19395886 -0.240793
0.10771571 -0.18399394 -0.24079299
-0.068306126 -0.17562589 -0.24079299
0.14688197 -0.17456582 -0.24079299
-0.092800006 -0.16345188 -0.240793
-0.075844146 -0.16275865 -0.240793
0.20338233 -0.16670445 -0.24079299
-0.11997631 -0.15796262 -0.24079302
0.20310962 -0.1520018 -0.24079299
0.2107387 -0.14954168 -0.24016885
-0.060481466 -0.12968096 -0.240793
-0.048584193 -0.11011463 -0.240793
0.070967376 -0.098880239 -0.24079299
0.15210211 -0.090841033 -0.240793
0.10575505 -0.082407117 -0.24079302
0.19469437 -0.082656428 -0.240793
0.15195061 -0.07845553 -0.240793
0.13248226 -0.067810886 -0.240793
-0.21420631 -0.054388255 -0.240793
-0.11258044 -0.055621177 -0.24079302
-0.10024734 -0.050837658 -0.24079302
-0.20721307 -0.042054899 -0.240793
0.0018492332 -0.034553118 -0.240793
0.075706713 -0.03029101 -0.24079302
-0.16268535 -0.022118822 -0.240793
0.020388182 -0.027525032 -0.24079302
-0.11866284 -0.017593395 -0.240793
-0.18573371 0.0035424158 -0.240793
0.027370032 0.0025399553 -0.24079302
0.12141091 0.010729589 -0.24079302
0.18328807 0.024686456 -0.24079302
-0.16252282 0.036257211 -0.240793
-0.11499508 0.059318975 -0.24079299
0.04538136 0.050538562 -0.240793
-0.098238617 0.062986419 -0.240793
-0.18516384 0.07058952 -0.240793
0.19056997 0.079327665 -0.240793
-0.19052145 0.098358497 -0.240793
0.19024098 0.092573069 -0.24079299
0.1878552 0.10583214 -0.240793
-0.16853821 0.11389106 -0.240793
0.17623253 0.11679469 -0.24079299
-0.1841598 0.12718162 -0.24079299
-0.14227594 0.1298313 -0.240793
0.023183368 0.12862986 -0.24079302
0.066494413 0.12280093 -0.24079299
0.036783718 0.13121998 -0.24079302
0.18796329 0.13497473 -0.240793
0.063711539 0.14997029 -0.240793
-0.14316174 0.17789961 -0.24079299
-0.098925486 0.17481656 -0.24079299
0.19858903 0.17684561 -0.240793
-0.1963388 0.18832883 -0.240793
-0.09865877 0.18995237 -0.24079302
0.094562799 0.18586396 -0.240793
0.1920218 0.18760443 -0.240793
-0.14284937 0.20326926 -0.24079299
-0.065249607 0.20039412 -0.240793
-0.067817517 0.21780458 -0.240793
-0.036724839 0.21438225 -0.24079302
-0.19779231 0.22748816 -0.240793
-0.17699817 0.22670482 -0.240793
-0.024225779 0.226881 -0.24079302
0.05954425 0.23694855 -0.240793
-0.11387876 0.2410558 -0.24022207
0.022727609 -0.37456703 -0.2363029
-0.22741599 -0.31026885 -0.23614694
0.22741599 -0.24333486 -0.23695378
0.22714883 -0.23722616 -0.23894094
0.20963982 -0.018999964 -0.23844066
-0.22741599 0.045265429 -0.23591644
-0.22741601 0.12947588 -0.23648694
-0.22741599 0.15902346 -0.23210791
0.22741599 0.17618005 -0.23706266
-0.017720276 0.25686511 -0.23337595
0.080926582 0.25753531 -0.23455182
-0.16650799 0.28760198 -0.23697838
-0.2219418 0.29276836 -0.23952326
-0.22741599 -0.2469409 -0.22897598
0.22741599 -0.1558888 -0.22554526
0.22741599 0.11725669 -0.22131823
-0.0013419762 0.254471 -0.22658831
0.22741598 0.0098002702 -0.21780454
0.22741601 0.083367273 -0.21597995
-0.22741599 0.091851227 -0.21139054
-0.22741598 0.17268345 -0.21476394
-0.17214769 0.31317097 -0.21301028
-0.21065682 0.36281535 -0.21629143
-0.22741599 -0.37105754 -0.2082521
-0.16629544 -0.374567 -0.20175591
-0.081236511 -0.37456697 -0.20151961
-0.059441283 -0.374567 -0.20161408
0.11687785 -0.3301217 -0.20038737
0.18069223 -0.31058484 -0.2020448
-0.052740861 -0.30845261 -0.20531499
-0.0079565793 -0.27421486 -0.20531499
0.043612491 -0.27067649 -0.20531499
0.054560628 -0.26373062 -0.20531499
-0.0077984817 -0.25282454 -0.20531499
0.072244138 -0.25919735 -0.20531499
0.14603694 -0.25974879 -0.20531499
0.13406819 -0.24461953 -0.20531499
0.13124382 -0.22214046 -0.20531499
0.061097674 -0.21371545 -0.20531499
0.077209383 -0.21359491 -0.20531499
0.04547311 -0.20086583 -0.20531499
0.086687237 -0.20895651 -0.20531501
0.13040797 -0.2099836 -0.20531499
0.16136551 -0.20000708 -0.20531499
-0.094442576 -0.19742906 -0.20531499
0.0086171478 -0.1986424 -0.20531499
0.11464243 -0.18922362 -0.20531499
-0.049471557 -0.17706801 -0.20531499
-0.018459957 -0.17155291 -0.20531499
0.095260583 -0.17851442 -0.20531499
0.14148128 -0.17447999 -0.20531499
-0.10008398 -0.1665394 -0.20531499
-0.058206879 -0.14237538 -0.20531499
-0.011115365 -0.13253441 -0.20531499
0.22741598 -0.13097161 -0.20498098
0.060402092 -0.12973025 -0.20531499
0.17454317 -0.12127658 -0.20371035
-0.099443279 -0.11992381 -0.20531499
-0.079490706 -0.11951971 -0.20531499
0.11751509 -0.11621382 -0.20531499
-0.025087703 -0.097989134 -0.20531499
0.095152222 -0.083503418 -0.20531499
0.052363478 -0.075687714 -0.20531499
-0.22741599 -0.059182398 -0.20017414
0.18187048 -0.051030658 -0.20172566
0.01331586 -0.046575867 -0.20531499
0.013459771 -0.0090329051 -0.20531499
0.083777264 -0.0011249818 -0.20531499
0.11259311 -0.0053787157 -0.20531499
-0.080502823 0.023997195 -0.20531499
-0.11052568 0.030870551 -0.20311053
0.030113649 0.043586507 -0.20531499
0.0034501036 0.053577442 -0.20531499
0.010503497 0.057341591 -0.20531499
0.048615307 0.10413244 -0.20531499
0.065843038 0.10912333 -0.20531499
0.10408032 0.11468298 -0.20531499
-0.068291493 0.12739149 -0.20531499
-0.028735436 0.12204269 -0.20531499
-0.22741599 0.14844307 -0.20184648
-0.025917027 0.14450091 -0.20531499
0.13729745 0.14608522 -0.20531499
-0.036718592 0.15935534 -0.20531499
0.17030305 0.16852003 -0.20485884
-0.038848117 0.17554997 -0.20531499
0.012958564 0.17028907 -0.20531499
0.1280473 0.17367941 -0.20531499
-0.029161079 0.18271969 -0.20531499
0.050148524 0.18251312 -0.20531499
-0.012614902 0.22139563 -0.20531499
-0.091487877 0.23300256 -0.20531499
0.020490713 0.23526998 -0.20531499
0.2266814 0.23878521 -0.209409
-0.22741599 0.24473707 -0.20572157
0.052391645 0.24862936 -0.20531499
0.14527619 0.24654986 -0.20531499
0.22397263 0.25675315 -0.20473431
-0.22741599 0.28387144 -0.2096507
-0.19611187 0.3146821 -0.20193224
-0.01930272 -0.33775896 -0.1937996
0.061702907 -0.33855182 -0.1921366
-0.22741599 -0.25297329 -0.19596176
-0.12591921 -0.217959 -0.19195279
-0.12205143 -0.16057275 -0.19582057
-0.22741598 -0.076369151 -0.19723475
0.18625778 -0.059820328 -0.19784659
-0.22741601 0.085740179 -0.19271123
-0.11957727 0.087007709 -0.19829473
-0.22741599 0.10832959 -0.19854513
-0.12541616 0.11238895 -0.19245584
0.22741599 0.14537458 -0.19901961
0.22637255 0.23909484 -0.19204719
-0.19550896 0.31310463 -0.19748287
-0.20119791 0.32798952 -0.19126868
-0.070593618 -0.374567 -0.18361348
0.18708655 -0.374567 -0.18767667
0.16750775 -0.34187901 -0.18083069
0.22741599 -0.25957716 -0.18805867
-0.22741599 -0.24229944 -0.18490405
0.22741599 -0.11641678 -0.18470064
-0.12844263 -0.013656873 -0.18354318
0.22741599 0.099390619 -0.18674542
-0.22549807 0.23984037 -0.18183516
-0.19316542 0.35806119 -0.18087831
-0.22713608 -0.37274507 -0.17368373
-0.11396168 -0.374567 -0.17152905
-0.0055312738 -0.374567 -0.17660561
0.22741599 -0.36955416 -0.17627385
-0.22741599 -0.35078028 -0.17839968
-0.0021886104 -0.34187901 -0.17196918
0.12955077 -0.34187901 -0.17696334
0.22741599 -0.32655302 -0.17977187
-0.22741599 -0.16242447 -0.17570697
0.196266 -0.16195258 -0.173759
-0.22741599 -0.092485115 -0.17589577
-0.22741598 -0.087639764 -0.17425588
-0.22741599 0.087691724 -0.17215113
-0.22741599 0.14560907 -0.17916387
-0.079188347 0.254471 -0.17711474
0.19209495 0.254471 -0.17227589
-0.2031642 0.33313426 -0.17214103
-0.20920844 0.346284 -0.17185283
-0.059009634 -0.374567 -0.16509679
0.10357913 -0.374567 -0.1699619
0.079537436 -0.34187901 -0.1607061
-0.130034 -0.094178587 -0.16824773
-0.22741599 -0.064258479 -0.16222396
0.22741598 -0.052704364 -0.16029629
0.196266 0.082097501 -0.16778603
-0.22741599 0.2024267 -0.16705073
0.087329537 0.246353 -0.16035655
0.14276567 0.24635299 -0.16217047
0.1481535 0.254471 -0.16879943
0.20543823 0.254471 -0.16592303
-0.17304914 0.26294282 -0.16992754
-0.092780039 -0.34187901 -0.15143541
-0.22741599 -0.27853376 -0.15268524
-0.130034 -0.1424064 -0.15928313
0.22741598 -0.12179139 -0.15292023
0.196266 -0.11996475 -0.15301704
0.22741601 -0.11496076 -0.15701474
0.196266 -0.070870638 -0.15674323
0.196266 0.021795027 -0.15594658
-0.22741598 0.075434744 -0.1596704
0.196266 0.071019843 -0.15897702
-0.22741601 0.14693458 -0.15316863
-0.058113731 0.24934311 -0.15563448
0.041044779 0.2467337 -0.15560345
-0.035030223 0.25559756 -0.15538536
-0.019763784 0.25598797 -0.1552192
-0.18047819 0.27377725 -0.15819906
-0.17148645 0.3033517 -0.15811369
-0.130034 -0.24438055 -0.14438494
-0.22741599 -0.23532115 -0.14982943
-0.130034 -0.18642949 -0.14450383
0.22741598 -0.069184162 -0.14241794
0.22741601 0.0083755851 -0.14217828
0.22741598 0.027481727 -0.1493609
-0.130034 0.093346506 -0.14296353
-0.22741601 0.11437882 -0.14370784
-0.130034 0.15597565 -0.14011222
-0.22741599 0.23058042 -0.14356662
-0.055032752 0.23892099 -0.14673951
-0.079782747 0.24969219 -0.14744034
-0.15270603 0.254471 -0.14903963
0.17866337 -0.374567 -0.13844627
0.22697106 -0.37314311 -0.13393107
-0.22741599 -0.36867583 -0.13866425
0.22741599 -0.32330909 -0.13689722
-0.130034 -0.29132712 -0.13152458
-0.22741599 -0.28237054 -0.13557291
-0.130034 -0.24306983 -0.13128437
0.22741599 -0.0016839243 -0.13199358
0.196266 0.052814767 -0.13277483
-0.130034 0.206873 -0.13851009
0.196266 0.20526455 -0.13745229
0.196266 0.23275629 -0.13016073
-0.16274537 0.25807467 -0.13873488
-0.22741599 0.26672059 -0.1383601
-0.20330767 0.33351138 -0.13816585
-0.026666369 -0.37456697 -0.12519632
0.035220109 -0.374567 -0.12622413
0.20873198 -0.37363061 -0.12302814
-0.034905553 -0.34187901 -0.1234144
-0.22741599 -0.23292556 -0.12845021
0.22741601 -0.16619912 -0.12315393
0.196266 -0.1318464 -0.1226311
0.22741598 -0.11789685 -0.1202047
-0.22741598 -0.067075484 -0.12315327
-0.130034 0.072274961 -0.12732919
-0.17815538 0.26982501 -0.12946026
-0.18869919 0.29528713 -0.12552519
-0.1965761 0.31589958 -0.12299091
-0.2041306 -0.374567 -0.11692883
0.031103468 -0.374567 -0.11356786
0.094420701 -0.374567 -0.11426269
0.22033226 -0.374567 -0.11121751
0.17416313 -0.34187901 -0.11891708
-0.22741601 -0.286686 -0.1144279
0.22741599 -0.21013489 -0.11669846
0.196266 -0.19897787 -0.11624036
0.22741599 -0.1229765 -0.11785246
-0.22741598 -0.1117145 -0.11425017
0.196266 -0.027492702 -0.11222777
-0.130034 0.11068178 -0.11117921
0.22741601 0.11579735 -0.11137661
-0.22741601 0.14298621 -0.11200155
0.11658902 0.238921 -0.11565032
0.077920102 0.25750899 -0.1160808
0.19029024 0.254471 -0.11122492
-0.22741599 0.26696706 -0.11618116
-0.17150143 -0.37456703 -0.10795128
-0.082685947 -0.374567 -0.10445678
-0.018254194 -0.37456703 -0.10164426
0.025790272 -0.34187901 -0.10416689
0.196266 -0.30686051 -0.10552774
0.196266 -0.27146915 -0.10939334
0.196266 -0.15487513 -0.10402815
-0.22741598 -0.10260081 -0.10662785
0.22741601 -0.069518745 -0.1010019
-0.130034 -0.024447177 -0.1001143
-0.22741598 0.17268902 -0.10874094
0.15545572 0.246353 -0.10748021
0.067500658 0.25750899 -0.10465701
0.1485222 0.25739402 -0.10089375
-0.19458218 0.31068197 -0.10385036
0.065996975 -0.374567 -0.097757936
0.196266 -0.31227678 -0.093962081
0.196266 -0.28185275 -0.0997665
-0.22741598 -0.17865182 -0.091216773
0.22741601 -0.12111589 -0.090200081
0.22741601 -0.085053287 -0.093057066
0.196266 -0.069754317 -0.093293406
0.196266 -0.034277901 -0.096744701
0.22741599 0.015043378 -0.093475491
0.22741601 0.036573697 -0.095881186
0.196266 0.20204183 -0.095253766
-0.130034 0.22389323 -0.093550608
-0.17602277 0.239841 -0.093891151
-0.13450666 0.254471 -0.096518159
-0.17122063 0.30925816 -0.099201582
-0.22741598 0.3349565 -0.091989964
-0.052585997 -0.374567 -0.083102666
0.019586938 -0.34187901 -0.08329884
0.1549909 -0.34187901 -0.082703993
-0.130034 -0.17566299 -0.089124344
-0.22741601 -0.07577762 -0.081096902
-0.22741601 -0.041411612 -0.08874321
0.196266 -0.035854671 -0.080185831
-0.130034 0.070001818 -0.082580231
0.196266 0.13231117 -0.082386971
-0.130034 0.19953956 -0.083513923
-0.066726081 0.238921 -0.088762164
0.04029379 0.25750899 -0.085177213
-0.22741599 0.27226841 -0.080200925
-0.11929913 -0.374567 -0.070042297
-0.051172964 -0.374567 -0.071818911
-0.027460948 -0.37456697 -0.073390752
-0.011229992 -0.374567 -0.07084506
-0.0060261078 -0.374567 -0.076945215
-0.22741598 -0.29254681 -0.070126526
0.22741598 -0.26036423 -0.074018717
0.22741598 -0.23629223 -0.078526914
-0.130034 -0.16706157 -0.073762968
-0.22741601 -0.088701427 -0.078580119
0.196266 -0.0052027106 -0.077468194
-0.130034 0.029561341 -0.070106819
-0.22741599 0.13724406 -0.072834216
-0.22741599 0.25976691 -0.071331874
-0.10280883 0.254471 -0.077233359
0.07177756 0.25750899 -0.074836709
-0.22741599 0.28302404 -0.073126897
0.22741601 -0.36600491 -0.062749498
-0.10639323 -0.34187901 -0.066372074
0.038776319 -0.34187901 -0.06490875
0.22741601 -0.34042388 -0.063835926
0.196266 -0.31688422 -0.063530348
-0.22741601 -0.030930292 -0.062416852
0.196266 0.095489092 -0.066709615
0.196266 0.18955009 -0.063360542
-0.088399068 0.24331108 -0.060869422
-0.18941924 0.35113704 -0.069257647
-0.15202914 -0.374567 -0.052938689
0.04160095 -0.374567 -0.059940848
0.085616559 -0.374567 -0.058676712
0.20641008 -0.374567 -0.054788262
0.196266 -0.20358858 -0.052142587
-0.22741601 -0.10635576 -0.05249618
-0.22741599 0.017738558 -0.054154862
0.196266 0.11436763 -0.053570539
-0.20182866 0.23984098 -0.055449747
0.22741599 0.23687088 -0.059986118
-0.22741601 0.32644567 -0.053352639
-0.13708758 -0.374567 -0.047536504
-0.039734293 -0.34187901 -0.040587418
0.042996738 -0.34187901 -0.0480466
0.196266 -0.24222586 -0.043677531
0.22741598 -0.21233138 -0.043584973
-0.22741601 -0.16497485 -0.043520439
-0.22741599 -0.09312579 -0.047379389
0.22741599 -0.064291514 -0.047029562
0.22741601 0.0013968607 -0.044695202
0.196266 0.043564908 -0.046650752
-0.22741601 0.19898023 -0.043428373
0.196266 0.21736196 -0.043711409
-0.10388058 0.254471 -0.047579296
0.196266 0.25053507 -0.045136973
-0.17315429 0.26301518 -0.046924137
-0.17823909 -0.374567 -0.037746526
-0.12994623 -0.374567 -0.030965492
-0.086010337 -0.34187901 -0.033791348
0.22741598 -0.028957926 -0.039053753
-0.22741599 0.023429692 -0.035149824
-0.130034 0.17235312 -0.034933567
0.22741599 0.18100445 -0.030722983
-0.22741601 0.21859032 -0.030657962
-0.088398069 0.25431156 -0.036820024
-0.19322309 0.30712375 -0.033659149
-0.19745705 0.31820172 -0.031558841
-0.20898296 0.3462913 -0.033091202
-0.18133539 -0.374567 -0.020104952
-0.22741598 -0.35185894 -0.021251313
0.22741598 -0.31345809 -0.020575382
-0.22741598 -0.25023589 -0.02607999
-0.22741598 -0.24599548 -0.026941054
-0.130034 -0.11225901 -0.022881109
-0.22741599 -0.054026984 -0.022389047
-0.130034 -0.040892214 -0.023077384
0.22741599 -0.048937365 -0.029355466
-0.130034 0.042549014 -0.026346751
-0.130034 0.18175042 -0.021310892
0.22741601 0.21203895 -0.024095476
-0.22741598 0.24205394 -0.022029571
-0.099634796 0.254471 -0.027466848
0.058842998 0.25750899 -0.027374526
0.16950051 0.254471 -0.023969669
-0.21009344 -0.374567 -0.014128402
-0.061247006 -0.374567 -0.013146017
0.093636863 -0.37456697 -0.010820381
0.11320852 -0.374567 -0.01097554
-0.22741599 -0.35884306 -0.01076407
-0.011671216 -0.34187901 -0.018771131
-0.22741598 -0.28548425 -0.011649374
-0.22741598 -0.040941656 -0.01312585
-0.130034 -0.0056409999 -0.015687574
-0.130034 0.066937104 -0.01187293
-0.22741601 0.13571082 -0.01921726
-0.130034 0.2098242 -0.017050613
0.035947904 0.23892102 -0.015914489
-0.18358745 0.28191164 -0.011406711
-0.16521263 0.28416306 -0.01821664
-0.22741599 0.30000123 -0.017280495
-0.17228873 0.30577081 -0.017749704
-0.20727062 0.34387898 -0.019543439
0.045273162 -0.374567 -0.0074392725
0.21540214 -0.374567 -0.0066809468
0.016493037 -0.34187901 -0.0021388754
-0.22741599 -0.29319328 -0.0054479167
0.196266 0.10172013 -0.005357638
0.196266 0.22107762 -0.0070079877
-0.08242733 0.238921 -0.0099132098
-0.064099357 0.23892099 -0.0019604042
-0.040303931 0.25750899 -0.0075121261
-0.22741601 0.33743745 -0.0055946112
0.18546635 -0.37456703 0.0048193112
0.22741599 -0.31655452 0.004769735
-0.22741599 -0.24658945 0.0014243759
-0.130034 -0.24923675 0.0050031841
-0.130034 -0.12527245 0.0065214187
0.196266 -0.079031505 0.0052557588
-0.130034 -0.063264854 0.0026582927
-0.130034 -0.058139861 0.0091654807
-0.130034 0.013948822 0.0095223356
-0.22741601 0.1689672 0.0059736427
-0.22741598 0.24602437 0.00039413571
-0.045025982 0.25750899 0.00017890334
0.17436004 0.254471 0.0032631792
-0.17713703 0.27065003 0.0017106576
-0.18421307 0.28354847 0.0081409067
-0.20755513 0.37268472 0.0061694193
-0.13909537 -0.374567 0.017775103
0.17506558 -0.37456703 0.015741013
0.0056420485 -0.34187901 0.012100783
0.14768353 -0.34187901 0.012722693
-0.130034 -0.28397769 0.019184947
-0.22741601 -0.26253539 0.017384425
-0.22741601 -0.15076455 0.019633085
0.22741599 -0.13264489 0.019395038
-0.22741599 -0.12950706 0.018993564
0.22741599 0.025853839 0.015634168
-0.22741598 0.15867832 0.010309385
0.196266 0.19848493 0.012113079
-0.22741598 0.20945354 0.014823541
0.0040183999 0.23892099 0.013176162
-0.13803872 0.254471 0.011507601
-0.1789477 0.2697728 0.014728934
-0.20650676 0.34188056 0.018172033
0.021378145 -0.374567 0.02093251
0.085423157 -0.374567 0.020550184
-0.10853587 -0.34187901 0.028858922
0.019642774 -0.34187901 0.020369925
0.22741599 -0.32602736 0.026310861
0.22741599 -0.25812837 0.021659955
-0.130034 -0.22000402 0.027348641
0.22741598 -0.1853323 0.027421046
0.196266 -0.11552534 0.023323081
0.22741599 0.021092588 0.021749791
0.22741599 0.08876279 0.024947099
-0.22356381 0.23983753 0.021563608
-0.034664165 -0.374567 0.038563907
-0.06720183 -0.34187901 0.030594699
0.18887118 -0.33316827 0.038232237
0.196266 -0.3058846 0.032704603
-0.130034 -0.28257453 0.035844535
0.22741601 -0.27469301 0.033490717
-0.22741598 -0.19223571 0.030038908
0.196266 -0.19020712 0.032832339
-0.22741598 -0.17770335 0.030447483
0.22741599 -0.15305506 0.033299379
-0.130034 -0.12012852 0.037479963
0.22741601 -0.11052553 0.032764576
-0.22741601 -0.019360028 0.038162872
0.196266 0.033938803 0.037545174
0.22741599 0.031821392 0.03000251
-0.22028649 0.23983772 0.038536951
-0.048023302 0.238921 0.035534341
0.12094104 0.23892102 0.039222211
-0.049140759 0.25750899 0.036755335
-0.0020483918 0.25750899 0.033909541
0.18701547 0.254471 0.03786277
-0.17939514 0.2709434 0.038841106
-0.17200136 0.3058933 0.03291766
-0.16618446 0.30751052 0.038930129
0.12299038 -0.34187901 0.042711545
0.1618071 -0.34187901 0.048664328
-0.22741599 -0.32786295 0.049466074
-0.130034 -0.30830914 0.040244751
0.196266 -0.26950327 0.046238787
-0.22741601 -0.14650682 0.049982216
-0.22741601 0.063243955 0.043011848
-0.130034 0.16494858 0.043709122
-0.21331313 0.23983853 0.048578914
-0.22741601 0.25778723 0.04707782
-0.017401209 0.25750899 0.048223212
0.13670474 0.25750899 0.048206866
-0.1689339 0.32775369 0.041526165
-0.220044 -0.374567 0.059715338
-0.092989773 -0.374567 0.050792977
-0.076364763 -0.37456697 0.055199783
0.012246251 -0.34187901 0.054673031
0.11537515 -0.34187901 0.053007506
-0.22741599 -0.32507643 0.059574053
0.22741599 -0.28973746 0.057572365
0.22741599 -0.23590919 0.05802156
-0.22741598 -0.22946221 0.052198283
0.22741599 -0.17943649 0.057555437
0.22741598 -0.14170834 0.054466516
-0.22741599 -0.097754911 0.058052506
0.22741598 -0.097978458 0.057505131
-0.22741601 -0.083432034 0.05983188
0.196266 -0.051574782 0.051962133
0.196266 0.09820468 0.052901518
0.196266 0.21140185 0.059315484
-0.22741598 0.23024067 0.054234408
-0.16566744 0.25898433 0.050379641
-0.00089244917 0.25750899 0.054662433
0.15074268 0.25096944 0.051103838
0.2121225 0.254471 0.051624849
-0.22741599 0.31624991 0.052113727
-0.17637861 0.31726483 0.056411013
-0.073155522 -0.374567 0.062388152
-0.22741598 -0.36091763 0.061315052
-0.22741601 -0.35385099 0.064945363
-0.08405146 -0.34187901 0.064854808
0.11221194 -0.34187901 0.060865786
-0.130034 -0.2974695 0.067444429
0.196266 -0.16181053 0.069461942
-0.130034 -0.12432397 0.069531508
0.196266 0.050179012 0.064765602
0.196266 0.098047063 0.066564173
0.196266 0.15053816 0.062127419
-0.130034 0.16652505 0.06118276
-0.017233275 0.23892099 0.063158512
0.1507435 0.24261385 0.06118672
-0.024755292 0.25750899 0.060726143
0.22323641 0.257682 0.064656317
-0.22741599 0.28144228 0.067358784
-0.17484145 0.31238651 0.067044377
-0.01430618 -0.37456697 0.075110272
0.16420765 -0.37456703 0.070042297
0.20547563 -0.374567 0.075726934
0.11604882 -0.34187901 0.076330528
-0.22741599 -0.33793592 0.077822454
-0.12392671 -0.33157811 0.073570423
-0.130034 -0.27584669 0.072404101
-0.130034 -0.25249821 0.078131251
0.22741599 -0.17786705 0.076556347
-0.22741601 -0.14531684 0.076149411
0.196266 -0.078056023 0.079861261
-0.22741601 0.013645723 0.073543094
-0.22741599 0.076118305 0.072258279
0.196266 0.2106286 0.072417274
-0.130034 0.2384949 0.079546422
-0.086682349 0.23924516 0.075420693
0.196266 0.24007879 0.0740375
0.057168953 0.25750899 0.070468284
0.060808755 0.25750899 0.079686336
0.092780992 0.25750899 0.077904403
-0.18760332 0.29241988 0.070814639
-0.17917341 0.32360318 0.070783667
0.081428401 -0.374567 0.081096351
0.19338611 -0.374567 0.081604272
-0.22741599 -0.31010473 0.088630296
-0.22741599 -0.26909938 0.087282561
-0.130034 -0.19285551 0.081340723
-0.130034 -0.017244354 0.087792069
-0.22741599 0.14155394 0.088305727
0.048520327 0.25750899 0.082454793
0.080878794 0.25750899 0.083378933
0.16334993 0.254471 0.089296743
-0.16600943 0.28503644 0.080304779
-0.17469135 0.31199783 0.088370673
0.05007565 -0.374567 0.09414947
0.15707736 -0.37456697 0.096719272
0.20718105 -0.37452629 0.093377396
-0.068710662 -0.34187901 0.093271613
-0.22741598 -0.23941663 0.096748054
0.22741599 -0.22957316 0.095918402
0.0056393463 0.238921 0.099518962
0.11370081 0.238921 0.099114887
0.064693689 0.25750899 0.097970366
0.14174785 0.25750899 0.09570732
0.20575076 0.254471 0.098159045
-0.17135826 0.26177949 0.097055882
-0.22548631 0.346284 0.098038204
-0.13402152 -0.374567 0.10452759
0.042943239 -0.37456697 0.10835461
0.1010925 -0.34187901 0.10778782
0.196266 -0.28957358 0.10439309
0.22741599 -0.27167758 0.10591705
0.22741601 -0.22275843 0.10210023
0.22741599 -0.19140117 0.10988817
0.22741601 0.0093174502 0.10910904
0.196266 0.069347031 0.1073233
0.196266 0.089214161 0.1025483
0.074374884 0.25750899 0.10485373
0.15057303 0.25542623 0.10895775
-0.22741598 0.30986267 0.10688647
-0.060080737 -0.374567 0.115468
0.011879243 -0.374567 0.11416207
-0.130034 -0.27865487 0.11539281
0.196266 -0.2112671 0.11852228
-0.130034 -0.20360807 0.11680043
0.196266 -0.13167131 0.11565554
0.22741601 -0.13397321 0.11223989
0.196266 -0.046298169 0.11330592
-0.22741599 -0.002491951 0.11205029
0.196266 0.042390622 0.1115421
-0.22741599 0.24912725 0.11910262
-0.17548299 0.27391553 0.11927404
-0.18706699 0.29101658 0.11063959
-0.1853469 0.33865321 0.11791973
-0.22741599 -0.37039393 0.1214193
-0.092998594 -0.374567 0.12860286
0.1586571 -0.374567 0.1252894
0.196266 -0.24576484 0.12264433
0.22741599 -0.21834344 0.12047121
-0.22741601 -0.20671357 0.12713419
-0.130034 -0.20189467 0.12795636
-0.130034 -0.15585887 0.12211832
-0.130034 -0.02413772 0.12346108
0.196266 0.026147664 0.12253306
0.22741598 0.038425162 0.12703019
0.22741601 0.13013555 0.12245472
0.196266 0.15665188 0.12083987
-0.130034 0.16059914 0.12674139
-0.130034 0.21229899 0.1231318
0.018040672 0.23892102 0.12204711
-0.15778406 0.25755316 0.12918679
-0.1753414 0.31457004 0.12277661
-0.22741599 -0.26403674 0.13766122
0.196266 -0.23914459 0.13979872
-0.22741599 -0.21002683 0.13733371
-0.22741599 -0.094603993 0.13589273
-0.130034 0.011723354 0.13212007
0.22741599 0.046639554 0.13980338
-0.062495351 0.25750899 0.13588715
-0.034803733 -0.34187901 0.14914833
-0.22741598 -0.28878447 0.14248312
-0.130034 -0.25858274 0.14765704
0.22741601 -0.11047569 0.14976516
0.22741601 -0.021972857 0.14639115
0.196266 0.010810018 0.14464697
0.22741599 0.050049692 0.14833026
0.196266 0.071154825 0.14806782
0.22741601 0.092423916 0.14540674
-0.22741599 0.11419296 0.142414
0.22741601 0.22615862 0.1490463
0.071692161 0.25750899 0.14871328
0.1009614 0.25750899 0.14416786
0.18429808 0.254471 0.14801472
0.21851806 -0.374567 0.15859729
-0.22741599 -0.34344912 0.15461208
0.021575376 -0.34187901 0.15054046
0.055715438 -0.34187901 0.15599647
0.13356063 -0.34187901 0.15469475
-0.130034 -0.29305595 0.1555548
0.22741601 -0.19605188 0.15041327
-0.22741598 -0.093304008 0.15550107
0.196266 0.12849212 0.15439233
-0.22741599 0.21487212 0.15068345
0.015543569 0.23936419 0.15417433
0.11797973 0.24546811 0.15557726
-0.018593654 0.25702137 0.15429141
0.026919253 0.25447783 0.15354657
0.15578237 0.254471 0.15118447
-0.19502339 0.31183419 0.15439683
-0.1995233 0.32360801 0.15369067
-0.20623833 0.34117758 0.15167403
-0.22741601 -0.37201124 0.1666247
-0.22741599 -0.36413294 0.1608364
0.22741599 -0.32595116 0.16978043
0.22741601 -0.26069656 0.16079679
0.22741598 -0.22441129 0.16175111
-0.22741598 -0.20162383 0.16000061
-0.22741601 -0.11889575 0.16113156
-0.22741598 -0.090904891 0.16287313
0.22741601 -0.020864695 0.16760316
0.22741598 0.037346967 0.16202059
0.021199446 0.24711975 0.16271783
0.22741601 0.24800143 0.1688731
-0.17440203 0.32582882 0.16684994
0.027842501 -0.37456703 0.17815647
0.046865433 -0.34187901 0.17310685
-0.130034 -0.26701391 0.17049794
0.19625665 -0.24887645 0.17161249
0.196266 -0.2347016 0.17008688
-0.1278214 -0.021311238 0.17974728
0.19495457 -0.013377562 0.17642128
-0.22741601 0.036808655 0.17541406
-0.12969305 0.042179987 0.17283691
0.22741598 0.062120266 0.17130157
-0.12776738 0.19288379 0.17994666
0.21202475 0.23981284 0.17156644
0.22741599 0.23673248 0.17123207
-0.065637127 0.254471 0.17224044
-0.16343433 0.29942733 0.17512974
-0.19285667 0.35637179 0.17008477
0.078385577 -0.374567 0.1897383
-0.05507239 -0.33774999 0.1875757
0.10879959 -0.33908069 0.18493775
-0.22741599 -0.30781829 0.1845565
0.19199869 -0.29764158 0.18601727
-0.12692256 -0.28907025 0.18306597
-0.22741598 -0.2168186 0.18069924
-0.22741601 -0.18779352 0.1810298
0.22741599 -0.095912382 0.18294531
0.22741599 -0.07175038 0.18062548
0.19258463 -0.055391923 0.18517381
0.22741598 -0.05716034 0.18310922
0.22741601 -0.037698947 0.1812903
-0.12585618 -0.027035879 0.18592682
0.22741599 -0.0027790219 0.18468219
-0.12578125 0.043548375 0.18600175
-0.1228611 0.1520322 0.1889219
-0.22741599 0.23404992 0.18586314
-0.16633359 0.25919166 0.18247834
0.11265016 0.254471 0.18327156
-0.19718634 0.36656973 0.18385802
-0.13963726 -0.37456697 0.19367167
-0.077343062 -0.37456703 0.19557703
-0.22741599 -0.33232331 0.19918084
0.0094443671 -0.33496121 0.19037798
0.061586209 -0.33427966 0.1909302
0.042592723 -0.32284671 0.19762568
0.17049803 -0.3289488 0.19461764
0.17530572 -0.3077268 0.19741428
0.095786229 -0.28198057 0.19922499
0.13718817 -0.28454405 0.19922499
0.13717413 -0.27881846 0.19922501
0.071165949 -0.26120982 0.19922501
0.084775805 -0.26892516 0.19922499
0.12870213 -0.25356817 0.19922499
0.18789756 -0.25485742 0.19011796
-0.041369785 -0.2426137 0.19922499
0.035210256 -0.23211195 0.19922498
-0.10604035 -0.22897752 0.19823569
0.084018283 -0.22597912 0.19922499
0.14338097 -0.22521029 0.19922498
-0.11934714 -0.21996778 0.19243586
0.060019519 -0.20133489 0.19922499
0.10058389 -0.20815918 0.19922499
-0.10222775 -0.17036465 0.19922498
0.13226657 -0.17111318 0.19922499
0.15125291 -0.17270629 0.19922498
0.072292663 -0.16604616 0.19922499
0.14951654 -0.16321327 0.19922498
0.056708761 -0.15963052 0.19922499
0.13800536 -0.14140505 0.19922499
0.060373891 -0.11405113 0.19922498
-0.22741601 -0.10408004 0.19201291
0.11935528 -0.10069265 0.19922499
0.13060981 -0.10655423 0.19922499
0.0053652599 -0.08130338 0.19922499
0.14727166 -0.080224186 0.19922499
-0.025884166 -0.075237557 0.19922501
0.096509129 -0.070005164 0.19922499
0.024311397 -0.066158429 0.19922498
0.14680563 -0.048080161 0.19922499
0.042090014 -0.022975862 0.19922499
-0.22741599 -0.00018893182 0.19300711
0.004916586 -0.0023303367 0.19922501
0.010236282 -0.004571043 0.19922499
0.18039547 -0.0033493415 0.19603603
0.040874466 0.0058313585 0.19922499
0.053851422 0.0036114901 0.19922499
0.095587827 0.0046471842 0.19922498
0.16737975 0.0074105631 0.19922499
-0.12148388 0.016919047 0.19029912
0.074607983 0.02726531 0.19922501
0.084410205 0.021069095 0.19922498
-0.0069358125 0.042669199 0.19922498
0.05466263 0.050455935 0.19922499
-0.076359794 0.066305012 0.19922499
0.080913357 0.078678764 0.19922501
0.1239096 0.08916685 0.19922499
-0.09459164 0.095398806 0.19922499
0.00561684 0.12507355 0.19922501
0.027048979 0.12834451 0.19922499
0.040549643 0.12964976 0.19922498
0.097810254 0.13857451 0.19922498
0.09469749 0.15532425 0.19922499
0.1609173 0.16434695 0.19922499
0.03294244 0.17456342 0.19922499
-0.040650103 0.18755856 0.19922501
-0.22741599 0.19427472 0.19403729
0.08266069 0.19980867 0.19922499
0.094797745 0.19075973 0.19922498
0.14601161 0.19101387 0.19922499
0.075498529 0.20874794 0.19922501
-0.10836227 0.21283323 0.19760695
0.158204 0.22689511 0.19922499
-0.10330519 0.23310784 0.19897635
0.014716662 0.23030555 0.19922498
0.17137243 0.23579289 0.19847938
-0.041654728 0.24994384 0.19922499
0.0067222305 0.24470094 0.19922501
-0.025349798 0.254471 0.19104522
0.056756541 -0.374567 0.20123577
-0.22741599 -0.21598373 0.20787245
0.22741601 -0.2184591 0.2022246
-0.22741599 -0.04887557 0.20047507
-0.17848065 0.23984087 0.20927371
-0.17312513 0.26299512 0.20468383
-0.22741601 -0.30754018 0.21990491
0.22741599 -0.26513317 0.21084437
0.22741599 -0.19811484 0.21197413
-0.22741601 -0.15794194 0.21255365
-0.22741601 -0.11478379 0.21133631
-0.22741601 -0.016942471 0.21024016
-0.22741599 0.20479779 0.2121942
-0.061125427 0.254471 0.21845958
-0.037196018 0.254471 0.21447742
0.089749426 0.254471 0.21770525
-0.22741599 0.27709916 0.21620028
-0.20314892 0.33309424 0.21291086
-0.2229889 0.34628621 0.21386884
0.13727915 -0.374567 0.22202635
0.22741599 -0.2214016 0.22521397
-0.22741601 -0.21753109 0.22743456
0.22741598 -0.19965269 0.22140801
0.22741598 0.015102223 0.22906277
-0.22741598 0.048676394 0.22179241
0.22741599 0.12888467 0.22124462
-0.22741599 0.13982294 0.22221434
-0.1994056 0.23983768 0.22854614
-0.22741599 0.24727532 0.22271128
-0.056371927 0.254471 0.22510134
0.027615262 0.254471 0.22536746
-0.22741598 -0.1784094 0.23347929
0.20993805 0.098510593 0.239162
0.22706783 0.13574752 0.23913647
-0.22689812 0.14303535 0.23952787
0.2088501 0.16584444 0.23973933
0.22720328 0.21793219 0.2388095
0.21314938 0.24017785 0.23910913
-0.087622538 0.2570805 0.23359078
-0.070223808 0.25732243 0.23403639
0.083486922 0.257682 0.2352227
0.15147941 0.25684977 0.23336059
-0.20683593 0.33701175 0.23655462
-0.20878345 0.346284 0.23190476
0.069031015 -0.37350345 0.24007286
-0.06429638 -0.36945307 0.24079302
-0.11661074 -0.35325783 0.24079302
-0.139295 -0.34650123 0.24079302
-0.059246324 -0.33492351 0.24079302
0.10544965 -0.31799197 0.240793
0.12378369 -0.30878878 0.240793
-0.1552152 -0.29225832 0.240793
-0.10664826 -0.29426157 0.240793
-0.017425321 -0.29822913 0.240793
0.1508383 -0.28195792 0.240793
-0.19743957 -0.27508333 0.240793
-0.045594443 -0.27079746 0.24079299
-0.16148202 -0.25649735 0.24079302
0.025157757 -0.25271189 0.24079299
-0.14183551 -0.24418235 0.24079299
-0.095353052 -0.23058376 0.24079299
-0.025474936 -0.23006591 0.24079299
0.1098761 -0.2353352 0.240793
0.16987041 -0.23523974 0.24079302
0.2239127 -0.23733389 0.24079299
-0.18828392 -0.21951562 0.24079302
-0.11352911 -0.20259787 0.24079299
0.077177778 -0.20339786 0.240793
-0.21539429 -0.19721484 0.240793
-0.20226203 -0.19443807 0.24079302
-0.14658578 -0.19411592 0.240793
-0.03433577 -0.18141448 0.24079299
-0.025695227 -0.18709137 0.24079299
-0.21356365 -0.17691202 0.24079299
0.072609678 -0.17517184 0.240793
0.13792899 -0.1725083 0.240793
0.17494558 -0.17664556 0.24079302
-0.056438513 -0.14479338 0.24079299
0.0050889552 -0.13155286 0.24079302
-0.012720972 -0.11440573 0.240793
0.015656952 -0.11631676 0.240793
0.20449427 -0.11621298 0.24079299
0.21897312 -0.11935067 0.240793
-0.0026165843 -0.10843927 0.24079302
-0.10302991 -0.085646689 0.240793
-0.13081303 -0.068119168 0.240793
0.12545857 -0.056743197 0.24079302
0.084893838 -0.046883509 0.240793
0.16698569 -0.034090579 0.240793
0.018876787 -0.028579786 0.24079302
0.14720614 -0.026159469 0.240793
-0.013166608 -0.010130901 0.24079302
-0.18828169 -0.0036244318 0.240793
0.12838733 -0.0030141175 0.24079299
-0.016992301 0.0040318891 0.240793
0.051873431 0.013794534 0.24079302
-0.0319224 0.02888497 0.24079299
-0.0044721626 0.02235315 0.240793
0.034145042 0.045476906 0.24079299
0.22287971 0.040370934 0.240793
0.098378614 0.065867536 0.24079299
0.099288039 0.074452028 0.240793
-0.18519355 0.08324825 0.240793
-0.10218252 0.082130253 0.24079299
-0.18076839 0.092111424 0.24079302
0.16452622 0.092247054 0.240793
0.084939793 0.12104349 0.24079299
-0.081260681 0.13734098 0.24079299
0.13271643 0.13246378 0.24079302
0.11129125 0.146908 0.24079299
0.087009236 0.16156267 0.24079299
-0.1226612 0.178794 0.240793
-0.017540835 0.17223603 0.240793
-0.018766597 0.18288898 0.24079302
0.12517281 0.19245343 0.240793
0.14933509 0.2057251 0.240793
0.11556473 0.21143575 0.240793
-0.095430955 0.22334975 0.240793
0.09557423 0.22985792 0.24079299
-0.21229085 0.23321302 0.24079299
-0.0019536987 0.24481085 0.24079302
-0.21488978 0.25078809 0.240793
0.21121137 0.2537885 0.24079302
-0.1910436 0.27336919 0.24030863
