# .PCD v0.7 - Point Cloud Data file format
VERSION 0.7
FIELDS x y z
SIZE 4 4 4
TYPE F F F
COUNT 1 1 1
WIDTH 976
HEIGHT 1
VIEWPOINT 0 0 0 1 0 0 0
POINTS 976
DATA ascii
0.15682124 0.25515935 -0.29334
0.26687318 0.253683 -0.29187301
-0.27757958 0.26490647 -0.29334
0.08402361 0.26345003 -0.29334
-0.025798053 0.27294829 -0.29334
0.063626356 0.27077916 -0.29334
0.21321276 0.27254251 -0.29334
0.23435369 0.27456281 -0.29334
0.050259776 0.2841008 -0.29333997
0.1583679 0.28841999 -0.29150361
-0.016108116 0.253683 -0.28260788
-0.23549365 0.28841999 -0.28051502
0.061966114 0.28841999 -0.28864983
0.22413304 0.28841999 -0.28000104
-0.26403564 0.253683 -0.27270648
-0.17083862 0.253683 -0.27422851
-0.016354024 0.253683 -0.2785705
0.047175981 0.253683 -0.27364847
0.23247746 0.253683 -0.27482188
-0.22995025 0.28841999 -0.27476782
-0.20619427 0.28841999 -0.27592158
-0.11809012 0.28841999 -0.27377748
-0.025925018 0.28841999 -0.27914363
0.20650578 0.28841999 -0.27978921
-0.18731648 -0.28841999 -0.26421952
-0.053284202 -0.28841999 -0.26543081
0.036955237 -0.28841999 -0.26369634
0.13621011 -0.2851193 -0.26810601
0.17956811 -0.28841999 -0.26445791
-0.10191104 -0.27279451 -0.26810601
0.065120317 -0.2732558 -0.26810601
0.084954187 -0.27536684 -0.26810601
0.10658942 -0.26018357 -0.26810601
0.13026609 -0.2697334 -0.26810601
0.19784766 -0.26073262 -0.26810601
0.085906297 -0.25361028 -0.26810601
0.16815415 -0.25123519 -0.26810601
-0.20313269 -0.24689399 -0.26810601
-0.12249744 -0.24004066 -0.26810601
0.0016377494 -0.24609213 -0.26810601
0.024303667 -0.2411647 -0.26810601
-0.24870396 -0.23140034 -0.26810601
0.085072167 -0.23558094 -0.26810601
0.21171726 -0.23304844 -0.26810601
-0.16251618 -0.22203311 -0.26810601
-0.0020197276 -0.22049357 -0.26810601
0.10900541 -0.22017434 -0.26810601
0.20252649 -0.22720841 -0.26810601
-0.1912134 -0.21701482 -0.26810601
-0.10703242 -0.21713945 -0.26810601
-0.0012035742 -0.2133905 -0.26810601
-0.11065433 -0.20355967 -0.26810601
-0.022951297 -0.18748066 -0.26810601
0.054356016 -0.18089801 -0.26810601
0.056844525 -0.17104363 -0.26810604
0.25952029 -0.16627489 -0.26810601
-0.25868204 -0.14750373 -0.26810601
-0.080249608 -0.14152139 -0.26810601
-0.18132845 -0.13784461 -0.26810601
-0.14350067 -0.13350311 -0.26810601
-0.014836423 -0.13564107 -0.26810601
0.15039134 -0.13273372 -0.26810601
0.24858847 -0.13155198 -0.26810601
-0.22837014 -0.12647156 -0.26810601
-0.045123003 -0.12979251 -0.26810601
-0.063172042 -0.11051828 -0.26810601
-0.031837218 -0.10811837 -0.26810601
0.024691977 -0.10788311 -0.26810601
0.098428912 -0.098709099 -0.26810601
0.19952013 -0.090120181 -0.26810601
-0.19529361 -0.082854599 -0.26810601
-0.15366979 -0.083365515 -0.26810601
0.13705985 -0.088404402 -0.26810601
-0.092619359 -0.075622477 -0.26810601
-0.080827013 -0.079321824 -0.26810601
0.26236379 -0.07301645 -0.26810601
-0.25009668 -0.062684193 -0.26810601
0.014762871 -0.068919867 -0.26810601
-0.12593283 -0.056907263 -0.26810601
-0.056714222 -0.054636791 -0.26810601
0.15928395 -0.057861377 -0.26810601
0.19686744 -0.051466331 -0.26810601
0.019599319 -0.046905018 -0.26810601
0.17458355 -0.049928095 -0.26810601
-0.073818497 -0.039429523 -0.26810601
0.094423123 -0.03490907 -0.26810601
-0.018718921 -0.02162537 -0.26810601
0.20263672 -0.029989243 -0.26810601
0.26821485 -0.024381451 -0.26810601
0.087401852 -0.015188606 -0.26810601
0.10716921 -0.0015437976 -0.26810601
0.14687547 0.0090469643 -0.26810601
-0.11869025 0.017187089 -0.26810601
-0.072375268 0.012527591 -0.26810601
-0.0090898946 0.016022086 -0.26810601
-0.12841359 0.029951468 -0.26810601
-0.0098502683 0.020300575 -0.26810601
0.015273863 0.025239596 -0.26810601
0.16720451 0.027164374 -0.26810601
-0.13543774 0.032207541 -0.26810601
0.19722474 0.03641548 -0.26810601
0.15380943 0.049214646 -0.26810601
-0.25426903 0.054006368 -0.26810601
-0.092984684 0.055383924 -0.26810601
0.2618224 0.058320198 -0.26810601
-0.036532968 0.06682463 -0.26810601
0.014125122 0.062799804 -0.26810601
0.12922536 0.067605838 -0.26810601
-0.21235341 0.075830184 -0.26810601
-0.15396598 0.071952507 -0.26810601
0.24129105 0.076243863 -0.26810601
-0.258959 0.082382105 -0.26157588
-0.064903446 0.085230239 -0.26810601
0.040384561 0.088955887 -0.26810598
-0.15742829 0.09751685 -0.26810601
0.26879299 0.09278629 -0.26810601
-0.1136983 0.10254385 -0.26810601
0.24203125 0.10733832 -0.26810601
-0.066342212 0.11668362 -0.26810601
0.18358086 0.12418772 -0.26810601
0.27220699 0.12193982 -0.26796424
-0.22125357 0.13834624 -0.26810601
-0.11423939 0.13697875 -0.26810601
-0.071157634 0.13386358 -0.26810601
-0.010415077 0.13822186 -0.26810601
0.12434135 0.13739656 -0.26810601
0.16497988 0.131145 -0.26810601
0.22658421 0.13783522 -0.26810601
-0.22881272 0.14672153 -0.26810601
-0.024746157 0.1446258 -0.26810601
-0.25864971 0.15086198 -0.26810601
-0.20953351 0.16267352 -0.26810601
-0.060143866 0.16122904 -0.26810601
0.12753235 0.17054535 -0.26810601
0.212277 0.17061284 -0.26682925
-0.25701353 0.18313545 -0.26810601
0.1192136 0.18711431 -0.26810601
-0.17197153 0.19654021 -0.26810601
0.083913639 0.19642131 -0.26810601
0.10560784 0.19504642 -0.26810601
0.025587842 0.20663309 -0.26810601
0.062809274 0.20503928 -0.26810601
-0.0725246 0.2157886 -0.26810601
0.050355434 0.2135528 -0.26810601
-0.16196473 0.22829942 -0.26810601
0.21227698 0.22644018 -0.26183721
-0.055334516 0.23408368 -0.26810601
-0.069235541 0.24779347 -0.26810601
-0.15638356 0.25247148 -0.26810604
-0.12963864 0.253683 -0.26642367
0.14665319 0.253683 -0.26687369
0.16459575 0.25298154 -0.26676905
0.25438613 0.253683 -0.26250234
-0.25006101 0.28841999 -0.26504257
-0.018323131 0.28841999 -0.26413608
-0.16069269 -0.28841999 -0.25214094
-0.14552544 -0.28841999 -0.25557286
-0.10483679 -0.28841999 -0.25663835
-0.077987373 -0.28841999 -0.25479665
0.01515732 -0.28841999 -0.25229353
0.212277 -0.22412428 -0.2560626
0.27220699 -0.15609848 -0.25199142
-0.258959 -0.080227405 -0.25771773
-0.258959 -0.042907186 -0.25688666
0.27220699 -0.011185441 -0.25756529
0.27220699 0.022308677 -0.25474215
0.27220699 0.10207813 -0.25625172
0.27220699 0.13139169 -0.25777474
0.212277 0.23687744 -0.25042376
-0.12871915 0.25368303 -0.25021881
-0.1044443 0.25368297 -0.25511968
0.26407537 0.253683 -0.2585004
-0.28419301 0.28114232 -0.25474471
0.19995278 0.28841999 -0.25422829
0.06580729 -0.28842002 -0.24998915
0.13518739 -0.28841999 -0.24473646
-0.258959 -0.26435158 -0.24350485
0.212277 -0.1993753 -0.24581012
-0.258959 -0.13504449 -0.24910535
0.24109495 0.19452572 -0.24349201
-0.19087556 0.253683 -0.2457812
-0.0048588365 0.253683 -0.24577522
0.275361 0.27184343 -0.24092343
-0.24726248 0.28841999 -0.24850203
-0.08278542 0.28841999 -0.2485528
0.11660567 0.28841999 -0.2431469
-0.15089583 -0.28841999 -0.23096915
0.025902502 -0.28841999 -0.23889054
0.25333938 -0.20639808 -0.236665
-0.258959 -0.1932933 -0.23722021
0.27220699 -0.018066045 -0.2336265
0.27220699 0.077762529 -0.23484407
-0.258959 0.21636984 -0.2360514
-0.24424176 0.253683 -0.23359522
-0.11966854 0.253683 -0.23207845
0.08271011 0.253683 -0.23341727
0.11925197 0.253683 -0.23545519
-0.28419304 0.26594639 -0.23511317
-0.022093717 0.28841999 -0.23940705
0.0071923081 0.28841999 -0.23458576
0.23669258 0.28841999 -0.23970713
-0.16304521 -0.28841999 -0.2232603
-0.258959 -0.26952028 -0.22434749
0.27220699 0.058693338 -0.2294044
-0.26688331 0.253683 -0.22150744
-0.24183325 0.253683 -0.22303718
-0.062332839 0.253683 -0.22920385
0.013325028 0.253683 -0.22637069
-0.097696677 0.28841999 -0.22504765
0.275361 0.28018335 -0.22757524
0.12395106 -0.28841999 -0.21896599
-0.258959 -0.24526896 -0.21488088
-0.258959 -0.12432028 -0.21968548
-0.258959 -0.089655004 -0.21971242
-0.258959 -0.056928135 -0.2173097
0.028353795 0.253683 -0.21450147
0.085632481 0.253683 -0.21904919
0.11642896 -0.28841999 -0.20742524
0.25298798 -0.28841999 -0.2087639
-0.258959 -0.021267757 -0.20322099
-0.258959 0.021081552 -0.20396897
0.27220699 0.037664745 -0.20294674
-0.258959 0.040086389 -0.20778519
0.27220699 0.054938577 -0.2028172
0.27220699 0.11125422 -0.20984267
0.26442739 0.19049074 -0.20172904
-0.15613942 0.253683 -0.2078927
-0.081958115 0.253683 -0.20008159
0.042821757 0.253683 -0.2035373
0.14105624 0.253683 -0.20571786
0.18154204 0.253683 -0.20517923
0.27457261 0.253683 -0.20620745
-0.06389454 0.28841999 -0.20997813
0.020902865 0.28841999 -0.20011997
-0.10496409 -0.28841999 -0.1938024
-0.072009251 -0.28841999 -0.19319311
-0.258959 -0.21160078 -0.19265248
0.27220699 -0.14252454 -0.19204721
-0.258959 0.097818166 -0.19273067
0.258329 0.23479107 -0.19924907
-0.18804771 0.253683 -0.19125946
-0.15285982 0.253683 -0.1978685
0.24733064 0.253683 -0.19791898
-0.094679467 0.28841999 -0.19286099
0.11707716 0.28841999 -0.19060934
0.03868394 -0.28841999 -0.18239799
0.15212172 -0.28841999 -0.18114267
0.22429943 -0.28841999 -0.18318191
-0.258959 -0.25063637 -0.18184236
0.27220699 -0.17894641 -0.18278107
0.27220699 -0.16857094 -0.18236549
0.27220699 -0.15074915 -0.18323831
0.27220702 -0.080435641 -0.18203542
-0.258959 -0.070355378 -0.18809271
0.27220699 0.11105894 -0.18908037
0.25848517 0.19595778 -0.18548751
-0.258959 0.2093983 -0.18198544
-0.258959 0.24637969 -0.18254524
-0.019699425 0.253683 -0.18193968
0.20777595 0.253683 -0.18651628
-0.258959 -0.22135615 -0.1780389
0.26620644 -0.19576401 -0.17150833
0.27220699 -0.19336891 -0.17385997
0.27220699 -0.029396992 -0.17049138
0.27220699 -0.016265729 -0.1725297
-0.15408382 0.253683 -0.1772262
-0.049742401 0.253683 -0.1772753
0.033033088 0.253683 -0.1758832
0.065169901 0.25368297 -0.17226641
-0.15653019 0.28841999 -0.1706177
-0.080305174 -0.28841999 -0.1620459
0.14584595 -0.28841999 -0.1616917
0.21703076 -0.28841999 -0.16773486
-0.258959 -0.24970689 -0.16204238
0.27220699 -0.1577332 -0.16085719
-0.258959 -0.054785371 -0.16604826
-0.258959 0.046788536 -0.16470398
0.27220699 0.066751145 -0.16014063
-0.258959 0.21365502 -0.16370514
-0.258959 0.24374007 -0.16769129
-0.21002546 0.253683 -0.16733174
-0.099820577 0.253683 -0.16201392
0.20613949 0.253683 -0.16476281
-0.28419301 0.27185148 -0.16585384
-0.11534337 -0.28841999 -0.15895237
0.10741578 -0.28841996 -0.15254232
0.14478675 -0.28841999 -0.15185702
-0.258959 -0.26429176 -0.15239652
0.258329 -0.2689409 -0.15335582
0.258329 -0.23396131 -0.15645096
0.27220699 -0.11653735 -0.15392846
0.27220699 -0.091145024 -0.15506816
0.27220699 -0.084535711 -0.15763476
0.27220699 -0.042587385 -0.15578514
0.258329 0.19005606 -0.15738958
-0.258959 0.22235847 -0.15833181
-0.15322594 0.253683 -0.15310946
-0.075916171 0.25368303 -0.15584444
-0.03382802 0.253683 -0.15331182
0.023439888 0.253683 -0.15338831
0.093974844 0.253683 -0.15553522
-0.27191556 0.28841999 -0.15189326
0.035433702 -0.28841999 -0.14334467
0.258329 -0.23284802 -0.14336629
-0.258959 -0.18077914 -0.1407299
0.27220699 -0.11933319 -0.14627734
0.27220699 0.018445821 -0.14835115
0.27220699 0.14912742 -0.14850986
-0.217142 0.253683 -0.14419411
-0.14339577 0.253683 -0.14131896
0.016630609 0.253683 -0.14855126
0.2306504 0.253683 -0.1464662
-0.12365615 -0.28841999 -0.13289572
-0.258959 -0.18355842 -0.13895683
-0.258959 -0.061294302 -0.13777314
-0.258959 0.041767336 -0.13659157
0.26842201 0.20397104 -0.13999498
-0.258959 0.25095472 -0.1355415
0.018423755 0.253683 -0.13475226
0.21888329 0.253683 -0.1373958
0.258329 0.2522057 -0.13147262
0.03826496 0.28841999 -0.13871527
0.11470725 0.28841999 -0.13617262
-0.15229394 -0.28841999 -0.12237889
-0.14321114 -0.28841999 -0.12295888
-0.13329735 -0.28841999 -0.12056058
0.089198701 -0.28841999 -0.12195704
0.258329 -0.264433 -0.12309191
-0.258959 -0.076618679 -0.12628044
-0.258959 0.061360732 -0.12275794
0.25875741 0.157795 -0.12155151
-0.258959 0.2390257 -0.12363453
0.14906594 0.253683 -0.12100291
0.12948817 0.28841999 -0.12028977
0.08715526 -0.28841999 -0.11659522
0.11539792 -0.28841999 -0.11828722
0.22700949 -0.28841999 -0.11640063
0.258329 -0.27295092 -0.11431018
-0.258959 -0.24796195 -0.1158399
0.26737776 0.157795 -0.11206574
0.26842201 0.21759662 -0.11875117
0.17906088 0.253683 -0.11268596
0.25518858 0.253683 -0.11602058
-0.24449411 0.28841999 -0.11501843
-0.0365109 0.28841999 -0.11583196
0.1327164 0.28841999 -0.11908668
0.17163035 0.28841999 -0.11781269
0.18722589 0.28841999 -0.11760667
-0.16841331 -0.28841999 -0.10599566
-0.258959 -0.26855496 -0.10822507
0.27220702 -0.18374243 -0.10504613
0.27350646 -0.0082442667 -0.103853
-0.14775784 0.253683 -0.1015123
-0.11639413 0.253683 -0.10220226
-0.054437436 0.253683 -0.10851256
0.015089605 0.253683 -0.10073887
0.031717081 0.28841999 -0.10143933
0.10633447 0.28841999 -0.10204478
0.126978 0.28841999 -0.10759237
-0.23454554 -0.28841999 -0.090482756
0.258329 -0.26235861 -0.093761086
0.24989274 -0.060018953 -0.094940901
0.228679 -0.01321231 -0.094294704
0.258329 0.1716263 -0.092555113
-0.22887734 0.253683 -0.098147184
0.21689019 0.25368303 -0.092823341
0.23905231 0.253683 -0.096823767
-0.22622642 0.28841999 -0.093150012
-0.094805628 0.28841999 -0.097521052
0.096711174 0.28841999 -0.096290551
-0.17225331 -0.28841999 -0.087242775
0.028645031 -0.28841999 -0.08252342
0.14107749 -0.28841999 -0.088210166
0.15192248 -0.28841999 -0.087545604
-0.258959 -0.1291149 -0.080996856
-0.18094611 0.28841999 -0.084146552
0.040443424 0.28841999 -0.084702216
0.14664072 0.28841999 -0.087166466
0.20534396 0.28841999 -0.083753705
0.23292023 0.28841999 -0.088262506
-0.21000636 -0.28841999 -0.077418506
0.258329 -0.20578526 -0.072708137
0.228679 -0.043067615 -0.075829126
-0.23373933 0.253683 -0.071321279
-0.080135487 0.253683 -0.073867105
-0.075343192 0.253683 -0.077901043
0.0012609307 0.28841999 -0.076886535
0.02336036 0.28841999 -0.070975639
0.22834773 0.28841999 -0.079365976
0.20130458 -0.28841999 -0.062346913
-0.258959 -0.27887833 -0.066464186
0.27220699 -0.19388449 -0.062928766
-0.258959 -0.1809133 -0.068716273
-0.258959 -0.099660203 -0.062219296
0.2698873 0.055802874 -0.066920958
0.27220699 0.14892179 -0.060198404
-0.258959 0.21550408 -0.064698458
0.258329 0.24243429 -0.066554978
-0.27532649 0.253683 -0.064374782
-0.10028886 0.253683 -0.066015907
-0.087556489 0.253683 -0.06621296
-0.038067117 0.253683 -0.063861758
0.029950475 0.253683 -0.063725196
0.035321802 0.253683 -0.062816754
0.12661526 0.253683 -0.062003288
0.13137881 0.253683 -0.063773826
0.1406949 0.253683 -0.065103121
0.2415137 0.253683 -0.065987185
-0.13684911 0.28841999 -0.061705433
-0.1723531 -0.28841999 -0.055364102
-0.10282404 -0.28841999 -0.053987831
-0.095613405 -0.28841999 -0.058696516
-0.071124747 -0.28841999 -0.057172194
0.0072193816 -0.28841999 -0.054010838
0.063476339 -0.28841999 -0.057526
0.258329 -0.28414199 -0.053398043
-0.258959 -0.26952884 -0.051225297
-0.258959 -0.25436938 -0.059708335
-0.258959 -0.041224636 -0.051511738
0.23292181 0.055036873 -0.053959839
-0.258959 0.19844422 -0.053592846
-0.258959 0.22455126 -0.050453775
-0.087310627 0.253683 -0.056317605
-0.28419301 0.27692437 -0.05435114
-0.14329834 0.28841999 -0.059716675
-0.074397817 0.28841999 -0.052050076
0.067238711 0.28841999 -0.056077722
0.16049083 0.28841999 -0.051359989
-0.2137593 -0.28841999 -0.042429887
0.10796316 -0.28841999 -0.046488814
0.258329 -0.28312522 -0.048351001
0.258329 -0.21490076 -0.042805225
-0.258959 -0.19477892 -0.046664231
-0.258959 -0.14165786 -0.048959445
0.28419301 -0.12870121 -0.04548844
0.228679 -0.093864731 -0.049394451
-0.258959 0.1954307 -0.045928113
-0.2630446 0.253683 -0.049424961
-0.18498817 0.253683 -0.047446407
-0.10472448 0.253683 -0.043081053
-0.061192412 0.253683 -0.041088127
0.21371174 0.253683 -0.043041289
0.275361 0.27404395 -0.047024429
-0.17405331 0.28841999 -0.041318685
0.14024432 0.28841999 -0.048727326
0.2343908 0.28842002 -0.042039789
0.258329 -0.26778138 -0.03628815
-0.258959 -0.25382847 -0.034952924
0.258329 -0.24526705 -0.03445999
-0.258959 -0.21520895 -0.032622483
0.28419301 -0.13780558 -0.037012897
0.28419301 0.075745836 -0.036737643
0.27220699 0.12526467 -0.030660322
-0.258959 0.13132243 -0.033755288
0.073216334 0.253683 -0.038223118
0.21166542 0.253683 -0.03928227
-0.23802385 0.28841999 -0.035015114
-0.19884291 0.28841999 -0.03002435
-0.028086595 0.28841999 -0.037854377
0.14814146 0.28841999 -0.032946512
-0.24603173 -0.28841999 -0.024979919
-0.21950963 -0.28841999 -0.02076789
-0.16171525 -0.28841999 -0.024449311
0.072461441 -0.28841999 -0.027130432
0.25720084 -0.28841996 -0.028406143
-0.258959 -0.2009369 -0.026424728
-0.258959 -0.078213327 -0.021502942
-0.258959 0.054704268 -0.02830421
-0.258959 0.12151827 -0.028067447
-0.258959 0.13556126 -0.023384906
-0.258959 0.15025346 -0.024470164
-0.258959 0.19980241 -0.028728791
-0.26386184 0.253683 -0.028296072
-0.22965039 0.253683 -0.020516329
-0.033881195 0.253683 -0.028686158
0.044169903 0.253683 -0.026826032
0.2385326 0.253683 -0.021666251
-0.2244591 0.28841999 -0.029603966
0.084195167 0.28841999 -0.021997824
0.2392064 0.28841999 -0.026830286
-0.20473047 -0.28841999 -0.0192471
0.15565923 -0.28841999 -0.017250143
-0.258959 -0.22261937 -0.012356237
-0.258959 -0.060924634 -0.016305186
-0.258959 0.15297431 -0.017589491
0.258329 0.24513599 -0.019232089
-0.2664535 0.253683 -0.01536388
-0.10814714 0.253683 -0.01669839
0.16968431 0.253683 -0.019917935
0.17434704 0.253683 -0.014554262
-0.22109732 0.28841999 -0.014314398
-0.011956189 0.28841999 -0.01494487
-0.0073776739 0.28841999 -0.010623995
0.015177486 0.28841999 -0.019844513
0.066119462 0.28841999 -0.0137107
0.18930572 0.28842002 -0.014079131
0.1978365 0.28841996 -0.01450754
0.26700887 -0.19576401 -0.0089553595
0.28419301 -0.1512059 -0.0011628531
0.28419298 0.084337838 -0.0081111025
-0.19577442 0.253683 -0.0030380636
-0.14904645 0.253683 -0.003424868
-0.065264918 0.253683 -0.00018562376
0.043038771 0.253683 -0.0035840496
0.24799669 0.253683 -0.009803053
-0.28419301 0.26316059 -0.0058849826
-0.17862208 0.28842002 -0.0068589859
-0.0021234574 0.28841999 -0.0014254227
0.1758104 -0.28841999 0.0053810552
0.258329 -0.22036365 0.0087209307
-0.258959 -0.19480634 0.00039105862
0.27072448 -0.19576401 0.0077656731
-0.258959 -0.076688148 0.0097572282
0.228679 0.066489294 0.0051641911
0.258329 0.18112792 0.006944993
0.258329 0.23412183 0.0074428068
-0.28419301 0.28344229 0.0031397864
0.17587017 0.28841999 0.0050395131
0.24257427 0.28841999 0.0011726692
0.068731859 -0.28841999 0.013113372
0.258329 -0.24921322 0.013003975
-0.258959 -0.16126734 0.013234206
0.228679 -0.077435471 0.016202029
0.28419301 0.082884565 0.015547229
-0.258959 0.1076593 0.01105985
-0.24702701 0.253683 0.019775927
-0.21319604 0.253683 0.017320462
-0.20641345 0.253683 0.017160773
-0.095339105 0.253683 0.010407187
-0.0126979 0.253683 0.010568281
0.013300136 0.253683 0.010990456
0.275361 0.27700931 0.010227621
-0.258959 -0.21942657 0.020655159
-0.258959 -0.19416411 0.024586253
-0.258959 -0.16014196 0.027728803
0.24231574 -0.12698987 0.022602964
0.228679 0.002566474 0.025343839
0.27220699 0.14596604 0.025521673
-0.258959 0.23216254 0.024584347
0.096656717 0.253683 0.020272203
0.10078706 0.253683 0.021366678
0.13891116 0.253683 0.021816008
-0.12208328 0.28841999 0.020509079
0.058641933 0.28841999 0.025385924
-0.25709164 -0.28841999 0.038139313
-0.033982784 -0.28841999 0.039177097
0.20256791 -0.28841999 0.032735199
0.25063938 -0.28841999 0.032848164
-0.258959 0.067687847 0.034566879
0.2412305 0.069691062 0.036615189
-0.258959 0.15720932 0.032028556
-0.04747387 0.253683 0.033950567
0.11882693 0.253683 0.039810389
-0.19778715 0.28841999 0.036110066
0.13826631 0.28841999 0.031549923
0.19103038 0.28841999 0.037551504
-0.15987456 -0.28841999 0.048473977
0.1739706 -0.28841999 0.043411255
0.24401942 -0.28841999 0.043632314
0.25621241 -0.28841999 0.048749574
0.258329 -0.2769236 0.040808007
0.22943814 0.065023735 0.040798802
0.26115057 0.157795 0.048208378
-0.18064786 0.253683 0.041332699
-0.10924337 0.253683 0.040626675
0.17983103 0.253683 0.042415112
0.16915211 0.28841999 0.049118493
0.09796948 -0.28841999 0.058057442
0.258329 -0.21923217 0.051799119
0.24874738 0.060938343 0.059219081
0.258329 0.18830396 0.053544745
0.258329 0.1930975 0.056504499
-0.258959 0.22657418 0.05375056
-0.258959 0.24335232 0.050287005
-0.0028882623 0.253683 0.058929324
0.19050792 0.253683 0.054407887
0.25825727 0.253683 0.055608995
0.26979858 0.253683 0.054784473
-0.090078637 0.28841999 0.050558928
-0.12328943 -0.28841999 0.061509602
0.25816619 -0.11518128 0.061604567
0.27942562 -0.1150921 0.067023359
0.228679 0.040696476 0.063288137
-0.27693343 0.253683 0.067783654
0.150784 0.253683 0.068050206
-0.28419301 0.26714283 0.066177323
-0.258959 -0.28343394 0.074470192
0.15694316 -0.28841999 0.077718973
0.23003656 -0.28841999 0.079842687
0.25799146 0.052320205 0.073941529
0.27220699 0.11515981 0.076869622
0.27220699 0.14575607 0.078198597
-0.22745696 0.253683 0.072555088
-0.17069492 0.253683 0.070629969
-0.011822537 0.253683 0.076065503
0.25403911 0.253683 0.07540188
-0.016424829 0.28841999 0.073199652
0.036191083 0.28841999 0.073345087
0.049781702 0.28841999 0.077223681
0.15810302 0.28841999 0.074668899
-0.258959 -0.28377613 0.087406948
-0.10514554 -0.28841999 0.087516762
-0.046805218 -0.28841999 0.084153831
0.2120658 -0.28841999 0.08288002
0.258329 -0.19657768 0.08835578
0.28419301 -0.11513706 0.082299963
0.228679 0.029873721 0.084465638
0.28284273 0.051244974 0.080711268
-0.258959 0.066614605 0.083935082
0.27220699 0.12879072 0.086552069
-0.17712143 0.253683 0.080237746
-0.28419301 0.27999637 0.083758511
-0.22753139 0.28841999 0.083278805
0.086359285 0.28841999 0.083690293
0.20201074 0.28841999 0.080153354
0.24913622 0.28841999 0.087112874
0.15210761 -0.28841999 0.093696743
-0.258959 -0.2666412 0.095256887
0.23313078 -0.073649913 0.092098013
-0.258959 0.0022157747 0.09646818
0.27220699 0.15559635 0.090814009
-0.19468157 0.253683 0.098785833
-0.024749376 0.253683 0.096271455
0.25547728 0.253683 0.098603889
0.275361 0.25636351 0.098212078
0.275361 0.26866311 0.09292458
-0.19544506 0.28841999 0.095149726
-0.17135534 0.28841999 0.098543271
-0.13516974 0.28841999 0.095169291
0.095620632 0.28841999 0.090458527
0.20766212 0.28841999 0.097896293
0.23679483 0.28841999 0.098447204
-0.13744789 -0.28841999 0.10204879
-0.12835771 -0.28841999 0.10775331
-0.050326757 -0.28841999 0.10023895
0.258329 -0.21907896 0.10115946
-0.258959 -0.14435795 0.10857695
-0.258959 -0.038314149 0.10261989
-0.21417907 0.253683 0.10766773
-0.17752923 0.253683 0.10094721
-0.037476152 0.253683 0.10495992
0.22937652 0.253683 0.10105172
0.275361 0.25626716 0.10520334
-0.1922358 -0.28841999 0.11580744
-0.076546438 -0.28841999 0.11516245
0.09078452 -0.28841999 0.11948095
-0.258959 -0.027852952 0.11578088
-0.22569758 0.253683 0.1173112
-0.082178034 0.253683 0.11888917
0.080666043 0.253683 0.11034992
0.25403944 0.253683 0.11173195
-0.22065833 0.28841999 0.11390106
0.11189691 0.28841999 0.11052148
0.15421116 0.28841999 0.1148027
0.20485258 -0.28841999 0.12239817
0.28419301 0.029804394 0.12049467
0.27220699 0.10881767 0.12910011
-0.258959 0.14556712 0.12531017
-0.25368458 0.253683 0.12651676
-0.026461426 0.253683 0.12452241
0.12225664 0.253683 0.12005041
0.24000818 0.253683 0.12851137
0.035931792 0.28841999 0.12415482
0.026421718 -0.28841999 0.13443539
0.19507234 -0.28841999 0.13800158
0.22523831 -0.28841999 0.13080244
-0.258959 -0.15254973 0.13216196
-0.258959 -0.13172945 0.1394667
-0.072761506 0.253683 0.13227113
-0.023922626 0.253683 0.13871965
0.18007034 0.253683 0.13636984
0.21126203 0.253683 0.13073018
-0.12148118 0.28841999 0.13067667
0.062164716 0.28841999 0.134701
-0.14620103 -0.28842002 0.14041062
0.25832903 -0.25812516 0.14946312
-0.258959 -0.1677227 0.14194456
-0.258959 -0.0085358843 0.14903533
0.258329 0.1967786 0.14522795
-0.20653275 0.253683 0.14314812
-0.12742674 0.253683 0.14463846
0.25380465 0.253683 0.14264566
-0.28419301 0.28436437 0.14265449
-0.24829228 0.28841996 0.14808136
-0.21860968 0.28841999 0.14340609
-0.18877187 0.28841999 0.1461502
-0.16283591 0.28841999 0.14395604
0.098215774 0.28841999 0.14115307
0.275361 0.28464943 0.14990301
0.18224439 -0.28841999 0.15103813
-0.258959 0.075830653 0.1544634
-0.057633545 0.28841999 0.15315668
0.15110248 0.28841999 0.15530491
0.25198799 0.28841999 0.15195809
-0.25078344 -0.28841999 0.16987705
-0.17242652 -0.28841999 0.16666988
-0.14201368 -0.28841999 0.16340838
-0.258959 0.23109493 0.16598764
-0.042753439 0.253683 0.16106436
-0.096576236 0.28841999 0.16353185
0.044952165 -0.28841999 0.17882466
0.258329 -0.2246259 0.17484967
-0.258959 -0.21088549 0.1782867
0.25832903 -0.21859774 0.17253397
-0.258959 -0.12765959 0.17356545
0.27220699 0.011257724 0.17181288
-0.258959 0.055940464 0.17892331
0.27220699 0.13690886 0.17477573
0.27049097 0.157795 0.17000441
-0.258959 0.18590355 0.17350245
0.258329 0.20942739 0.17582542
0.16951652 0.253683 0.17952454
-0.25618771 0.28841999 0.17513783
-0.24447967 0.28841999 0.17396434
-0.0050761178 0.28841999 0.17131412
-0.1950426 -0.28841999 0.18783173
-0.1132926 -0.28841999 0.18069211
0.095404498 -0.28841999 0.1846627
-0.258959 -0.26419014 0.18400453
-0.258959 -0.19400576 0.18742882
-0.258959 -0.17879289 0.18449152
0.27220699 -0.03197372 0.18445954
0.089800939 0.253683 0.18520465
0.048407529 0.28841999 0.18041532
0.19533978 0.28841999 0.18168576
0.24183092 0.28841999 0.18320647
0.01787211 -0.28841999 0.19225785
-0.258959 -0.10029035 0.1986115
-0.258959 -0.082928732 0.19423093
0.27220699 -0.080024391 0.19755007
0.27220699 -0.036690339 0.19598641
-0.258959 0.083579652 0.19081955
-0.258959 0.14173606 0.19372538
-0.24305807 0.253683 0.19954816
-0.2014361 0.28841999 0.19695222
0.11623555 0.28842002 0.19033036
0.26844323 0.28841999 0.19978964
-0.087342195 -0.28841999 0.20122138
0.258329 -0.27833182 0.2011255
-0.258959 -0.22355053 0.20865437
-0.258959 0.17501804 0.20917228
-0.25779411 0.253683 0.20394507
0.025949277 0.253683 0.20738195
0.10808947 0.253683 0.20644642
-0.069701381 0.28841999 0.20932077
-0.17088649 -0.28841999 0.21701986
0.11004005 -0.28841999 0.21923441
0.17575695 -0.28841999 0.21446833
0.258329 -0.27401507 0.21021873
-0.258959 -0.21799445 0.21700601
-0.258959 -0.1844995 0.21306953
-0.258959 -0.16280344 0.21718855
0.27220696 0.082933694 0.21927778
-0.258959 0.14239363 0.21375893
-0.10794428 0.253683 0.21006079
0.18335363 0.253683 0.21071258
-0.23643158 0.28841999 0.2182278
0.17240359 0.28841999 0.21259359
0.27303073 0.28841999 0.21442273
-0.25537005 -0.28841999 0.22192085
-0.18318406 -0.28841999 0.2243986
-0.096550323 -0.28841999 0.22493437
0.1637809 -0.28841999 0.22342604
0.258329 -0.21968046 0.22766143
0.27220699 -0.15768656 0.22580509
-0.258959 0.0045082569 0.22536179
0.27220699 0.12354986 0.22676904
-0.258959 0.19822633 0.22701986
0.258329 0.20620245 0.222027
0.258329 0.24998146 0.2268935
0.19416696 0.253683 0.22143939
-0.092134476 0.28841999 0.22391601
0.15557671 0.28841999 0.22976744
-0.11560708 -0.28841999 0.23036051
0.22993793 -0.28277212 0.23343
0.25181308 -0.28721693 0.23343
0.212277 -0.27017683 0.23497009
0.22758296 -0.27596971 0.23343
-0.258959 -0.26865059 0.23138006
-0.258959 -0.25753844 0.23795341
0.21554226 -0.24464384 0.23343
0.21463197 -0.2031779 0.23343
0.22312751 -0.19576401 0.23900864
-0.258959 -0.12087706 0.23987991
0.27220699 -0.056249738 0.23778149
0.27220699 -0.025752898 0.23605481
-0.258959 0.070049994 0.23667736
0.27220699 0.13765311 0.2399378
-0.258959 0.20652205 0.23212263
-0.27036762 0.253683 0.2342741
-0.028875837 0.253683 0.23418137
0.07058233 0.253683 0.23321301
0.26393664 0.253683 0.23109144
-0.14639381 0.28841999 0.23974362
0.094676651 0.28841999 0.239464
0.1261982 0.28841999 0.23034018
-0.17586622 -0.28841999 0.24990408
0.27220699 -0.18619525 0.24757388
0.27220696 -0.16160086 0.24641238
0.27220699 -0.14484337 0.24839115
0.27220699 0.13583148 0.24068654
0.23616374 0.19450462 0.242884
-0.258959 0.2172506 0.24430405
-0.17607497 0.253683 0.24555241
-0.13023619 0.253683 0.24579316
0.23628727 0.253683 0.24505876
-0.079827674 0.28841999 0.24830647
0.024154283 0.28841999 0.24637635
0.12950464 0.28841999 0.24895032
-0.15887004 -0.28841999 0.25238815
-0.076815009 -0.28841999 0.25203404
-0.0029019848 -0.28841999 0.25247243
0.10539499 -0.28841999 0.25328556
0.11432233 -0.28841999 0.25375518
0.13264593 -0.28841999 0.25144646
0.27220699 -0.088884741 0.25992763
-0.258959 0.0078053921 0.25076905
0.27220699 0.11194089 0.25744665
0.23114473 0.157795 0.25298122
-0.0045608804 0.253683 0.25806743
0.04316172 0.253683 0.25803241
0.08620701 0.253683 0.25914174
0.13071215 0.28841999 0.25634748
-0.2441546 -0.28841999 0.26338768
-0.094705552 -0.28841999 0.26228252
-0.058083709 -0.28841999 0.26665682
-0.0066429973 -0.28076473 0.268107
0.15534823 -0.28235003 0.268107
0.16000405 -0.28063571 0.268107
0.026709788 -0.27638415 0.268107
0.040907718 -0.27411884 0.268107
0.12275388 -0.26347589 0.268107
0.18110116 -0.2525363 0.268107
-0.18038613 -0.24043675 0.268107
-0.12853715 -0.24407975 0.268107
0.074840859 -0.24264246 0.268107
0.12309463 -0.2448999 0.268107
-0.25750169 -0.23984636 0.268107
0.0036454126 -0.23482218 0.268107
0.14138106 -0.23498413 0.268107
-0.10256667 -0.22444969 0.268107
0.1499728 -0.22915782 0.268107
0.16416091 -0.22936368 0.268107
0.1899237 -0.22946474 0.268107
-0.073193297 -0.21072046 0.268107
-0.14288855 -0.20347042 0.268107
-0.11773496 -0.20626579 0.268107
-0.107242 -0.20655805 0.268107
0.16781606 -0.20776354 0.268107
0.26144168 -0.19576401 0.26278451
-0.2001005 -0.18950871 0.268107
-0.060406506 -0.1887054 0.268107
0.1747555 -0.18665887 0.268107
0.25939757 -0.18311447 0.268107
0.037112579 -0.1772908 0.268107
-0.10921071 -0.16693087 0.268107
0.049257956 -0.16389672 0.268107
0.074091628 -0.16075897 0.268107
0.16891131 -0.16632606 0.268107
0.27220699 -0.16193189 0.26125458
-0.24602398 -0.15702349 0.268107
-0.22329296 -0.1590313 0.268107
-0.13478121 -0.15903561 0.268107
-0.075731136 -0.15099418 0.268107
0.092369892 -0.15807362 0.268107
0.23630616 -0.15482378 0.268107
-0.19222328 -0.14726834 0.268107
0.23792569 -0.14332065 0.268107
0.26214612 -0.14767006 0.268107
-0.23293294 -0.13897231 0.268107
-0.12126815 -0.13167344 0.268107
0.012127727 -0.13394831 0.268107
-0.081514284 -0.11542764 0.268107
-0.062924668 -0.11649928 0.268107
0.16953291 -0.11723331 0.268107
0.1585419 -0.10046548 0.268107
-0.16675822 -0.09337803 0.268107
-0.017404549 -0.090906911 0.268107
0.041678086 -0.090656146 0.268107
0.2433728 -0.099306285 0.268107
0.26506737 -0.09531495 0.268107
-0.13542448 -0.089994207 0.268107
-0.035086107 -0.089339249 0.268107
0.089735948 -0.073912956 0.268107
-0.035163857 -0.060961574 0.268107
0.27220699 -0.067907646 0.2646462
-0.20423034 -0.053897604 0.268107
0.0011171475 -0.05802568 0.268107
0.052451536 -0.053089947 0.268107
-0.12123081 -0.040036842 0.268107
-0.0047040675 -0.045876134 0.268107
0.24684666 -0.044533126 0.268107
0.26796758 -0.043687597 0.268107
0.25007841 -0.038503181 0.268107
-0.258959 -0.028981537 0.26333731
-0.21963373 -0.028562233 0.268107
-0.097139493 -0.02552399 0.268107
0.27135384 -0.02565901 0.268107
-0.040298045 -0.016462132 0.268107
-0.17110763 0.0042467862 0.268107
-0.20571858 0.015078485 0.268107
-0.011429515 0.02812824 0.268107
0.053151976 0.029829348 0.268107
0.23732695 0.028372064 0.268107
0.27220699 0.029698119 0.26254523
-0.25675076 0.034975246 0.268107
-0.035411339 0.035026357 0.268107
0.15777831 0.038402531 0.268107
0.17487809 0.033108868 0.268107
0.10840174 0.042503119 0.268107
-0.1489436 0.054353796 0.268107
-0.045633052 0.058217749 0.268107
-0.18354079 0.060434595 0.268107
-0.17000429 0.068980001 0.268107
-0.16157326 0.064230904 0.268107
0.090093747 0.062820837 0.268107
0.24349248 0.067588054 0.268107
-0.24273598 0.075129583 0.268107
-0.23327062 0.070529103 0.268107
0.18902449 0.072862141 0.268107
0.15538095 0.093227804 0.268107
0.20332423 0.098812036 0.268107
0.24762556 0.094459116 0.268107
-0.12586336 0.10364117 0.268107
0.21133408 0.10001377 0.268107
-0.014013246 0.11712584 0.268107
0.18138814 0.11405347 0.268107
0.15944141 0.12663023 0.268107
-0.086426102 0.13673216 0.268107
0.0013050735 0.13488206 0.268107
0.27220699 0.14825101 0.26411405
-0.19846117 0.15538697 0.268107
-0.0070589334 0.15027137 0.268107
-0.0507311 0.18122971 0.268107
0.13123122 0.18562111 0.268107
0.17958996 0.18861748 0.268107
-0.19112772 0.19857374 0.268107
0.0074676429 0.19813658 0.268107
0.035970986 0.19325633 0.268107
0.085877098 0.19037849 0.268107
-0.0040115118 0.20682706 0.268107
0.10795873 0.20852588 0.268107
-0.050459173 0.21690425 0.268107
-0.0047599897 0.21333607 0.268107
0.13964221 0.21863878 0.268107
-0.20612472 0.23867199 0.268107
0.061911676 0.23531067 0.268107
0.16306235 0.23600143 0.268107
-0.15402304 0.28841999 0.26953757
-0.1221368 0.28841999 0.26503289
-0.061306309 0.28841999 0.26766565
0.275361 0.28124559 0.26510832
-0.14163911 0.253683 0.27577659
0.077361353 0.253683 0.27113894
0.12603864 0.253683 0.27527386
0.16836244 0.253683 0.27479103
0.22401267 0.253683 0.27682978
-0.28255615 0.28841999 0.27946794
-0.19546472 0.28841999 0.27850541
-0.1541964 0.28841999 0.27434176
0.024376661 0.28841999 0.27112889
0.10191538 0.28841999 0.27644104
-0.2806876 0.253683 0.28007641
-0.22964305 0.253683 0.28697041
-0.21643163 0.253683 0.28414124
-0.052497219 0.253683 0.28631705
0.25954863 0.253683 0.28806502
0.091680743 0.28841999 0.28003684
-0.038073368 0.25542116 0.29334003
0.14257368 0.26962435 0.29334
-0.25460342 0.27444917 0.29334
0.085923322 0.27128401 0.29334
-0.28411192 0.28841999 0.29235607
-0.25116113 0.2837061 0.29334
-0.11647259 0.28762275 0.29334
-0.022897102 0.28584552 0.29334
