# .PCD v0.7 - Point Cloud Data file format
VERSION 0.7
FIELDS x y z
SIZE 4 4 4
TYPE F F F
COUNT 1 1 1
WIDTH 976
HEIGHT 1
VIEWPOINT 0 0 0 1 0 0 0
POINTS 976
DATA ascii
0.025944687 -0.28929502 -0.31748301
0.052686974 -0.28665793 -0.31748301
0.13319504 -0.28055304 -0.31748301
-0.12376142 -0.27800852 -0.31748301
-0.12168991 -0.26032668 -0.31748301
-0.11516447 -0.26363114 -0.31748301
-0.091047466 -0.24094011 -0.31748301
-0.069591977 -0.2419228 -0.31748301
0.091396183 -0.23188597 -0.31748301
0.11154443 -0.22500621 -0.31748301
-0.055828847 -0.21638727 -0.31748301
0.025999814 -0.21306592 -0.31748301
0.057944272 -0.21108626 -0.31748301
0.098342568 -0.21033585 -0.31748301
-0.21168527 -0.20947157 -0.31748301
0.15627009 -0.20183963 -0.31748301
-0.254206 -0.19979149 -0.31316638
-0.2318348 -0.19438501 -0.31748301
-0.18256249 -0.19193508 -0.31748301
-0.17960824 -0.1928485 -0.31748301
-0.093825594 -0.19921082 -0.31748301
0.037019078 -0.19902119 -0.31748301
0.051543985 -0.1934672 -0.31748301
0.099012837 -0.19836199 -0.31748301
0.21052116 -0.19696979 -0.31748301
-0.18514146 -0.18142989 -0.31748301
-0.098497748 -0.18097526 -0.31748301
0.10651244 -0.18240242 -0.31748301
0.20657766 -0.18949832 -0.31748301
-0.23624758 -0.1747824 -0.31748301
0.10895717 -0.1737496 -0.31748301
-0.061217278 -0.16332367 -0.31748301
0.12412657 -0.16544385 -0.31748301
0.20774837 -0.16565296 -0.31748301
0.091457024 -0.15760516 -0.31748301
-0.24017183 -0.14500213 -0.31748301
-0.19036245 -0.14286286 -0.31748301
0.10273649 -0.14270292 -0.31748301
-0.19615975 -0.13158819 -0.31748301
-0.14886525 -0.13534559 -0.31748301
-0.1225251 -0.13431522 -0.31748301
0.14936778 -0.13050102 -0.31748301
0.21285033 -0.13599293 -0.31748301
-0.254206 -0.11132728 -0.31190681
0.237169 -0.11272124 -0.31375492
-0.13481504 -0.10744891 -0.31748301
0.17893098 -0.10883764 -0.31748301
-0.2191489 -0.090359136 -0.31748301
-0.034818519 -0.099762432 -0.31748301
0.21289593 -0.094904602 -0.31748301
-0.17835115 -0.084199786 -0.31748301
-0.087440729 -0.08185219 -0.31748301
0.23159193 -0.088167772 -0.31748301
-0.073595807 -0.071170487 -0.31748301
0.057652362 -0.067160755 -0.31748301
0.15776926 -0.063497193 -0.31748301
0.0095468313 -0.050108097 -0.31748301
-0.074901216 -0.044535659 -0.31748301
0.071310103 -0.044336192 -0.31748301
0.077511288 -0.037270352 -0.31748301
-0.051717713 -0.022226989 -0.31748301
0.13234429 -0.013527855 -0.31748301
-0.13269213 -0.0097762942 -0.31748301
0.0059528947 -0.0007757619 -0.31748301
-0.18140973 0.0069543868 -0.31748301
-0.05753351 0.0084844977 -0.31748301
0.11456624 0.0022125654 -0.31748301
0.1412228 0.006078124 -0.31748301
0.16258946 0.0054336414 -0.31748301
0.2177732 0.0042600557 -0.31748301
0.032626294 0.022508763 -0.31748301
0.22158414 0.02112595 -0.31748301
-0.038005464 0.03762364 -0.31748301
-0.073429532 0.046825029 -0.31748301
-0.037160955 0.045122571 -0.31748301
0.028854899 0.048550889 -0.31748301
-0.19767797 0.056836404 -0.31748301
-0.06005156 0.052585598 -0.31748301
0.2063975 0.056715615 -0.31748301
-0.022223286 0.062244684 -0.31748301
0.18103367 0.068928517 -0.31748301
-0.18674536 0.07554315 -0.31748301
-0.17605512 0.077777259 -0.31748301
-0.050830252 0.078326471 -0.31748301
0.0064133741 0.073992051 -0.31748301
0.14063244 0.071539238 -0.31748301
-0.17581262 0.087226585 -0.31748301
0.057092879 0.081057817 -0.31748301
-0.17612691 0.093981832 -0.31748301
0.041584715 0.093183562 -0.31748301
-0.22360194 0.10717077 -0.31748301
0.15284589 0.10261408 -0.31748301
-0.02262897 0.11319973 -0.31748301
-0.013582077 0.1142327 -0.31748301
0.0094621666 0.11759839 -0.31748301
0.074756265 0.11670306 -0.31748301
0.18760729 0.11380316 -0.31748301
-0.16434756 0.12562519 -0.31748301
-0.10303773 0.12418277 -0.31748301
-0.042653445 0.12839428 -0.31748301
0.17708932 0.12417946 -0.31748301
-0.19050729 0.13518375 -0.31748301
-0.0037552156 0.1304685 -0.31748301
-0.16674899 0.14955366 -0.31748301
-0.13604696 0.14806385 -0.31748301
-0.039851077 0.14931449 -0.31748301
0.072384834 0.14940876 -0.31748301
0.21815607 0.14970495 -0.31748301
-0.13602884 0.15783629 -0.31748301
0.13549978 0.15690906 -0.31748301
-0.12517934 0.16585658 -0.31748301
0.047673602 0.16106209 -0.31748301
-0.0077137016 0.18956235 -0.31748301
0.19529447 0.1875881 -0.31748301
-0.18815836 0.19453828 -0.31748301
-0.077715263 0.1919523 -0.31748301
0.06107273 0.19217101 -0.31748301
0.11193326 0.19713452 -0.31748301
-0.25226495 0.20289361 -0.31748301
-0.14956944 0.2009545 -0.31748301
-0.011839725 0.20562288 -0.31748301
0.10454206 0.2001216 -0.31748301
0.17258087 0.20605616 -0.31748301
0.034438953 0.2160574 -0.31748301
-0.15925339 0.22254315 -0.31748301
0.04311724 0.22087704 -0.31748301
-0.029743059 0.23737408 -0.31748301
0.17552988 0.23406103 -0.31748301
-0.091968767 0.24766162 -0.31748301
0.15420173 0.24591663 -0.31748301
-0.254206 0.25897658 -0.3166104
0.047836252 0.25658172 -0.31748301
-0.17555419 0.26188162 -0.31748301
-0.14371489 0.26075795 -0.31748301
7.3038042e-05 0.26337492 -0.31748301
0.021920472 0.26494586 -0.31748301
0.044894315 0.26295316 -0.31748301
-0.20793055 0.27671367 -0.31748301
-0.0012700967 0.27773505 -0.31748301
-0.076659188 0.290833 -0.31031764
0.2050294 0.290833 -0.31727019
-0.17092215 -0.290833 -0.30646688
0.20042001 -0.28345045 -0.30366483
0.20042002 -0.23140913 -0.30067325
0.2249328 -0.22064498 -0.3002938
0.237169 -0.15225893 -0.30965993
0.237169 -0.12489113 -0.30808216
-0.254206 0.23681661 -0.30338424
0.20577399 0.24408284 -0.3002153
-0.0079168454 0.290833 -0.30658951
0.15474963 0.290833 -0.30640593
0.20042001 -0.26328132 -0.29236698
0.20042001 -0.25086182 -0.29153925
-0.254206 0.023927696 -0.29342717
0.237169 0.05420845 -0.29574624
-0.254206 0.18005732 -0.29102555
0.0052056685 0.290833 -0.29569203
0.012017302 0.290833 -0.29695198
0.038498044 0.290833 -0.2971324
-0.1136988 -0.290833 -0.28405738
-0.254206 -0.1717536 -0.28079253
0.237169 -0.12753716 -0.28257966
-0.254206 -0.064069986 -0.28816611
-0.254206 -0.05627811 -0.28227967
-0.254206 -0.033808731 -0.28224713
0.237169 0.039204679 -0.28577477
-0.254206 0.058306262 -0.28573039
0.237169 0.23183444 -0.28515235
-0.13815412 0.290833 -0.2860944
0.11838922 0.290833 -0.28198743
0.19527964 0.290833 -0.28929633
-0.254206 -0.25606123 -0.27377805
0.20041999 -0.2453593 -0.27406543
0.21291783 -0.220645 -0.27147338
-0.254206 -0.17758238 -0.2705982
-0.254206 -0.016019693 -0.27246165
-0.254206 0.10430421 -0.27024674
0.237169 0.18898037 -0.27453956
0.23716901 0.19411451 -0.27768236
-0.0092846155 -0.290833 -0.26432702
0.006775476 -0.290833 -0.26827413
0.15391216 -0.290833 -0.26882896
0.2133266 -0.22064498 -0.26546001
0.237169 -0.19131902 -0.26406232
-0.254206 0.088189021 -0.26424962
0.17534283 0.290833 -0.26642036
-0.19514476 -0.290833 -0.25697091
-0.17355727 -0.290833 -0.25438663
-0.14885969 -0.290833 -0.25718704
-0.10647394 -0.290833 -0.25657874
0.038746387 -0.290833 -0.25152189
0.19151583 -0.290833 -0.25213701
-0.254206 -0.22566976 -0.2534039
0.21032944 -0.22064501 -0.25833827
-0.254206 -0.15234847 -0.25493211
0.237169 -0.094627395 -0.25728622
-0.254206 -0.058136269 -0.25278175
-0.254206 -0.031164564 -0.2543726
-0.254206 -0.013824828 -0.25184733
-0.254206 0.22960508 -0.25341469
0.20641685 0.239793 -0.25331438
-0.11881559 0.290833 -0.25230944
-0.043620177 0.290833 -0.25342286
0.071620673 0.290833 -0.25234136
0.11872185 0.290833 -0.25555369
-0.22729035 -0.290833 -0.24920264
-0.010574006 -0.290833 -0.2444129
0.16526796 -0.290833 -0.24628982
-0.254206 -0.23916532 -0.24979323
-0.254206 -0.049821831 -0.24925202
-0.254206 0.0072906427 -0.24624665
-0.254206 0.2240755 -0.24868594
0.22092167 0.25708565 -0.24155605
0.21578625 0.26880625 -0.24201462
-0.254206 0.28939512 -0.24000874
-0.23945776 0.290833 -0.24225996
0.061917916 0.290833 -0.24887183
0.18958198 0.290833 -0.24769443
0.07993263 -0.290833 -0.23315266
0.19951034 -0.290833 -0.23526005
-0.254206 -0.26066104 -0.23260385
0.20182636 -0.220645 -0.2327821
-0.254206 -0.18381739 -0.23179637
0.237169 -0.14303891 -0.23681614
-0.254206 0.052494649 -0.2386988
0.237169 0.12536512 -0.23754041
-0.254206 0.18820915 -0.23809284
0.20892435 0.27496073 -0.23212308
-0.12840456 0.290833 -0.23896869
0.057765551 -0.290833 -0.22596171
0.14552942 -0.290833 -0.22560357
0.237169 -0.21707842 -0.22492257
-0.254206 -0.039331783 -0.22947466
0.237169 0.034309939 -0.22865757
-0.254206 0.18390456 -0.2241624
0.20935893 0.239793 -0.22584994
0.21921383 0.239793 -0.22822599
-0.1015493 0.290833 -0.22645296
0.12282176 0.290833 -0.22334395
0.13772132 -0.290833 -0.21018429
0.20042001 -0.28128543 -0.21088694
-0.254206 -0.13943884 -0.21147446
0.237169 0.16374704 -0.21500601
-0.254206 0.27120584 -0.21588002
0.20577401 0.27455842 -0.21295415
-0.2465551 0.290833 -0.21871451
-0.11136657 0.290833 -0.21112074
-0.089458361 0.290833 -0.21846828
-0.23877273 -0.290833 -0.20551983
-0.16820297 -0.290833 -0.200885
0.020047642 -0.290833 -0.20078607
0.047075845 -0.290833 -0.20065162
0.237169 -0.14618838 -0.20641804
-0.254206 0.034742981 -0.20448327
0.22159401 0.25827444 -0.20238598
-0.1802071 0.290833 -0.20252027
-0.10611293 0.290833 -0.20099309
-0.072877526 0.290833 -0.20691621
0.16237506 0.290833 -0.20270848
-0.22877762 -0.290833 -0.19659938
0.062975399 -0.290833 -0.1954774
0.17798711 -0.290833 -0.19662316
0.20042001 -0.28275084 -0.19347626
-0.254206 -0.27945819 -0.19952279
-0.254206 -0.24799347 -0.19708961
0.237169 -0.19878179 -0.19848359
-0.254206 -0.07617785 -0.19635975
0.050010324 0.290833 -0.19133756
0.16270506 0.290833 -0.19213404
-0.24087884 -0.290833 -0.18261833
-0.067991041 -0.290833 -0.18397185
-0.0061633289 -0.290833 -0.18645212
0.11808614 -0.290833 -0.1854942
-0.254206 -0.2661117 -0.18296742
0.237169 -0.069654368 -0.18825907
-0.254206 -0.028791495 -0.18263851
0.237169 -0.013782108 -0.18680677
-0.254206 0.18852583 -0.18434608
0.20996621 0.26372218 -0.18766859
-0.22176543 0.290833 -0.18753134
0.076668173 0.290833 -0.18387988
0.11518328 0.290833 -0.18838647
-0.019485679 -0.290833 -0.1764822
0.10987164 -0.290833 -0.17346507
0.20042001 -0.22694306 -0.17305949
0.21951222 -0.22064501 -0.17502096
-0.254206 -0.10830839 -0.17220592
-0.254206 -0.042899281 -0.17604777
0.254206 -0.043040942 -0.17131004
-0.254206 -0.021943912 -0.17561519
-0.254206 0.19826113 -0.17603859
0.20577398 0.28046632 -0.17034741
-0.060396157 0.290833 -0.1755887
0.1067937 0.290833 -0.17788994
0.16914873 0.290833 -0.17267646
0.077357605 -0.290833 -0.16151878
0.11247952 -0.290833 -0.16454872
0.254206 0.017542206 -0.16245422
0.24287845 0.078569077 -0.1688495
-0.254206 0.26499987 -0.16426329
-0.091816902 0.290833 -0.16224061
-0.07804659 0.290833 -0.16535075
-0.02763854 0.290833 -0.16071245
0.059848174 0.290833 -0.16877565
-0.16543771 -0.290833 -0.15990528
-0.14026059 -0.290833 -0.15650131
-0.11341423 -0.290833 -0.1537531
0.10020611 -0.290833 -0.1534221
0.15489513 -0.290833 -0.1570183
-0.254206 -0.28369531 -0.15358499
0.20042001 -0.23559417 -0.15265682
0.23576429 -0.220645 -0.15284741
0.237169 -0.18661967 -0.15740708
-0.254206 -0.15030479 -0.1531015
-0.254206 -0.12716974 -0.15770692
-0.254206 -0.066094376 -0.15665707
-0.15340115 0.290833 -0.15020029
-0.23351514 -0.290833 -0.14460343
-0.11825079 -0.290833 -0.14150456
0.075324222 -0.290833 -0.14816049
0.1188655 -0.290833 -0.14630097
0.20041999 -0.22584079 -0.14630666
0.237169 -0.20888549 -0.14622027
0.254206 -0.057115018 -0.14936657
-0.254206 0.011996824 -0.14644523
0.254206 0.07698454 -0.14303841
0.237169 0.15786362 -0.14610848
-0.254206 0.22939233 -0.14452007
-0.254206 0.28432256 -0.1430438
0.10994583 0.290833 -0.14536078
0.16344415 0.290833 -0.14374277
-0.079043239 -0.290833 -0.13467532
0.20042001 -0.27603358 -0.13514879
-0.254206 -0.1798341 -0.13795424
0.254206 -0.092513867 -0.13164799
-0.254206 -0.019551091 -0.13788667
0.2139709 0.0096968412 -0.13085762
0.237169 0.20213789 -0.13902654
-0.254206 0.21465433 -0.13187167
0.070889339 0.290833 -0.13582078
0.088731006 0.290833 -0.13199951
0.097557865 0.290833 -0.13710335
-0.22220279 -0.290833 -0.12432376
-0.21745276 -0.290833 -0.12192544
-0.18009165 -0.290833 -0.12120512
-0.13339068 -0.290833 -0.1285727
0.20042001 -0.25126496 -0.12847817
0.20042001 -0.24491292 -0.12111448
0.237169 -0.2124162 -0.12991193
0.23716901 -0.148139 -0.12465493
0.237169 -0.12411727 -0.12409272
0.24939024 -0.039547808 -0.12029392
0.24948046 -0.0012603104 -0.12943581
0.25025409 -0.0092245443 -0.12840237
0.23182239 0.023527017 -0.12937675
-0.254206 0.13194513 -0.12577121
0.237169 0.23010577 -0.12352666
0.20577399 0.26464504 -0.12459461
-0.21714175 0.290833 -0.12448384
0.099904306 0.290833 -0.1235835
-0.10109331 -0.290833 -0.11022738
-0.254206 -0.28374931 -0.11683803
0.20041999 -0.28884703 -0.11123143
-0.254206 -0.014898911 -0.1146502
0.23764193 0.15764506 -0.11135601
0.23027004 0.239793 -0.11135948
0.20577401 0.26725706 -0.11549234
-0.22329834 -0.290833 -0.10709927
0.065949477 -0.290833 -0.1030703
-0.254206 -0.21367469 -0.10787593
0.20479998 -0.014929269 -0.10902041
-0.254206 0.22612114 -0.10219207
0.237169 0.23782459 -0.10421141
0.20577399 0.28307751 -0.10540165
0.16454403 0.290833 -0.10057265
-0.24926774 -0.290833 -0.096160039
-0.21579634 -0.290833 -0.095709264
0.11469066 -0.290833 -0.09202148
0.20479999 -0.03194182 -0.091899045
0.237169 0.16977985 -0.093647838
0.23716901 0.18710959 -0.098959923
-0.254206 0.24977705 -0.096205682
-0.22820655 0.290833 -0.09311486
-0.14352626 0.290833 -0.096023433
0.034358498 0.290833 -0.092565082
0.080683395 0.290833 -0.099134721
-0.254206 -0.030703988 -0.084418923
-0.254206 -0.02345407 -0.080284335
-0.083867691 0.290833 -0.088184603
-0.24057859 -0.290833 -0.072053447
-0.1245326 -0.290833 -0.071691565
0.23089541 -0.099948838 -0.073730037
-0.254206 0.066191435 -0.079649687
-0.21880266 0.290833 -0.07426022
-0.062854186 0.290833 -0.072839029
0.16405089 0.290833 -0.073883541
-0.254206 -0.28810728 -0.06183663
-0.254206 -0.24071899 -0.064085841
-0.254206 -0.14817052 -0.069265887
-0.254206 -0.10770728 -0.063295007
0.20479999 -0.090976626 -0.066109844
0.21937963 0.1290549 -0.063972093
-0.254206 0.23555928 -0.069995694
0.2057759 0.239793 -0.06664177
-0.25365967 0.290833 -0.061974898
0.077258065 -0.290833 -0.056754652
0.237169 -0.20313394 -0.059677772
0.254206 -0.15570274 -0.057730708
0.20479998 0.045696758 -0.055501617
-0.254206 0.10442932 -0.054833841
-0.15951972 0.290833 -0.055633016
-0.25297651 -0.290833 -0.046813987
0.16983607 -0.290833 -0.042365029
0.20042001 -0.28662774 -0.041440457
0.203545 -0.220645 -0.046872772
0.23481472 -0.220645 -0.044026285
0.20480001 -0.11024104 -0.048059698
-0.254206 0.018091694 -0.048801422
0.20479999 0.10812826 -0.043851387
0.20577399 0.24658148 -0.04907959
-0.254206 0.25194871 -0.04546611
-0.22240193 -0.290833 -0.036420979
-0.16565731 -0.290833 -0.03606414
0.14520276 -0.290833 -0.033209316
0.254206 -0.15883437 -0.034995571
0.20480001 -0.022279978 -0.030569322
0.20479999 -0.0038364828 -0.034671258
0.20479999 0.075373814 -0.039563049
0.20480001 0.082658581 -0.033916749
-0.254206 0.21149273 -0.034441993
0.22748223 0.239793 -0.033237156
-0.254206 0.25537741 -0.035269171
-0.035680559 0.290833 -0.034190193
0.013003737 0.290833 -0.037842266
-0.17515981 -0.290833 -0.029113665
-0.0059277867 -0.290833 -0.022592735
0.024133556 -0.290833 -0.025463672
0.15668145 -0.290833 -0.021939218
-0.254206 -0.091092512 -0.029015306
-0.254206 0.061264113 -0.020587727
0.20479999 0.12253649 -0.022784216
0.254206 0.15134746 -0.024310293
-0.19715124 0.290833 -0.029350124
-0.020125374 0.290833 -0.028423429
-0.060108714 -0.290833 -0.014339246
0.053502243 -0.290833 -0.016050108
0.12769775 -0.290833 -0.012568668
0.20042002 -0.27168435 -0.011981055
-0.254206 -0.068545073 -0.014702814
0.20479999 0.031086225 -0.01524182
-0.254206 0.19032089 -0.014976718
-0.20898227 0.290833 -0.011448212
0.086159989 0.290833 -0.01223848
0.20042001 -0.24675821 -0.0078093559
0.20480001 -0.10666679 -0.0081916172
-0.254206 0.12847733 -0.0023796037
-0.254206 0.27610487 -0.0080959946
-0.15433027 0.290833 -0.0063693523
0.12754463 0.290833 -0.007919658
0.20042002 -0.27797809 0.007109493
-0.254206 -0.24229218 0.0037385225
0.254206 -0.1584771 0.0057706665
0.254206 0.16811046 0.0060475585
0.20577399 0.26042217 0.00012505054
-0.20827878 0.290833 0.0062280074
-0.094785228 0.290833 0.00052509829
0.12885325 0.290833 0.0010164343
-0.23803413 -0.290833 0.010369182
-0.19628064 -0.290833 0.016012594
-0.063420661 -0.290833 0.019308651
-0.254206 -0.23886442 0.014475688
-0.254206 -0.22869636 0.012674034
0.21761551 -0.220645 0.019618526
0.254206 -0.15800188 0.019289682
-0.254206 -0.068148851 0.011867762
0.20480001 -0.066636115 0.017623859
0.20479999 -0.052866574 0.01646887
0.20479999 -0.013070185 0.013818403
-0.254206 0.0068318732 0.018132403
-0.254206 0.18981753 0.010070421
0.237169 0.22898975 0.011835709
-0.15223163 0.290833 0.011459485
-0.13622212 0.290833 0.013964303
-0.24095029 -0.290833 0.027540503
0.01118091 -0.290833 0.022848751
-0.254206 -0.27866259 0.0299135
0.20042001 -0.22318259 0.020152882
0.20480001 -0.10414093 0.02712889
-0.254206 -0.055878747 0.027942741
-0.254206 -0.037417121 0.021313861
0.20479999 0.080234148 0.028462877
-0.254206 0.11427453 0.024659544
-0.254206 0.1290752 0.022820532
0.20479998 0.14032823 0.021354716
-0.254206 0.18188502 0.029699668
0.2505824 0.19863275 0.027315296
0.21749602 0.239793 0.020527083
-0.02604942 0.290833 0.028729308
-0.013927575 0.290833 0.020267427
-0.18083972 -0.290833 0.03129188
0.07289961 -0.290833 0.03003737
0.089398652 -0.290833 0.036361907
0.10643379 -0.290833 0.031616814
0.22757167 -0.12398558 0.035417657
0.20479998 -0.10640872 0.032359406
-0.254206 -0.091870598 0.033812374
0.20479999 -0.003161367 0.032274801
0.20479999 0.1346045 0.031671148
0.22436199 0.239793 0.032102514
0.20577399 0.24651112 0.034898911
-0.2267707 -0.290833 0.040416375
-0.254206 -0.23573086 0.046336271
-0.254206 -0.19487286 0.044037938
0.20479999 -0.10132422 0.047177412
0.20479998 -0.067287967 0.044702932
-0.254206 0.22597384 0.04715129
-0.20685565 0.290833 0.045895223
-0.17567542 -0.290833 0.055258833
0.14857896 -0.290833 0.050022855
-0.254206 -0.13834926 0.05562355
0.20479999 -0.069211863 0.054647911
-0.254206 0.19417036 0.051612347
0.237169 0.21793737 0.059555843
-0.23200333 0.290833 0.054163981
-0.20257187 0.290833 0.051342979
0.001871191 0.290833 0.055793688
0.14773068 0.290833 0.054031398
-0.14087307 -0.290833 0.06705267
-0.10970426 -0.290833 0.064386107
0.20042001 -0.2658931 0.060426526
0.20042001 -0.22673671 0.065929055
-0.254206 -0.20403722 0.062063597
-0.254206 -0.17539105 0.063348413
0.237169 -0.17306523 0.064677246
-0.254206 0.032077909 0.06607113
-0.254206 0.073901944 0.06984669
0.20480001 0.095714584 0.066409782
-0.254206 0.16226909 0.064430431
0.237169 0.21279401 0.061347965
-0.254206 0.25465617 0.061929531
-0.254206 0.28451365 0.06184049
-0.14604048 0.290833 0.064875171
-0.13964882 0.290833 0.064721942
0.035756398 0.290833 0.060659915
0.1979057 0.290833 0.064927556
-0.24620403 -0.290833 0.078705326
-0.22565001 -0.290833 0.07070528
-0.095905624 -0.290833 0.07367865
0.254206 -0.14535961 0.072367586
-0.254206 -0.132715 0.077517696
-0.254206 -0.071805678 0.072564885
0.20479999 -0.058493741 0.076635249
0.20479999 0.0095684379 0.073637724
0.23612067 0.13303261 0.071133882
-0.1308538 0.290833 0.078934185
-0.075973839 0.290833 0.071623966
-0.03192959 -0.290833 0.086238265
0.13178325 -0.290833 0.085003905
-0.254206 -0.23833725 0.084669285
0.20479999 -0.037383948 0.08831057
-0.254206 0.023961589 0.086895436
-0.254206 0.06100177 0.082459129
-0.254206 0.072624981 0.0862142
-0.254206 0.21284166 0.084731273
-0.25412178 0.290833 0.085749678
-0.20606503 0.290833 0.086004838
0.066651814 0.290833 0.08671017
0.0073255375 -0.290833 0.09766908
0.18046105 -0.290833 0.097383313
0.20042002 -0.28181082 0.096532553
0.254206 -0.12452725 0.09860009
0.20479999 0.053836189 0.099010095
-0.254206 0.078061938 0.093841247
0.21734579 0.239793 0.090122208
0.094034821 0.290833 0.094395399
0.17000552 0.290833 0.096529886
-0.0648266 -0.290833 0.10158228
-0.254206 -0.18693765 0.1098743
0.20479999 -0.020352222 0.1047116
0.20479999 0.032040596 0.10271671
0.20479998 0.10515445 0.10090801
0.21938396 0.10981537 0.10392717
0.044527762 0.290833 0.10983687
-0.043122903 -0.290833 0.11677282
-0.254206 -0.28792882 0.11418622
0.20479999 0.013352185 0.11542135
0.20480001 0.048929635 0.11613341
0.20480001 0.052610476 0.11201666
0.22233826 0.093208328 0.11728571
-0.254206 0.25970334 0.11684061
-0.2375465 -0.290833 0.1281572
-0.254206 -0.2774834 0.12715861
-0.254206 -0.23830803 0.12527278
-0.254206 -0.060841024 0.12026644
-0.254206 0.15578717 0.12704414
-0.254206 0.16561159 0.12248086
-0.20037366 0.290833 0.12600696
-0.063433908 0.290833 0.12446003
0.017204463 0.290833 0.12078439
0.1589088 0.290833 0.12832069
-0.22027652 -0.290833 0.13717444
-0.099256501 -0.290833 0.13195173
0.21913473 -0.220645 0.13814355
0.22917199 -0.220645 0.13190144
-0.254206 -0.14269218 0.13708225
0.20479998 -0.02780021 0.13008869
0.20479999 -0.017471459 0.13520667
-0.254206 0.00071792305 0.1375353
0.25157306 0.058245018 0.13639995
0.23465204 0.072415717 0.13056022
-0.0043821186 0.290833 0.13866469
0.054053664 0.290833 0.13279313
-0.18514076 -0.290833 0.14758697
0.043147013 -0.290833 0.1402858
0.23683892 -0.220645 0.14634074
-0.254206 -0.11593343 0.14698988
0.23953353 -0.11820994 0.14423674
0.23182397 -0.027556039 0.14018008
0.254206 0.095152214 0.14321607
-0.254206 0.10603283 0.14413641
0.254206 0.11878341 0.14574124
-0.254206 0.15516339 0.1451911
-0.10694093 0.290833 0.14075682
0.16926838 0.290833 0.14005403
-0.12450931 -0.290833 0.15015991
0.03142973 -0.290833 0.15934564
0.064316295 -0.290833 0.15377823
0.20042001 -0.23212707 0.15447614
0.237169 -0.14883138 0.15808895
0.237169 -0.11531514 0.1586661
-0.254206 0.0038516745 0.15108725
0.254206 0.025910173 0.15222871
0.254206 0.10159246 0.15405871
-0.254206 0.19952776 0.15116845
0.20577399 0.24091862 0.15757604
-0.254206 0.25370198 0.1548501
0.20577399 0.27742884 0.15444721
-0.21459967 0.290833 0.15719773
-0.14868478 0.290833 0.15868104
-0.18207563 -0.290833 0.16298851
-0.037155643 -0.290833 0.16554751
0.069013983 -0.290833 0.16515134
-0.254206 0.017447606 0.16010886
0.254206 0.096813515 0.16624004
-0.254206 0.10885606 0.16129249
-0.1622142 0.290833 0.16342138
-0.055815116 0.290833 0.16862509
-0.21276958 -0.290833 0.17972407
0.17977121 -0.290833 0.17375739
-0.254206 -0.24634749 0.17629983
0.20042002 -0.22076106 0.17413762
0.254206 0.08118584 0.17009085
-0.254206 0.176908 0.17444959
-0.19949034 0.290833 0.17801684
0.039450288 0.290833 0.17897396
-0.254206 -0.20388032 0.18618909
-0.254206 -0.17521867 0.18423563
0.237169 -0.11299641 0.18601552
-0.254206 0.0017384142 0.1867395
-0.12592381 -0.290833 0.19880989
0.20041999 -0.27387622 0.19359708
0.20042001 -0.2339576 0.19663185
0.20042001 -0.22551681 0.19973424
0.237169 -0.10930139 0.19955233
0.24250647 -0.00023952406 0.19640464
-0.254206 0.088870212 0.19777535
0.237169 0.11340135 0.19575883
0.237169 0.18464853 0.19025753
0.237169 0.20464769 0.19511783
-0.069504559 0.290833 0.19081539
-0.11795978 -0.290833 0.2005772
-0.254206 -0.28862509 0.20268874
0.20932941 -0.220645 0.20587032
0.21768075 -0.22064498 0.2072088
0.237169 0.014792139 0.20035189
0.237169 0.09879417 0.20835704
-0.254206 0.12097934 0.20234714
-0.15413298 0.290833 0.20554316
0.027555659 0.290833 0.20495576
-0.22251938 -0.290833 0.21533239
-0.144044 -0.290833 0.21538024
0.18010002 -0.290833 0.2178916
-0.254206 -0.26211283 0.21876687
-0.254206 -0.14375931 0.21532178
0.237169 -0.11692109 0.21271785
0.237169 -0.10241783 0.21209329
-0.254206 0.10467972 0.21342653
0.237169 0.1236003 0.21518713
0.052477315 0.290833 0.21040259
0.10403838 0.290833 0.21099128
0.14715195 0.290833 0.21488376
-0.1603235 -0.290833 0.22940274
-0.12444319 -0.290833 0.22756007
-0.060708098 -0.290833 0.22757696
0.1657787 -0.290833 0.22608389
-0.254206 -0.28328061 0.2276414
0.2019659 -0.220645 0.22861886
-0.254206 -0.16223001 0.2268476
0.237169 -0.043709725 0.22588639
0.237169 0.15797643 0.22424197
-0.254206 0.23921655 0.2244463
0.2215941 0.239793 0.22791725
-0.12992443 0.290833 0.22803049
0.087462254 0.290833 0.22070442
-0.16121162 -0.290833 0.23817426
-0.12448144 -0.290833 0.23135898
0.028088048 -0.290833 0.23000138
0.12830938 -0.290833 0.23596534
0.15399989 -0.290833 0.23344558
0.17885463 -0.290833 0.23358941
0.237169 -0.15439202 0.23785359
-0.254206 0.029788204 0.23135811
0.237169 0.058816873 0.23387346
0.032832883 0.290833 0.23522964
0.19703506 0.290833 0.23354997
-0.00085778534 -0.290833 0.24121308
0.0094034448 -0.290833 0.24574432
0.13202298 -0.290833 0.24144351
0.237169 -0.210779 0.24397323
0.237169 -0.20753157 0.24761739
0.237169 -0.12714906 0.24960685
-0.254206 0.051748432 0.24893624
-0.254206 0.10045497 0.24906296
0.237169 0.11995617 0.248409
0.237169 0.20524028 0.24866901
0.22485027 0.239793 0.24936117
-0.20728193 0.290833 0.2485037
0.015601903 0.290833 0.24236812
0.16189124 0.290833 0.24595068
-0.254206 -0.28821012 0.25308973
-0.254206 -0.15309429 0.25204444
0.237169 -0.062948301 0.25715557
-0.254206 -0.025245644 0.25902992
-0.254206 0.10000037 0.25468442
-0.254206 0.19318159 0.25088474
0.237169 0.20169231 0.25024644
-0.18745103 0.290833 0.25798723
0.072608069 0.290833 0.25375259
0.17562295 0.290833 0.25523859
0.237169 0.13317777 0.26170027
-0.254206 0.14522281 0.26363593
-0.254206 0.15357284 0.26299769
-0.254206 0.23043229 0.26098329
-0.07370735 0.290833 0.26273513
0.1842732 0.290833 0.26566556
0.18384072 -0.290833 0.27399218
0.20041999 -0.24057333 0.27257633
-0.254206 0.17606542 0.2768625
-0.23573376 0.290833 0.27384868
0.045124747 0.290833 0.2773332
0.069810659 0.290833 0.2799471
0.079542607 0.290833 0.27408391
-0.23402141 -0.290833 0.28835115
0.073375791 -0.290833 0.28458714
0.20844603 -0.220645 0.28813767
0.237169 -0.20502333 0.28929356
-0.254206 0.078960352 0.28709775
-0.254206 0.094979927 0.28191727
0.237169 0.10472646 0.28286779
0.237169 0.13195874 0.28074291
0.237169 0.16664237 0.28451946
-0.254206 0.269694 0.28610453
-0.19014969 0.290833 0.28569257
0.019304916 0.290833 0.28318632
0.14366311 0.290833 0.28384671
0.17507032 0.290833 0.28056902
-0.23592217 -0.290833 0.29753488
-0.254206 -0.28689769 0.29892188
0.237169 -0.18046099 0.29297489
0.237169 -0.15069366 0.29918152
0.237169 0.044635184 0.2902976
-0.254206 0.079263836 0.29849982
0.237169 0.073628142 0.2931723
-0.254206 0.2726669 0.29551435
-0.25233346 0.290833 0.29788309
-0.11483452 0.290833 0.29720086
-0.00094054639 0.290833 0.29671943
0.0067581609 -0.290833 0.30006418
0.021393619 -0.290833 0.30035594
0.14549784 -0.290833 0.30884543
-0.254206 -0.12838018 0.3054285
-0.254206 -0.048622854 0.30554146
0.237169 -0.020159476 0.30276054
0.237169 0.03339462 0.30164659
-0.254206 0.046721563 0.30260098
-0.254206 0.10455854 0.30079269
-0.254206 0.11485931 0.30408779
-0.02177491 0.290833 0.30449322
-0.21240333 -0.290833 0.31408322
-0.057427287 -0.290833 0.3149668
-0.18583801 -0.28022182 0.31748301
-0.10806987 -0.28596443 0.31748301
0.11420108 -0.28052628 0.31748301
-0.099720575 -0.27200642 0.31748301
0.10501389 -0.2773343 0.31748301
0.11331282 -0.26843691 0.31748301
0.19846772 -0.26473641 0.31748301
-0.17437904 -0.25119072 0.31748301
-0.097046502 -0.25413769 0.31748301
-0.085382067 -0.25412419 0.31748301
-0.02173423 -0.258618 0.31748301
0.0081985965 -0.25635687 0.31748301
0.026043922 -0.25169989 0.31748301
0.094482817 -0.25842902 0.31748301
0.1453336 -0.25712121 0.31748301
0.0059588607 -0.24800728 0.31748301
0.074588053 -0.24175088 0.31748301
-0.13789907 -0.23560357 0.31748301
-0.0066211522 -0.23331821 0.31748301
-0.23666257 -0.22653209 0.31748301
-0.20294333 -0.22159174 0.31748301
-0.1937336 -0.22790504 0.31748301
-0.074079201 -0.22082913 0.31748301
0.17176083 -0.22410321 0.31748301
0.18125945 -0.22144234 0.31748301
-0.22722302 -0.21920648 0.31748301
-0.083721295 -0.21965806 0.31748301
-0.064034343 -0.21565484 0.31748301
0.11875502 -0.21804616 0.31748301
0.13130274 -0.21478541 0.31748301
-0.11289901 -0.20331043 0.31748301
0.089999922 -0.20753245 0.31748301
0.14328429 -0.20914535 0.31748301
-0.20248282 -0.19717322 0.31748301
-0.16280912 -0.19722816 0.31748301
-0.13377891 -0.19740871 0.31748301
-0.11501598 -0.19497962 0.31748301
-0.15820944 -0.17289685 0.31748301
-0.045011163 -0.17604366 0.31748301
-0.021696173 -0.1796504 0.31748301
-0.19422226 -0.16691844 0.31748301
-0.043476179 -0.15375057 0.31748301
0.10243139 -0.15015668 0.31748301
0.16588008 -0.15424938 0.31748301
-0.24384516 -0.14172909 0.31748301
0.071256965 -0.14462525 0.31748301
0.21471463 -0.14630437 0.31748301
-0.19926386 -0.13416629 0.31748301
-0.077272385 -0.13327971 0.31748301
-0.0016043354 -0.13352281 0.31748301
0.14972094 -0.13511968 0.31748301
0.17520094 -0.13307694 0.31748301
-0.15789703 -0.12129717 0.31748301
-0.091051653 -0.12505297 0.31748301
-0.076685473 -0.12730995 0.31748301
0.015165314 -0.12757306 0.31748301
-0.17951922 -0.11661486 0.31748301
-0.11114429 -0.11351543 0.31748301
-0.055937164 -0.11774894 0.31748301
0.040001415 -0.11606905 0.31748301
0.10538027 -0.11696003 0.31748301
0.21353364 -0.11245443 0.31748301
0.23513937 -0.11464248 0.31748301
-0.24961129 -0.10527841 0.31748301
-0.055547424 -0.10431659 0.31748301
0.095637001 -0.10401145 0.31748301
0.0064385459 -0.099530697 0.31748301
0.13735542 -0.095233724 0.31748301
0.23001274 -0.093057178 0.31748301
-0.0026349947 -0.082755998 0.31748301
0.001064986 -0.088988259 0.31748301
0.12222157 -0.082255349 0.31748301
0.17687708 -0.086213559 0.31748301
-0.22744323 -0.078238741 0.31748301
-0.1853459 -0.072976261 0.31748301
-0.14310011 -0.07344798 0.31748301
0.23075387 -0.070211418 0.31748301
-0.15591079 -0.061248638 0.31748301
0.016867816 -0.068243764 0.31748301
0.18546323 -0.061160117 0.31748301
-0.13257968 -0.05275023 0.31748301
-0.099532709 -0.050522156 0.31748301
0.014621599 -0.051661476 0.31748301
0.025310203 -0.050507821 0.31748301
0.084707364 -0.054467551 0.31748301
0.1495561 -0.05030518 0.31748301
-0.16076452 -0.047382958 0.31748301
0.021816686 -0.046441019 0.31748301
0.068273075 -0.034796372 0.31748301
0.09646973 -0.032052226 0.31748301
0.22641823 -0.039457388 0.31748301
0.052771859 -0.020348154 0.31748301
0.19275224 -0.021617867 0.31748301
0.20282419 -0.020528678 0.31748301
-0.18225935 -0.011358872 0.31748301
-0.080382347 -0.010463491 0.31748301
0.041898929 -0.017633691 0.31748301
-0.082269892 -0.0024600811 0.31748301
0.002924569 -0.0048074499 0.31748301
-0.043147042 0.00080673397 0.31748301
-0.038361154 0.0011777729 0.31748301
0.043709852 0.0074708015 0.31748301
0.10094234 0.0019681826 0.31748301
0.22957444 0.00055768341 0.31748301
-0.24573892 0.01328738 0.31748301
-0.22848889 0.016325288 0.31748301
-0.11918196 0.012308881 0.31748301
-0.083967239 0.010948777 0.31748301
-0.018310554 0.01715789 0.31748301
0.071092658 0.014257818 0.31748301
0.14359885 0.019790312 0.31748301
0.21541205 0.013120906 0.31748301
-0.2181282 0.023219638 0.31748301
-0.18044767 0.026270688 0.31748301
0.04145404 0.025042772 0.31748301
0.12579045 0.021238258 0.31748301
0.17253786 0.020002358 0.31748301
-0.20858614 0.030342698 0.31748301
0.093521714 0.034237523 0.31748301
-0.16621503 0.045813344 0.31748301
-0.052800119 0.049991809 0.31748301
-0.025168855 0.044721462 0.31748301
-0.19957919 0.053486705 0.31748301
-0.026923575 0.054246686 0.31748301
0.0056153033 0.065718308 0.31748301
0.049112834 0.064315371 0.31748301
0.083212346 0.065587431 0.31748301
0.237169 0.066247061 0.31494755
-0.254206 0.070103779 0.31709266
-0.063296951 0.075295441 0.31748301
-0.058272257 0.072348043 0.31748301
0.092080817 0.075806275 0.31748301
0.13888787 0.074531481 0.31748301
-0.13662666 0.080526091 0.31748301
-0.22517559 0.10184973 0.31748301
0.068385974 0.1044709 0.31748301
0.17295365 0.10211749 0.31748301
-0.23846304 0.11319163 0.31748301
-0.13031708 0.11045147 0.31748301
-0.03776104 0.11469445 0.31748301
0.03091009 0.12956728 0.31748301
0.084728085 0.13215484 0.31748301
-0.254206 0.14818855 0.31573665
-0.015933543 0.1441609 0.31748301
-0.21542048 0.15928653 0.31748301
-0.01815227 0.15829954 0.31748301
0.14196458 0.1581559 0.31748301
-0.254206 0.16032235 0.31707597
-0.24215204 0.16244704 0.31748301
-0.01478646 0.16408394 0.31748301
0.023522593 0.17628497 0.31748301
0.091060773 0.1702826 0.31748301
-0.10208201 0.18056369 0.31748301
-0.086010583 0.19083962 0.31748301
-0.023362592 0.19942407 0.31748301
0.12175648 0.19574973 0.31748301
0.1476683 0.19456044 0.31748301
-0.18031649 0.20012766 0.31748301
-0.052213881 0.20126334 0.31748301
0.11044966 0.20507649 0.31748301
0.12436549 0.20988621 0.31748301
-0.21689366 0.2109172 0.31748301
0.046882525 0.2144773 0.31748301
-0.20072983 0.22511367 0.31748298
-0.092348285 0.22711653 0.31748301
0.024670519 0.22571953 0.31748301
0.068992533 0.2264214 0.31748301
0.1090524 0.22019595 0.31748301
0.21573912 0.22394171 0.31748301
-0.084419817 0.2361463 0.31748301
-0.13401765 0.24605778 0.31748301
-0.056636631 0.24096289 0.31748301
-0.036699872 0.24933308 0.31748301
-0.029135242 0.2427896 0.31748301
-0.10314564 0.25945383 0.31748301
0.048969142 0.25689918 0.31748301
0.050562963 0.25530005 0.31748301
0.16047665 0.25955895 0.31748301
0.18519075 0.26589644 0.31748301
-0.21797584 0.27936271 0.31748301
-0.078158505 0.28459349 0.31748301
-0.021480925 0.28191245 0.31748301
0.10448793 0.28878415 0.31748301
0.11773528 0.28417692 0.31748301
0.15719071 0.28645301 0.31748301
-0.07709457 0.290833 0.31649393
