# .PCD v0.7 - Point Cloud Data file format
VERSION 0.7
FIELDS x y z
SIZE 4 4 4
TYPE F F F
COUNT 1 1 1
WIDTH 954
HEIGHT 1
VIEWPOINT 0 0 0 1 0 0 0
POINTS 954
DATA ascii
-0.012133309 -0.44690299 -0.14505534
-0.0062481984 -0.44690299 -0.14534843
0.041377146 -0.44690299 -0.14623688
0.07650733 -0.44690302 -0.14854579
0.14225863 -0.44678035 -0.148968
-0.056574039 -0.43430656 -0.148968
0.074549481 -0.43685955 -0.148968
-0.090020448 -0.4283354 -0.148968
-0.048809174 -0.42695713 -0.148968
0.071311906 -0.42669496 -0.148968
-0.14724599 -0.41103527 -0.148968
0.020837627 -0.41978517 -0.148968
-0.13035408 -0.40587962 -0.148968
0.038166795 -0.40440875 -0.148968
0.086492263 -0.40454966 -0.14896798
0.10396184 -0.40588769 -0.148968
-0.1616928 -0.3985374 -0.148968
-0.1437946 -0.39725056 -0.148968
0.086792864 -0.39265627 -0.148968
-0.016071837 -0.38834429 -0.148968
-0.01362595 -0.37783378 -0.148968
-0.0063367039 -0.37128747 -0.148968
0.022835225 -0.37869048 -0.148968
0.081082508 -0.37531337 -0.148968
0.11370226 -0.37467188 -0.148968
0.0061643459 -0.36148113 -0.148968
0.04430439 -0.36121184 -0.148968
-0.048733667 -0.3592383 -0.148968
-0.014723189 -0.35656551 -0.148968
-0.0058837235 -0.35148138 -0.148968
0.062039562 -0.3508175 -0.148968
-0.14295854 -0.34466133 -0.148968
0.078105427 -0.34771925 -0.148968
-0.14258163 -0.33568913 -0.148968
-0.080434784 -0.3264358 -0.148968
0.026000537 -0.31622869 -0.148968
-0.14370224 -0.30674827 -0.148968
0.067435592 -0.30674458 -0.148968
0.16758899 -0.30036449 -0.14122777
-0.05602951 -0.29932821 -0.148968
-0.033850305 -0.29075944 -0.14896801
-0.0096540228 -0.28033528 -0.148968
0.13386102 -0.27313644 -0.148968
-0.10020252 -0.26762685 -0.148968
0.09072008 -0.26488838 -0.148968
-0.086885035 -0.25690424 -0.148968
-0.0046788161 -0.2442548 -0.148968
0.0086395554 -0.24003506 -0.148968
0.073985338 -0.24892421 -0.148968
-0.13601108 -0.23662578 -0.148968
0.0032020472 -0.23505129 -0.148968
-0.16758899 -0.22509444 -0.14093173
-0.13943829 -0.2213819 -0.148968
-0.094609365 -0.22657287 -0.148968
-0.047335181 -0.22268395 -0.148968
0.013655309 -0.22198379 -0.148968
0.071238101 -0.22153042 -0.148968
-0.16753218 -0.21454413 -0.148968
-0.13510813 -0.2143971 -0.148968
0.026884992 -0.21790354 -0.148968
-0.076072589 -0.20050578 -0.148968
0.06348785 -0.20270492 -0.148968
-0.13126813 -0.19134629 -0.148968
0.015532531 -0.19435573 -0.14896801
-0.13902891 -0.18112618 -0.148968
-0.068228766 -0.18284681 -0.148968
0.00096799433 -0.18405239 -0.148968
0.040394813 -0.18743582 -0.148968
-0.14086647 -0.17337292 -0.14896801
-0.14287782 -0.16445345 -0.148968
0.011996873 -0.16277531 -0.148968
-0.13830759 -0.14714777 -0.14896798
0.020418093 -0.14472312 -0.148968
0.044614457 -0.14521828 -0.148968
0.035684139 -0.13576581 -0.148968
-0.16758899 -0.12521265 -0.1449151
-0.15666418 -0.12122509 -0.148968
-0.14705698 -0.11043445 -0.148968
-0.10885463 -0.11669624 -0.148968
0.15125287 -0.11555268 -0.148968
-0.10863021 -0.10146406 -0.148968
0.12204513 -0.10228141 -0.148968
-0.13462639 -0.097946487 -0.148968
-0.054727368 -0.092736945 -0.148968
-0.036860727 -0.092840903 -0.148968
-0.0092757195 -0.099318765 -0.14896801
-0.13316269 -0.087393157 -0.148968
-0.048091333 -0.081580043 -0.148968
-0.023411088 -0.087287381 -0.14896801
0.0093559399 -0.080942839 -0.148968
-0.14764735 -0.075039491 -0.148968
-0.1369759 -0.071817733 -0.148968
-0.11916299 -0.076816648 -0.148968
-0.080980971 -0.079936549 -0.148968
0.035494681 -0.07277602 -0.148968
-0.14944577 -0.063758083 -0.148968
0.14526162 -0.064212687 -0.148968
-0.043850835 -0.052287549 -0.14896801
0.10950974 -0.057604514 -0.148968
0.14849505 -0.054850537 -0.148968
-0.16215302 -0.031601138 -0.148968
-0.11961416 -0.0051078633 -0.148968
-0.083184086 -0.0022959188 -0.14888589
-0.13759637 0.0085173771 -0.148968
-0.078129806 0.0075731166 -0.148968
-0.05342995 0.038255766 -0.1471727
-0.12547269 0.045170628 -0.14896801
-0.098132506 0.054911938 -0.148968
-0.10085462 0.072936572 -0.148968
-0.097596355 0.077961862 -0.148968
-0.041919515 0.070505783 -0.148968
-0.021347858 0.081980228 -0.14529207
-0.017567504 0.087132454 -0.14451225
-0.14724521 0.096621737 -0.148968
-0.10608415 0.097879753 -0.148968
-0.060462594 0.090497822 -0.148968
-0.040711373 0.11147431 -0.148968
-0.13606183 0.12887649 -0.148968
-0.030257545 0.12034032 -0.148968
-0.091541469 0.13102123 -0.148968
-0.031909771 0.13233742 -0.148968
-0.11573371 0.14526692 -0.148968
-0.038529664 0.14384359 -0.148968
-0.13804854 0.15024006 -0.148968
-0.013589952 0.16163048 -0.148968
-0.0045953486 0.16362876 -0.148968
-0.074347325 0.17558682 -0.148968
-0.039539549 0.17194232 -0.148968
-0.0092442669 0.17091082 -0.148968
-0.073792905 0.18079498 -0.148968
0.030921921 0.18138967 -0.148968
-0.11530355 0.19071236 -0.148968
-0.072228953 0.19667436 -0.148968
-0.021902597 0.19080728 -0.148968
-0.12013067 0.20628215 -0.148968
0.0014357343 0.20378244 -0.148968
0.0085550826 0.21990113 -0.148968
-0.1477876 0.22041576 -0.14896798
-0.033798777 0.22720978 -0.148968
0.036628075 0.23044324 -0.148968
-0.15403572 0.24473697 -0.148968
-0.05041565 0.24276677 -0.148968
0.018665686 0.2400876 -0.148968
0.056638703 0.24829692 -0.14738055
-0.11517881 0.25020859 -0.148968
-0.073544808 0.26302898 -0.148968
-0.045985378 0.26732925 -0.148968
0.00072130002 0.27778938 -0.148968
0.0076058307 0.29085428 -0.148968
0.028639222 0.2917906 -0.148968
0.05173016 0.29517934 -0.148968
-0.077907585 0.30131626 -0.148968
-0.067042753 0.31801549 -0.14896801
-0.16758901 0.32695195 -0.14573115
-0.071612909 0.32093245 -0.148968
0.056638695 0.32492363 -0.14025137
-0.058648627 0.33262724 -0.148968
0.056638695 0.33548194 -0.14692068
-0.088487357 0.34103787 -0.148968
0.030336745 0.34804377 -0.148968
0.013267707 0.35136113 -0.148968
-0.16328101 0.36141735 -0.148968
-0.15734136 0.36005977 -0.148968
-0.066206023 0.36562058 -0.148968
-0.030952165 0.36444017 -0.148968
-0.12946671 0.37492463 -0.14896798
-0.077381454 0.377478 -0.148968
-0.016950374 0.37549511 -0.148968
-0.10524184 0.3898181 -0.148968
-0.0086205257 0.38536152 -0.148968
0.0056908643 0.38865918 -0.148968
-0.11409574 0.40886292 -0.148968
-0.0049985368 0.40637547 -0.148968
-0.073740669 0.4108026 -0.148968
-0.040288344 0.42587373 -0.148968
-0.12860547 0.43513411 -0.148968
-0.11860172 0.43770581 -0.148968
-0.035664618 0.43847287 -0.148968
-0.094940208 0.44562358 -0.148968
-0.029414888 0.44690299 -0.14818023
-0.015808936 0.44690299 -0.14544664
0.02348244 0.44690299 -0.14370251
0.056638695 0.44519025 -0.14509958
-0.16758899 -0.44636104 -0.13529886
-0.05440747 -0.44690299 -0.13648652
0.069653034 -0.44690299 -0.13447709
-0.16758899 -0.40548372 -0.13221376
-0.16758899 -0.18350688 -0.13150474
0.16758899 -0.14663208 -0.13686347
-0.16758899 -0.089357883 -0.13574237
0.16758899 -0.061108518 -0.13287546
-0.16758899 -0.058036476 -0.13051854
-0.16758899 -0.041667975 -0.13960801
-0.10894367 -0.049656104 -0.1313839
-0.056172326 -0.049656101 -0.13583854
-0.16758899 -0.022835977 -0.13318533
-0.16758899 0.019713901 -0.13012908
-0.039794695 0.056839172 -0.13839179
-0.032345541 0.066991575 -0.13148315
-0.16758899 0.14815941 -0.13977142
-0.059470851 -0.44690299 -0.12304233
0.12572448 -0.44690299 -0.1252377
0.16655242 -0.44690299 -0.12303068
-0.16758898 -0.36449972 -0.12057476
0.16758899 -0.35178024 -0.12510192
0.16758899 -0.25134462 -0.12814149
-0.16758898 -0.22002301 -0.12521748
-0.16758899 -0.088286974 -0.12897401
-0.16758899 -0.070502736 -0.12865099
-0.16758899 -0.059384145 -0.12121437
0.092477426 -0.049656101 -0.12782477
-0.16758899 -0.03254782 -0.12103649
-0.16758898 0.0048519149 -0.12860446
-0.039623253 0.057072833 -0.12759022
0.057609033 0.18133955 -0.12158597
0.061391998 0.18015972 -0.12160723
-0.16758899 0.286396 -0.12402637
0.056638703 0.37696949 -0.12763767
0.056638695 0.39747077 -0.12218258
-0.12030973 0.44690299 -0.12623486
-0.07653486 0.44690299 -0.12391563
-0.14633214 -0.44690299 -0.11769629
-0.066998504 -0.44690299 -0.11123455
0.12071718 -0.44690299 -0.11904082
0.16758899 -0.40365615 -0.11674175
-0.16758899 -0.38589481 -0.11692978
-0.16758899 -0.36255094 -0.11593433
-0.16758899 -0.34563646 -0.11936219
-0.16758899 -0.33920613 -0.11838754
0.16758899 -0.33247212 -0.11677457
-0.16758898 -0.27250344 -0.11035421
0.16758901 -0.18712044 -0.11756272
0.16758899 -0.13013677 -0.11019557
-0.16758899 -0.11903976 -0.11877058
-0.16758899 -0.055478349 -0.11969744
-0.11524001 -0.045992047 -0.1103877
-0.011497668 0.095404685 -0.11508778
-0.16758899 0.1287057 -0.11660182
0.011550525 0.1268172 -0.11556396
0.026578341 0.14729868 -0.11815503
0.061603799 0.18123105 -0.11292084
0.056638695 0.19064707 -0.11914897
-0.16758899 0.23012465 -0.11749738
-0.16758899 0.25491932 -0.118018
0.056638699 0.26826793 -0.11215476
0.052074503 0.44690299 -0.11477406
-0.15804452 -0.44690299 -0.10500935
-0.14345887 -0.44690299 -0.10140511
-0.016215589 -0.44690299 -0.10424534
0.079722077 -0.44690299 -0.10420336
0.1201216 -0.44690299 -0.10612208
-0.16758899 -0.41354179 -0.10103733
0.16758901 -0.33235833 -0.10831969
-0.16758899 -0.32812604 -0.10414079
-0.16758899 -0.12938643 -0.10939887
-0.16758899 -0.098366402 -0.10960381
0.067028798 -0.049656101 -0.1016168
0.11644113 -0.049656101 -0.10437958
-0.16758899 -0.0015268028 -0.10105977
-0.16758899 0.0014321236 -0.10355796
-0.16758899 0.034882285 -0.10678267
-0.017973948 0.086578198 -0.10196903
-0.16758899 0.095301941 -0.10699547
0.056638703 0.23189154 -0.10977674
0.056638699 0.30047673 -0.10060103
0.056638699 0.43882126 -0.10893404
-0.14604878 0.44690299 -0.10706545
-0.029387698 0.44690299 -0.10913481
-0.013632262 0.44690299 -0.1081208
0.013084818 -0.44690299 -0.097480282
0.16758899 -0.36633459 -0.098698527
-0.16758899 -0.35677969 -0.092247508
0.16758899 -0.29778272 -0.098155946
-0.16758898 -0.15362079 -0.099414878
0.16758899 -0.084646657 -0.09495157
-0.11524001 -0.047020663 -0.093284704
-0.090994641 -0.049656101 -0.094538309
0.10025846 -0.049656101 -0.096513338
-0.16758901 -0.0057256082 -0.099000417
-0.16758899 0.016538985 -0.098724186
-0.065055937 0.022409897 -0.09018252
-0.04911175 0.044140317 -0.095742196
-0.039189905 0.05766286 -0.094445817
-0.028892478 0.071697295 -0.093373366
-0.0085943947 0.099361666 -0.098765217
-0.16758899 0.23904106 -0.09172105
-0.16758899 0.2494607 -0.094148874
-0.16758899 0.26717338 -0.094211973
-0.16758898 0.41565412 -0.09894982
-0.16758898 0.42784327 -0.090182722
-0.16758899 0.43678895 -0.096433125
-0.13225344 0.44690299 -0.09831135
0.0085853152 -0.44690299 -0.087540925
0.052490961 -0.44690299 -0.088694945
0.16758899 -0.18813325 -0.085579731
-0.16758899 -0.12350529 -0.085824206
0.16758899 -0.12385017 -0.080730826
-0.16758899 -0.064333193 -0.082122564
-0.089900881 -0.049656101 -0.084869392
-0.075604953 -0.049656101 -0.085885093
-0.070096925 0.015539503 -0.080836207
-0.028766563 0.071868896 -0.088186182
-0.16758899 0.17641826 -0.081887469
0.054870926 0.27588585 -0.083332904
-0.16758901 0.28435051 -0.08748626
-0.16758899 0.32651794 -0.084719285
-0.16758899 0.35540521 -0.084828153
0.056638699 0.37974107 -0.083958402
-0.0070258314 0.44690299 -0.085446522
0.088126451 -0.44690299 -0.074399725
-0.16758899 -0.42955253 -0.077208839
0.16758899 -0.32303596 -0.073674105
-0.16758899 -0.27934942 -0.078868359
0.022213951 -0.049656101 -0.071379431
0.083975568 -0.049656101 -0.073372573
0.097009271 -0.049656101 -0.077645168
0.14963105 -0.049656101 -0.071464807
-0.096707322 -0.020727975 -0.071482278
-0.090410285 -0.012145698 -0.075648934
-0.066926531 0.01986045 -0.071090601
0.023087474 0.14254105 -0.078419797
0.04528065 0.148968 -0.079606026
0.056638699 0.22727862 -0.072531052
0.056638695 0.29483971 -0.078103118
0.056638703 0.33948603 -0.076544002
-0.16758899 0.3546364 -0.072143361
-0.16758899 0.38872948 -0.075030066
-0.10325734 0.44690299 -0.070551574
0.01585575 -0.44690299 -0.069475606
-0.16758899 -0.42243636 -0.069625802
-0.16758901 -0.37030914 -0.064364389
-0.16758899 -0.35121381 -0.060133349
-0.16758899 -0.33063039 -0.067850187
-0.16758899 -0.24081051 -0.060328327
-0.16758899 -0.16709106 -0.06433104
-0.0071819797 -0.049656101 -0.067949846
-0.16758899 -0.019920524 -0.063953906
-0.077207647 0.0058482587 -0.066145867
0.0087916208 0.12305716 -0.069114536
-0.16758899 0.15396753 -0.067653619
0.056638703 0.18965811 -0.068187974
0.056638699 0.25038591 -0.069089673
0.056638699 0.28604645 -0.068144515
-0.16758899 0.33211169 -0.063191764
-0.16758899 0.357806 -0.066396154
-0.11563352 0.44690299 -0.069325566
-0.017530117 -0.44690299 -0.051768575
-0.0066345893 -0.44690299 -0.053555444
0.16758898 -0.4246192 -0.058435135
0.16758899 -0.36261603 -0.058759496
0.16758899 -0.34538257 -0.056387544
0.16758899 -0.33670151 -0.057981234
-0.16758899 -0.30463505 -0.05720932
0.16758899 -0.1850283 -0.059606556
0.16758899 -0.13891253 -0.052576222
-0.16758899 -0.074641719 -0.059679989
0.045587391 -0.049656101 -0.05676752
0.051384937 -0.049656101 -0.055963621
-0.16758899 0.019971684 -0.051537178
0.0062173661 0.11954869 -0.055396959
0.056638699 0.15894489 -0.057783205
0.056638699 0.19719347 -0.059267782
0.056638699 0.27285087 -0.055368487
-0.16758899 0.34656197 -0.051720403
0.056638699 0.37909257 -0.054294266
-0.16758898 0.41743699 -0.051221333
-0.12652177 0.44690299 -0.051230989
-0.059384122 0.44690299 -0.051099461
-0.096927777 -0.44690299 -0.047943484
0.16758899 -0.41730469 -0.041967787
-0.16758899 -0.3204653 -0.048565641
-0.16758899 -0.31140673 -0.041377597
0.16758899 -0.30659026 -0.04486692
0.16758901 -0.28519148 -0.049090192
-0.16758899 -0.23641673 -0.045827858
-0.16758901 -0.081599645 -0.046636563
0.16758899 -0.050687268 -0.046975475
0.056898631 -0.049656101 -0.040361665
-0.16758898 0.033082925 -0.047663998
-0.16758899 0.047455482 -0.040464353
-0.018626206 0.085689254 -0.048438296
0.033249367 0.148968 -0.040661879
0.056638699 0.37491143 -0.047959454
-0.16758899 0.44366676 -0.045119792
-0.011581007 -0.44690299 -0.038957987
-0.16758899 -0.43381673 -0.034571175
0.16758899 -0.41267446 -0.036089405
-0.16758899 -0.32768226 -0.033176016
-0.16758899 -0.31574985 -0.036929764
0.16758899 -0.31492171 -0.035285067
0.16758899 -0.21942356 -0.039227124
-0.054081149 -0.049656101 -0.037234887
-0.0032909121 -0.049656101 -0.030821081
0.14230941 -0.049656101 -0.033533603
-0.16758899 0.095703244 -0.037037153
0.056638695 0.16442455 -0.030673649
0.056638695 0.23302348 -0.032225978
0.056638699 0.29408577 -0.035689436
0.056638703 0.32085609 -0.032062463
-0.16758899 0.34196711 -0.039984215
-0.16758899 0.36192271 -0.033638798
0.056638699 0.38156861 -0.038148362
-0.16758899 0.4379724 -0.0338086
-0.15415457 0.44690299 -0.037295096
0.13961795 -0.44690299 -0.02661733
0.15106516 -0.44690299 -0.022762433
-0.16758899 -0.3964223 -0.027203612
-0.16758899 -0.35900202 -0.025928315
0.16758901 -0.25753498 -0.026293214
0.16758899 -0.13380398 -0.021659728
0.031147074 -0.049656101 -0.028532911
-0.088588774 -0.0096631497 -0.027181413
-0.06085626 0.028133655 -0.028712718
-0.16758899 0.035528556 -0.020010427
-0.02315582 0.079515792 -0.021343607
-0.017164558 0.087681316 -0.020775266
0.058097031 0.18283744 -0.0288407
-0.16758899 0.25278169 -0.022064403
0.056638695 0.31673837 -0.024505638
-0.037502527 0.44690299 -0.025665939
-0.023227595 0.44690299 -0.029865146
0.075877182 -0.44690299 -0.018464828
0.16758899 -0.4354313 -0.018351223
-0.16758899 -0.34103498 -0.014682636
-0.16758899 -0.30932662 -0.018963989
-0.16758899 -0.29764387 -0.015063012
-0.16758899 -0.25934717 -0.017089292
-0.16758899 -0.23148337 -0.011476347
-0.16758899 -0.21347225 -0.016921859
0.16758898 -0.12772775 -0.01980505
-0.11276568 -0.042614002 -0.015260721
-0.089708537 -0.049656101 -0.016259614
0.082507826 -0.049656101 -0.015694411
-0.079716578 0.0024288148 -0.019977301
-0.048856243 0.044488549 -0.011965528
-0.16758899 0.10790583 -0.014835101
0.0042858319 0.11691612 -0.012214346
0.0252221 0.14545023 -0.013026789
0.060011394 0.18383747 -0.012547301
-0.16758899 0.25295547 -0.010694534
0.056638699 0.26625168 -0.011058932
-0.16758899 0.32893699 -0.016430678
0.056638695 0.38260031 -0.0182238
0.056638703 0.42784303 -0.018981472
-0.067719042 0.44690299 -0.011384919
0.056100301 0.44690299 -0.014035888
-0.10715343 -0.44690299 -0.0083915032
0.044870805 -0.44690299 -0.005095467
0.097964607 -0.44690299 -9.3791634e-05
0.12972048 -0.44690299 -0.0098742992
-0.16758899 -0.42863116 -0.0090599153
-0.16758899 -0.31680053 -0.0068657734
-0.16758899 -0.20103842 -0.0002170112
0.16758899 -0.20023295 -0.004052069
-0.16758899 -0.18716498 -0.0073530506
0.16758899 -0.11822776 -0.0077696331
-0.16758901 -0.073875792 -0.006572092
-0.16758899 -0.0023547933 -0.0067255497
-0.061997905 0.026577707 -0.0084532946
-0.16758898 0.3197031 -0.0067282058
0.056638699 0.42871696 -0.0031277314
0.056638699 0.43565628 -0.008205479
-0.10765671 0.44690299 -0.0050075203
0.034177992 0.44690299 -0.0092667714
-0.12483092 -0.44690299 0.005016312
-0.11341223 -0.44690299 0.00038286299
-0.093134418 -0.44690299 0.0086244196
-0.025862809 -0.44690299 0.00042122463
0.0076766536 -0.44690299 0.0016275996
0.019481882 -0.44690299 0.00078399479
0.16758899 -0.42404065 0.0048505599
-0.16758899 -0.24496594 0.0048653707
0.16758899 -0.2306526 0.0062311608
-0.16758899 -0.20510715 0.0081609525
0.16758899 -0.13504659 0.0083195074
0.0057740333 -0.049656101 0.0036578998
0.028218258 -0.049656101 0.0082150903
0.16064042 -0.049656101 0.0058287494
-0.0051208017 0.10409576 0.0032761097
-0.16758898 0.25511101 0.0023023598
0.056638695 0.36523518 0.0033447435
0.056638699 0.3797726 0.0015759282
-0.13876607 0.44690299 0.0069969669
-0.11550322 -0.44690299 0.015449233
0.16758899 -0.42259967 0.012124579
0.16758899 -0.37687224 0.0143431
0.16758899 -0.35263139 0.015366353
-0.16758899 -0.33400869 0.01559539
-0.16758899 -0.31079817 0.013660587
-0.16758899 -0.24826029 0.010416567
0.16758899 -0.12242044 0.013278551
0.16758899 -0.082396731 0.013495836
-0.11524 -0.049200706 0.01377153
-0.028530994 -0.049656101 0.017785085
-0.097659312 -0.022025447 0.015138802
-0.16758899 0.037172578 0.017061993
-0.043980986 0.051133044 0.016227208
-0.013550905 0.092606321 0.014999736
-0.16758899 0.30407187 0.011685237
0.056638699 0.34471107 0.019910481
0.056638695 0.36784545 0.017131373
0.056638695 0.4369522 0.017795749
-0.048068456 0.44690299 0.015962854
-0.022679118 0.44690299 0.012993623
-0.13808058 -0.44690299 0.026556514
-0.056455322 -0.44690299 0.020491319
0.16680366 -0.44652376 0.024050482
0.040689208 -0.049656101 0.022781555
0.088189386 -0.049656101 0.020572601
-0.072325259 0.012502491 0.021895699
-0.16758899 0.058909208 0.022053048
-0.041746259 0.054178756 0.025414925
-0.025187705 0.076746471 0.020830855
-0.16758899 0.14873207 0.02907959
0.038955558 0.148968 0.025314905
0.056638699 0.18297997 0.021781599
-0.16758899 0.22847873 0.024297506
-0.16758899 0.2551595 0.025838651
-0.16758899 0.2662763 0.029576927
0.056638699 0.33217153 0.024189293
0.056638699 0.39183211 0.022455718
-0.16758899 0.44129986 0.024905194
-0.13970861 0.44690296 0.029112257
-0.066600725 0.44690299 0.029618686
-0.055830635 0.44690299 0.027648687
-0.028489914 0.44690299 0.021973509
-0.014804717 -0.44690299 0.032490566
0.008292608 -0.44690299 0.039921314
0.16758899 -0.44408321 0.034049116
0.16758899 -0.40764111 0.035766803
0.16758899 -0.39025348 0.036271498
0.16758899 -0.35758966 0.0359907
0.16758899 -0.21560974 0.038202774
0.16758901 -0.19992355 0.035761349
-0.16758901 -0.14450492 0.038181096
0.16758901 -0.14979205 0.031773034
-0.16758899 -0.067193046 0.038221389
-0.16758899 -0.057894293 0.038341641
-0.065685093 -0.049656101 0.031193385
-0.10447213 -0.03131067 0.035770491
0.0040752171 0.116629 0.035745732
0.056638703 0.26532733 0.036906175
0.056638699 0.29288864 0.035482343
0.056638695 0.31843945 0.038139306
-0.07115221 0.44690299 0.032817382
-0.031464517 0.44690299 0.033854291
0.011273047 0.44690299 0.035109565
-0.02012158 -0.44690299 0.040796544
0.073494218 -0.44690299 0.048404109
0.15103462 -0.44690299 0.042025581
0.16072574 -0.44690299 0.047882345
0.16758899 -0.24027051 0.043101184
0.16758899 -0.21027839 0.04390765
0.16758899 -0.13008319 0.047820251
-0.063435674 -0.049656101 0.040132176
-0.053896055 -0.049656101 0.043339774
0.052961133 -0.049656101 0.042571597
-0.092874944 -0.01550479 0.047459044
-0.016236082 0.08894664 0.043935608
0.056638703 0.24967144 0.048236318
-0.16758901 0.3098698 0.04183099
-0.076797232 -0.44690299 0.055433299
0.16758899 -0.28743562 0.057779588
0.16758899 -0.06460508 0.05223915
-0.11462328 -0.049656101 0.056552801
-0.16758899 0.038296293 0.059773371
-0.16758898 0.082441494 0.058694974
-0.010939904 0.0961648 0.052984584
-0.16758899 0.17302674 0.054269791
0.056638699 0.2041409 0.053933688
0.056638699 0.21388452 0.051902656
0.056638699 0.24884412 0.055481516
-0.16758899 0.30555892 0.055960458
-0.16758899 0.321511 0.052152805
-0.096675038 0.44690299 0.057023104
-0.027895663 -0.44690299 0.061594233
0.16758899 -0.43198973 0.06382677
0.16758901 -0.40554854 0.066212825
0.16758899 -0.26169565 0.061113901
0.16758899 -0.22078216 0.064519599
-0.16758899 -0.18948533 0.068695322
0.16758899 -0.18513678 0.066305377
-0.16758899 -0.12332581 0.069250122
0.16758899 -0.11839906 0.066849738
0.0035643913 -0.049656101 0.061701942
0.080268085 -0.049656101 0.061135691
0.10437777 -0.049656101 0.068422869
-0.16758899 -0.021560051 0.068200782
-0.097239055 -0.021452662 0.064487413
-0.095804676 -0.019497748 0.067529775
-0.088290766 -0.009256999 0.068851002
-0.077453218 0.0055135302 0.066819303
-0.16758899 0.083172768 0.065710455
0.027362384 0.14836712 0.061639111
0.056638699 0.2818726 0.067842133
0.056638699 0.3244178 0.061841268
-0.16758899 0.34780824 0.068897799
0.056638699 0.36993957 0.064616211
0.056638699 0.38253596 0.069904372
0.056638695 0.43396154 0.065166935
-0.055331655 0.44690299 0.065137796
-0.15691577 -0.44690299 0.078987166
0.12931547 -0.44690299 0.079439834
-0.16758901 -0.40072429 0.07016547
-0.16758899 -0.38253886 0.076551147
0.16758899 -0.35829568 0.070319936
-0.16758899 -0.26547995 0.073432863
-0.16758898 -0.16166443 0.071988061
0.16758899 -0.16932979 0.075561225
-0.018292431 -0.049656101 0.075566523
0.014633866 -0.049656101 0.075612217
0.048342738 -0.049656101 0.071624741
0.074806415 -0.049656101 0.072592065
-0.16758899 0.012525602 0.076210931
-0.050709631 0.041962467 0.07221958
-0.16758899 0.10543943 0.070476338
0.054697584 0.148968 0.07160756
-0.16758899 0.31444335 0.074172206
0.056638703 0.31050938 0.071343802
-0.16758899 0.39963302 0.076476753
-0.16758899 0.4467279 0.071521424
-0.076606691 0.44690299 0.071422175
-0.062832862 0.44690299 0.076987848
0.029397344 0.44690296 0.073088571
-0.10592523 -0.44690299 0.080707811
0.022041112 -0.44690299 0.081180543
0.048416562 -0.44690299 0.087737106
0.11934236 -0.44690296 0.083380163
-0.16758899 -0.35116845 0.082808211
0.16758899 -0.35792768 0.089538805
-0.16758898 -0.14368084 0.084676318
0.065844864 -0.049656101 0.085336499
0.07099022 -0.049656101 0.084825166
0.10959087 -0.049656101 0.080360025
-0.087344997 -0.0079680253 0.085525565
-0.16758899 0.009207014 0.08291766
-0.057620768 0.032543235 0.082073361
-0.16758899 0.1094078 0.081392527
0.056638695 0.21410532 0.088931032
0.056638695 0.29391515 0.086109065
0.056638695 0.36754525 0.080449611
-0.0058972463 0.44690299 0.089837298
0.053467102 -0.44690299 0.096041977
-0.16758899 -0.35780698 0.093623959
0.16758901 -0.32101673 0.090196095
-0.16758899 -0.29121161 0.091514736
0.16758899 -0.18653648 0.098388329
0.16758901 -0.16269983 0.096120641
-0.16758899 -0.15624055 0.093174569
-0.16758899 -0.12725475 0.090035863
0.16758899 -0.078330345 0.091635481
-0.16758898 -0.051050093 0.092258669
-0.16758899 -0.044339906 0.09501107
0.063716471 -0.049656101 0.095222861
0.12731302 -0.049656101 0.090793736
0.13825786 -0.049656101 0.090740129
-0.16758901 -0.016584124 0.092785865
-0.16758901 0.12157521 0.098621756
-0.16758899 0.16441618 0.09205319
0.056638699 0.21687312 0.09204369
-0.16758899 0.27883035 0.094808906
0.056638699 0.35071853 0.091207355
-0.16758899 0.383672 0.092271008
0.056638699 0.42233142 0.097868755
-0.14176914 0.44690299 0.090782084
-0.019349573 0.44690299 0.099816106
0.0039686132 0.44690302 0.095751613
-0.069488615 -0.44690299 0.10481252
-0.0055054501 -0.44690299 0.10430478
-0.16758899 -0.42209971 0.10763934
-0.16758899 -0.38482982 0.10602476
0.16758899 -0.3822194 0.10987847
0.16758898 -0.34369907 0.10464117
-0.16758899 -0.2376447 0.10708719
0.16758899 -0.20758368 0.10121166
0.16758899 -0.1706368 0.10211594
-0.16758899 -0.15475264 0.10223816
0.16758898 -0.15580407 0.10009443
-0.16758899 -0.12518725 0.10585675
0.16758899 -0.077436902 0.10262428
-0.16758899 -0.057289451 0.10414449
-0.033513024 0.065399744 0.10326169
-0.014916396 0.090745158 0.10035974
-0.16758899 0.2356533 0.10258291
0.056638699 0.2375018 0.10032436
-0.16758898 0.30623648 0.10039766
0.056638703 0.31169456 0.10266094
-0.13116489 0.44690302 0.1023355
-0.074170977 0.44690299 0.1099592
-0.059042953 -0.44690299 0.11797945
-0.038445987 -0.44690299 0.11249948
-0.023581689 -0.44690299 0.11329554
0.032014705 -0.44690299 0.11265851
-0.16758899 -0.31086361 0.11291594
-0.16758899 -0.26633814 0.11545195
0.16758899 -0.2380302 0.11331151
0.16758899 -0.083264165 0.11514187
-0.10283342 -0.049656101 0.11337896
0.027474005 -0.049656101 0.11372761
0.07930959 -0.049656101 0.11288005
0.10838196 -0.049656101 0.11034365
-0.16758901 -0.019350657 0.11913358
-0.082243323 -0.0010147588 0.11683366
-0.16758899 0.026546758 0.1196759
-0.16758898 0.10239945 0.1185469
0.056638699 0.42030567 0.11931276
0.056638699 0.43601939 0.11760634
0.041450359 0.44690299 0.11200123
-0.043542422 -0.44690299 0.12122771
3.1792559e-05 -0.44690299 0.12747605
0.059093002 -0.44690299 0.12209289
-0.16758899 -0.43750891 0.12613875
-0.16758901 -0.38236663 0.12641837
0.16758899 -0.28074795 0.124716
0.16758899 -0.25938505 0.12113255
0.16758899 -0.24775156 0.1202151
-0.16758899 -0.20054007 0.12067619
-0.16758899 -0.098113 0.12465446
-0.019938089 -0.049656101 0.12153482
0.020366158 -0.049656101 0.12312891
-0.16758899 -0.023014024 0.12795573
-0.07611157 0.0073424866 0.12726983
-0.055697169 0.035165057 0.12462715
0.056638695 0.1545161 0.12988956
-0.16758901 0.18645146 0.12181292
0.056638695 0.20324926 0.12611781
0.056638699 0.21880077 0.12936877
-0.16758899 0.28156435 0.12351303
-0.16758899 0.31767219 0.12379648
-0.16758899 0.32793292 0.12871288
-0.16758898 0.34471291 0.12796731
-0.034392759 0.44690299 0.12074403
0.051628649 0.44690299 0.12696891
-0.0043554232 -0.44690299 0.1399934
0.10796417 -0.44690299 0.13859968
-0.16758899 -0.40377253 0.13180692
-0.16758899 -0.35634744 0.13841066
0.16758899 -0.35437298 0.13740034
-0.16758901 -0.21335456 0.13328418
0.16758899 -0.05359026 0.13405144
-0.10052545 -0.049656101 0.13032341
0.078567907 -0.049656101 0.13806185
0.1070438 -0.049656101 0.13786826
0.16350697 -0.049656101 0.13536167
-0.16758899 -0.032493979 0.13941535
-0.16758899 0.071398504 0.13588803
-0.16758899 0.094987735 0.13543595
-0.01076861 0.09639819 0.13397568
-0.16758899 0.15007477 0.13751805
0.056638703 0.39618152 0.13844089
0.056638699 0.43481466 0.13265078
-0.12983887 0.44690299 0.13351357
0.0084976871 0.44690299 0.1342572
-0.085807092 -0.44690299 0.1424828
-0.028801896 -0.44690299 0.14454865
0.076326475 -0.44587252 0.148968
-0.057495173 -0.43711388 0.148968
0.026884709 -0.43117112 0.148968
0.081608661 -0.43386868 0.148968
0.064349905 -0.42977032 0.148968
0.095928147 -0.41674945 0.148968
-0.14440872 -0.40197238 0.148968
0.034818228 -0.40423277 0.148968
0.1607987 -0.40165991 0.148968
-0.15064678 -0.39743477 0.148968
-0.056359813 -0.38946027 0.148968
-0.0401305 -0.38135767 0.148968
-0.0049468055 -0.38702047 0.148968
0.10136205 -0.38421139 0.148968
0.11140081 -0.38137713 0.148968
0.16157319 -0.38813734 0.148968
0.026159162 -0.37311077 0.148968
0.035889283 -0.37862507 0.148968
0.08515282 -0.36491808 0.14896801
-0.085068852 -0.35245171 0.148968
-0.062745854 -0.35850525 0.148968
-0.038147144 -0.35624105 0.148968
0.16662104 -0.35998601 0.148968
-0.013509797 -0.34149852 0.148968
0.059112433 -0.34502536 0.148968
-0.021421023 -0.33539903 0.148968
0.040519513 -0.33756721 0.148968
-0.11070098 -0.32078278 0.148968
0.10200391 -0.32168993 0.148968
-0.16758898 -0.31347182 0.14319596
-0.15147269 -0.31296512 0.148968
-0.07789842 -0.31406489 0.148968
-0.053175334 -0.31587124 0.148968
0.083107032 -0.31069496 0.148968
0.16622145 -0.31922629 0.148968
-0.010847749 -0.30006242 0.148968
0.10481867 -0.30802616 0.148968
-0.065381601 -0.29741794 0.148968
0.0071464591 -0.29393917 0.148968
0.12027304 -0.29701051 0.148968
0.11733392 -0.28951001 0.148968
-0.1377399 -0.27975282 0.148968
-0.03096696 -0.27141726 0.148968
0.0052087773 -0.27099356 0.148968
0.03875627 -0.27716893 0.148968
-0.1393168 -0.26029471 0.148968
0.010495841 -0.26011616 0.148968
0.040395167 -0.26949158 0.14896801
0.093223959 -0.26316226 0.148968
0.11793658 -0.26038748 0.148968
0.0021654367 -0.2561608 0.148968
0.089101702 -0.25083932 0.148968
0.10786046 -0.25356165 0.148968
-0.14414102 -0.24375696 0.148968
-0.10956234 -0.2473276 0.148968
-0.072489753 -0.24290466 0.148968
0.16758899 -0.24101433 0.14071836
-0.11460713 -0.23754734 0.148968
-0.056052037 -0.23839168 0.148968
0.019930314 -0.2214082 0.148968
-0.1079722 -0.21764731 0.148968
-0.033932559 -0.21534516 0.148968
-0.068687961 -0.20518212 0.148968
0.076809399 -0.20193501 0.148968
0.11251019 -0.20891815 0.148968
-0.15229014 -0.19563943 0.148968
-0.13800727 -0.19644815 0.148968
-0.095020145 -0.19031733 0.148968
0.088862687 -0.19096868 0.148968
0.12622184 -0.19291097 0.148968
0.098945662 -0.17335005 0.148968
0.11307684 -0.17406404 0.148968
0.12524055 -0.17054766 0.148968
-0.10598902 -0.16768578 0.148968
-0.077717155 -0.16485581 0.148968
0.15574677 -0.16051899 0.148968
-0.10849275 -0.15066057 0.148968
0.0325922 -0.14826827 0.148968
0.073538363 -0.14479458 0.148968
0.128418 -0.14643696 0.148968
0.16758899 -0.14660624 0.14036752
-0.14410219 -0.13361141 0.148968
-0.065063193 -0.13598514 0.148968
-0.0059543476 -0.13785249 0.148968
0.060519837 -0.13945898 0.148968
0.10425501 -0.13833487 0.148968
-0.15897381 -0.12858844 0.148968
0.15152615 -0.11732425 0.14896801
-0.049893275 -0.10509167 0.148968
0.015865952 -0.1056783 0.148968
0.088208482 -0.10775209 0.148968
0.16238734 -0.10508069 0.148968
-0.093263865 -0.089652143 0.148968
-0.022002868 -0.08289586 0.148968
0.026638823 -0.081851274 0.148968
0.030250406 -0.080009744 0.148968
-0.054623395 -0.078212142 0.148968
-0.032614909 -0.075664908 0.148968
0.018548876 -0.071922109 0.148968
0.027378626 -0.073265724 0.148968
0.058215741 -0.077621281 0.148968
0.10218585 -0.07294631 0.148968
0.16758899 -0.075676329 0.14415342
0.027164515 -0.063179784 0.148968
0.15393718 -0.061371606 0.148968
-0.086692914 -0.054552119 0.148968
0.0064395107 -0.051368643 0.148968
0.11102577 -0.05651056 0.148968
0.13394585 -0.055861183 0.148968
-0.095565595 -0.049656101 0.14638016
-0.023631062 -0.049656101 0.14097661
0.081310973 -0.049656101 0.14694087
-0.16711262 -0.03533309 0.14605035
-0.14767702 -0.018222928 0.148968
-0.11953527 -0.010965127 0.14896801
-0.087213039 -0.0070454301 0.14647606
-0.13977858 0.02904051 0.148968
-0.069169827 0.02910587 0.148968
-0.095699489 0.03345621 0.148968
-0.14526868 0.041539975 0.148968
-0.14121908 0.057714324 0.148968
-0.11578999 0.05926108 0.148968
-0.040576115 0.055774093 0.14615908
-0.15497431 0.060704455 0.148968
-0.096899197 0.063946366 0.148968
-0.14909124 0.07899078 0.148968
-0.10346649 0.073095337 0.148968
-0.14531633 0.081574872 0.148968
-0.1265813 0.089280538 0.148968
-0.036984809 0.087746382 0.14896801
-0.12858468 0.097326465 0.148968
-0.057212908 0.091067001 0.148968
-0.15688378 0.10974691 0.148968
-0.076531284 0.11740345 0.148968
0.0029902717 0.11515025 0.14089753
-0.12216768 0.12324578 0.148968
-0.048468556 0.12554294 0.148968
0.0068845521 0.12045785 0.1448926
-0.11828987 0.13744341 0.148968
-0.094480969 0.13749158 0.148968
-0.013930988 0.13233599 0.14896801
0.0039628446 0.14970449 0.148968
0.034496661 0.148968 0.14436556
0.048270818 0.148968 0.14890036
-0.16082878 0.15827285 0.148968
-0.15793318 0.1597956 0.148968
-0.067401543 0.1565119 0.148968
-0.05747088 0.16800678 0.14896798
-0.019345611 0.1622 0.14896801
-0.13895966 0.17540643 0.14896798
-0.095966429 0.18891591 0.148968
-0.084402286 0.18218948 0.148968
-0.038446218 0.18211405 0.148968
-0.029313182 0.18798746 0.148968
-0.11641053 0.19573542 0.148968
-0.08577504 0.19847955 0.148968
-0.015722096 0.19638422 0.148968
-0.12357464 0.20732148 0.148968
-0.076011896 0.20274065 0.148968
-0.0652842 0.20045128 0.148968
0.027982619 0.20996162 0.148968
-0.16746373 0.21581684 0.148968
0.00076283142 0.21586351 0.14896798
-0.076915197 0.23182192 0.148968
0.044189721 0.23410517 0.148968
-0.11952591 0.24217837 0.148968
-0.053019334 0.24444579 0.148968
-0.0049036574 0.24653254 0.148968
0.027307697 0.24633662 0.148968
0.05131799 0.2484082 0.148968
-0.15823883 0.25749123 0.148968
-0.13075244 0.2524153 0.148968
0.056638699 0.25285354 0.1488234
-0.16758899 0.27632606 0.14028095
-0.14649571 0.27142945 0.148968
0.046914067 0.27696198 0.148968
-0.11221533 0.29756775 0.148968
-0.075472564 0.29443613 0.148968
-0.027462238 0.30794975 0.148968
-0.16758899 0.31909552 0.14816225
0.0027956106 0.31689835 0.148968
0.027920868 0.31019151 0.148968
-0.054932497 0.32939726 0.148968
-0.042397194 0.33761489 0.148968
0.011043364 0.33997852 0.148968
-0.0029742774 0.34179917 0.148968
-0.025924047 0.35978973 0.148968
-0.16758898 0.37488875 0.14023413
-0.10146306 0.39573455 0.148968
-0.097606763 0.39560807 0.14896801
-0.0051114876 0.39801604 0.148968
-0.16758899 0.40901211 0.14612223
-0.13524184 0.40361929 0.148968
-0.095269181 0.40269327 0.148968
-0.0089472178 0.40164217 0.148968
0.034688432 0.40399989 0.148968
0.00062221661 0.41979268 0.148968
0.045427933 0.43326518 0.14896801
-0.11440264 0.44690299 0.145312
