# .PCD v0.7 - Point Cloud Data file format
VERSION 0.7
FIELDS x y z
SIZE 4 4 4
TYPE F F F
COUNT 1 1 1
WIDTH 972
HEIGHT 1
VIEWPOINT 0 0 0 1 0 0 0
POINTS 972
DATA ascii
-0.21658634 -0.34370285 -0.24387601
-0.07960847 -0.3321043 -0.24387598
-0.175429 -0.32076922 -0.24387601
-0.10085019 -0.3217029 -0.243876
0.1012448 -0.32100609 -0.243876
0.1195604 -0.32652414 -0.243876
0.25112817 -0.31817994 -0.24178651
-0.098318309 -0.30782366 -0.24387601
0.099949725 -0.30732849 -0.243876
0.15638843 -0.30569053 -0.243876
0.2489042 -0.30341333 -0.24337667
0.1170824 -0.29319325 -0.243876
0.22245537 -0.28910232 -0.243876
0.097612903 -0.27265492 -0.243876
0.21280421 -0.27775544 -0.243876
0.23635346 -0.2769033 -0.243876
-0.26272693 -0.26801908 -0.243876
-0.075950183 -0.26187801 -0.24387601
-0.064550005 -0.26775956 -0.243876
-0.035142593 -0.26284182 -0.24387601
-0.018753417 -0.26547903 -0.243876
0.013881154 -0.26524138 -0.24387598
0.23758921 -0.26764813 -0.243876
0.17753857 -0.2555688 -0.243876
0.23669387 -0.25415346 -0.243876
-0.26625174 -0.24825904 -0.243876
-0.11920416 -0.2483598 -0.243876
-0.049319364 -0.24299774 -0.243876
0.19620924 -0.24878737 -0.243876
-0.098341621 -0.2349039 -0.24387601
0.12209496 -0.23451316 -0.243876
0.15265217 -0.23312955 -0.243876
-0.11456958 -0.22366159 -0.24387598
-0.057602804 -0.22764619 -0.243876
0.21510325 -0.2257396 -0.243876
-0.14472401 -0.21081646 -0.24387598
-0.10903908 -0.21505509 -0.24387601
-0.047965169 -0.21445832 -0.24387598
0.026145458 -0.21713544 -0.24387601
0.044038475 -0.2102953 -0.24387601
0.098212436 -0.21807514 -0.24387601
0.14092521 -0.21609324 -0.243876
0.18131694 -0.21844047 -0.243876
-0.11187116 -0.20648316 -0.243876
-0.10616726 -0.20269249 -0.24387601
0.18158092 -0.20881386 -0.243876
0.15854156 -0.19638385 -0.24387598
-0.099249601 -0.18417341 -0.24387601
-0.17648241 -0.17753969 -0.243876
0.11698502 -0.17466396 -0.243876
-0.20198941 -0.16272983 -0.24387601
-0.15035556 -0.15033041 -0.24387598
-0.074736893 -0.15819064 -0.24387601
0.094295889 -0.15932021 -0.243876
0.19098008 -0.15108132 -0.243876
0.20571436 -0.15240946 -0.24387601
-0.015229277 -0.14353763 -0.24387598
0.12768283 -0.14792424 -0.24387601
-0.029987052 -0.13223879 -0.24387601
0.0086013749 -0.12154859 -0.243876
-0.03994225 -0.11385142 -0.243876
0.08949104 -0.1089469 -0.24387598
0.19080444 -0.10272284 -0.24387601
-0.020220438 -0.092957586 -0.243876
0.015621075 -0.083373211 -0.243876
0.15738574 -0.088550732 -0.243876
0.20554225 -0.088923067 -0.243876
0.051097684 -0.070655406 -0.243876
0.05675377 -0.066011265 -0.243876
-0.20586377 -0.054745466 -0.24387598
-0.25066972 -0.042560712 -0.243876
-0.093688324 -0.043498844 -0.243876
0.036964126 -0.048469901 -0.243876
-0.14348057 -0.035950456 -0.243876
-0.084653184 -0.031533707 -0.24387598
-0.1088511 -0.020082578 -0.243876
-0.088662818 -0.022667021 -0.24387601
-0.066315375 -0.01257284 -0.24387601
-0.011999473 -0.017336085 -0.243876
0.078091398 0.00050329417 -0.243876
0.016194455 0.010547563 -0.24387598
0.097944304 0.017897695 -0.24387601
0.11298952 0.013318159 -0.243876
0.23371768 0.014716104 -0.243876
0.03538911 0.02661629 -0.24387598
0.22540995 0.028700434 -0.243876
-0.24545638 0.034934573 -0.243876
-0.022949107 0.037206415 -0.243876
-0.26559687 0.046339322 -0.24387601
-0.21932106 0.044543393 -0.243876
-0.19745176 0.042039055 -0.243876
0.12021521 0.05643639 -0.24387601
0.1725125 0.051305175 -0.24387601
0.25055414 0.055872388 -0.24234623
-0.068066671 0.064800888 -0.243876
-0.26280496 0.078967705 -0.24387601
-0.056363415 0.078125596 -0.24387601
0.25048274 0.070431635 -0.24240792
-0.2663683 0.086970247 -0.243876
-0.18730298 0.084121935 -0.243876
-0.023322672 0.080401465 -0.243876
0.22673914 0.080404028 -0.243876
-0.076711945 0.095964164 -0.24387601
-0.11594731 0.10437588 -0.243876
0.24561711 0.10816091 -0.24387601
-0.089417525 0.11263488 -0.24387598
0.17321637 0.11383644 -0.24387601
-0.080709115 0.12275057 -0.24387598
0.17142245 0.12115457 -0.24387598
-0.074663833 0.13368858 -0.243876
-0.24584258 0.14802894 -0.243876
-0.20609498 0.14497221 -0.243876
0.013740867 0.14364435 -0.24387601
0.030558497 0.14780273 -0.24387601
0.12570624 0.14919846 -0.243876
-0.079108641 0.1564236 -0.243876
-0.16440766 0.16147825 -0.243876
-0.1533121 0.16633144 -0.243876
-0.16485739 0.18134987 -0.243876
-0.031748168 0.18291384 -0.243876
0.10007329 0.18611065 -0.24387601
0.20558085 0.18790978 -0.243876
-0.050524525 0.19107893 -0.24387601
0.11500832 0.1904611 -0.243876
0.18683994 0.19904605 -0.243876
0.17946549 0.20552152 -0.24387601
-0.10153116 0.21872449 -0.243876
-0.097959682 0.21252373 -0.243876
0.028700866 0.2199975 -0.243876
-0.20327125 0.22942753 -0.243876
-0.10739271 0.22974554 -0.243876
-0.0644501 0.22517011 -0.243876
-0.048293345 0.2222333 -0.24387601
0.14826681 0.22359557 -0.24387601
0.19802341 0.22059119 -0.243876
-0.082949519 0.23774129 -0.243876
0.14459971 0.23056592 -0.24387598
-0.10016263 0.2415264 -0.24387601
0.061277077 0.24688043 -0.243876
0.094965331 0.24483892 -0.24387598
0.14969745 0.2464304 -0.24387598
-0.02214592 0.25593677 -0.24387598
-0.26675999 0.26118201 -0.24267027
-0.14844716 0.26887834 -0.243876
0.22837842 0.26954573 -0.243876
-0.11313839 0.27608687 -0.24387598
-0.064433903 0.27460262 -0.24387598
0.14931911 0.27809834 -0.243876
0.19310334 0.27545625 -0.243876
-0.13308975 0.28712884 -0.24387598
-0.080570668 0.28112859 -0.24387601
-0.042233236 0.28112394 -0.24387601
0.21249168 0.28992367 -0.243876
0.051463507 0.2904081 -0.24387598
0.096451052 0.29176453 -0.24387601
0.14693806 0.2983712 -0.24387601
0.23623742 0.29912034 -0.243876
-0.208665 0.30663404 -0.243876
-0.082741797 0.30270249 -0.243876
0.056762069 0.30360401 -0.243876
0.10268129 0.30498973 -0.243876
0.14894801 0.30686402 -0.24387598
0.022875607 0.31946462 -0.243876
0.23473535 0.3148177 -0.243876
0.030267857 0.32314873 -0.243876
0.059812665 0.32334509 -0.24387601
0.089457214 0.32678536 -0.24387598
-0.018062767 0.33649057 -0.24387601
0.18951565 0.3334367 -0.243876
0.21421838 0.33432493 -0.243876
0.25057679 0.33135527 -0.24232668
-0.24292652 0.34549099 -0.24288799
-0.091488875 0.34505171 -0.24387601
0.10035576 0.34549099 -0.2416514
0.25272101 -0.30356413 -0.23710878
0.25272101 -0.21734762 -0.23170888
-0.26675999 -0.14059559 -0.23007497
-0.26675999 -0.067295998 -0.23857695
-0.26675999 0.0088102072 -0.23152582
0.25272101 0.067736298 -0.23529971
-0.26675999 0.15566295 -0.23841673
0.18372118 0.34549099 -0.23861679
-0.26675999 -0.32158428 -0.22864294
-0.26675999 -0.31134433 -0.22615004
0.25272101 -0.28389028 -0.22225134
0.25272101 -0.2160486 -0.22821847
0.25272101 -0.064337656 -0.22890612
0.25272101 -0.017979216 -0.22126082
0.25272101 0.0092652338 -0.22142804
0.25272101 0.056940421 -0.22722065
-0.26675999 0.34292412 -0.22331934
-0.067297772 0.34549099 -0.22449803
0.21502802 0.34549099 -0.22336647
-0.26675999 -0.17382681 -0.21104202
-0.26675999 -0.12714815 -0.21777242
-0.26675999 -0.067392886 -0.21354017
0.25272101 -0.034761421 -0.21858579
-0.26675999 0.047286671 -0.2129613
0.25272101 0.076012932 -0.21192448
0.25272101 0.14806961 -0.21072644
-0.14164078 0.34549099 -0.21984345
-0.02281636 0.34549099 -0.21723095
-0.26675999 -0.15346467 -0.20944881
0.082325764 -0.0090950932 -0.20002311
0.15513808 -0.0014210081 -0.20112112
0.09078113 0.0014124662 -0.20134041
0.15580696 0.0016267292 -0.20134673
0.24194354 0.0027910776 -0.2013811
0.25215071 0.011784377 -0.20164663
0.12444688 0.030405261 -0.20129441
0.072147243 0.042756706 -0.20026776
0.25188783 0.28074917 -0.2056382
0.25272101 0.33061922 -0.20898674
-0.20851511 0.34549099 -0.20642565
-0.041679345 0.34549099 -0.20921494
0.1806604 0.34549099 -0.20632136
0.25113899 -0.26898733 -0.19382907
0.25272101 -0.19378187 -0.19947168
0.25272101 -0.066541947 -0.19096442
0.23890847 -0.029497622 -0.19629964
0.15172073 -0.01875958 -0.19864032
-0.015131017 0.047842946 -0.19951338
0.12561229 0.04967431 -0.1991508
-0.26675999 0.15726945 -0.19235533
-0.26675999 0.18649304 -0.19949348
-0.26675999 0.28784907 -0.19257312
-0.18318811 0.34549099 -0.1995368
-0.26675999 -0.29011118 -0.1877113
0.25272101 -0.11225231 -0.18647426
-0.26675999 -0.10504854 -0.18117884
-0.0077457912 -0.068394907 -0.18284446
0.040863063 -0.068021558 -0.18303856
-0.26675999 -0.051310934 -0.18948881
-0.0227718 -0.029247897 -0.1862275
0.23040995 0.098651655 -0.18439445
-0.26675999 0.11120734 -0.1896123
0.25272101 0.22177373 -0.18674906
0.25272101 0.33165878 -0.18842083
-0.034188837 0.34549099 -0.18336803
-0.26675999 -0.33148426 -0.17301585
-0.26675999 -0.32348412 -0.17752802
0.25113899 -0.32284597 -0.1711047
-0.26675999 -0.092206173 -0.1784769
-0.0227718 -0.0038610776 -0.17670859
0.25247699 0.02794797 -0.17090738
0.25247699 0.10380036 -0.17602681
0.0034641568 0.11556598 -0.17595488
0.15670416 0.11649387 -0.17540772
0.078701444 0.12193446 -0.17219947
0.1073658 0.12382667 -0.17108367
0.1978441 0.12429984 -0.17080462
0.25272101 0.12540039 -0.17782716
0.25272101 0.16006853 -0.17199364
0.25272101 0.17364512 -0.1736899
0.25272101 0.22514459 -0.17988522
-0.054451682 0.34549099 -0.17576127
-0.26675999 -0.27301747 -0.16199107
-0.26675999 -0.21117526 -0.16003069
-0.26675999 -0.16450435 -0.16731262
0.027183466 -0.097060293 -0.1662215
-0.0227718 0.047855653 -0.16491544
0.25247699 0.064363688 -0.16322726
-0.0227718 0.095213614 -0.16876008
-0.26675999 0.11483639 -0.16839567
0.11061585 0.12585875 -0.16988537
-0.010454932 0.13875908 -0.16067606
0.0043338109 0.13442582 -0.16393709
0.14416344 0.13421854 -0.16409306
0.17620528 0.13244766 -0.16542575
-0.26675999 0.325854 -0.16972254
0.25113899 0.32032415 -0.16836445
-0.26326555 0.34549099 -0.16421829
0.062524252 0.34549099 -0.16818398
0.18602943 0.34549099 -0.16308036
0.25272101 -0.23714969 -0.15187241
0.0075269621 -0.1168775 -0.15072086
0.10440102 -0.11412305 -0.15306036
0.22384816 -0.11580606 -0.15163088
0.11449889 -0.10759012 -0.15860912
-0.26675999 -0.032319739 -0.15251842
-0.26675999 -0.010958828 -0.15917018
-0.26675999 -0.0075612962 -0.15248308
-0.26675999 0.016297914 -0.15959227
0.20803633 0.13998452 -0.15975384
0.21893239 0.14056635 -0.15931599
-0.26675999 0.20060889 -0.15808704
0.25113899 0.30583328 -0.15127636
-0.12671185 0.34549099 -0.15693077
0.17784524 0.34549099 -0.15793294
-0.26675999 -0.301287 -0.14763844
-0.26675999 -0.28580976 -0.14747009
0.25113899 -0.2758286 -0.14664957
0.13938688 -0.12020476 -0.14789484
0.25247699 -0.10489116 -0.14810351
-0.0227718 -0.065527305 -0.1404942
-0.0227718 0.052585766 -0.14619683
-0.0227718 0.13246974 -0.14800151
-0.26675999 0.14707145 -0.14103164
-0.0227718 0.15359464 -0.14790502
0.0093650054 0.15538937 -0.14654855
0.11287277 0.15361044 -0.14823028
0.18184236 0.15444085 -0.14744525
0.25272101 0.26103693 -0.14061844
-0.26675999 0.29675877 -0.14405304
-0.1192452 0.34549099 -0.14260621
-0.26675999 -0.13328597 -0.13887246
0.22993688 -0.13616584 -0.1312663
-0.022771798 -0.12939829 -0.13532114
-0.0227718 -0.10526265 -0.13944857
-0.0227718 -0.083814427 -0.13232067
0.25247699 -0.085752115 -0.13083152
-0.26675999 -0.070114404 -0.13606963
-0.26675999 0.00067543983 -0.13085967
-0.0227718 0.08174964 -0.13354775
0.25247699 0.14260161 -0.13592538
0.0093745217 0.16299145 -0.13936186
0.023422956 0.17005302 -0.1311202
0.249937 0.31810653 -0.13475236
-0.18152794 0.34549099 -0.13900773
-0.26675999 -0.28619903 -0.12877744
-0.022771798 -0.020462424 -0.12652259
-0.022771798 0.022224121 -0.12332501
-0.26675999 0.043741152 -0.12603964
0.10770546 0.1716319 -0.12925042
0.12168844 0.17281438 -0.12785009
0.18091936 0.17913455 -0.12005046
-0.26675999 0.309663 -0.12541023
-0.052228082 0.34549099 -0.12711744
-0.26675999 -0.2015512 -0.11080786
0.051346201 -0.15049081 -0.11244847
0.13509025 -0.15125602 -0.11131561
0.12545639 -0.14530501 -0.11937992
0.22181456 -0.14786494 -0.11595825
-0.26675999 0.13686658 -0.11064167
-0.26675999 0.16628064 -0.11708795
0.043884471 0.18145189 -0.1165832
0.13378353 0.18263803 -0.11480847
0.18941467 0.1806291 -0.11781428
0.21166958 0.18466902 -0.11176962
0.23527841 0.18463168 -0.1118255
0.25662068 0.18471134 -0.11171295
-0.26675999 0.19406196 -0.11537702
0.25120783 0.27751577 -0.1113214
-0.22880533 0.34549099 -0.11289962
-0.11186798 0.34549099 -0.11770919
0.13736486 0.34549099 -0.11468142
0.25113899 -0.3083694 -0.10292107
0.029739045 -0.15728512 -0.10103026
0.11968333 -0.15568118 -0.10376653
-0.0227718 -0.14607996 -0.1066537
-0.0227718 -0.13898744 -0.10939992
-0.26675999 -0.046545774 -0.10126215
-0.26675999 -0.034619659 -0.10393837
-0.26675999 0.0025895238 -0.10773379
-0.26675999 0.23149574 -0.10530159
0.25167969 0.30039084 -0.10521465
-0.032620132 0.34549099 -0.10354064
0.12809482 0.34549099 -0.10176861
-0.26675999 -0.33091405 -0.096314475
0.2142946 -0.16196296 -0.093050145
0.18907078 -0.15895584 -0.098180138
-0.0227718 -0.084198631 -0.092262477
-0.0227718 0.093987793 -0.099133179
-0.0227718 0.17257184 -0.090067416
0.25247699 0.18225843 -0.093563184
-0.0227718 0.19226047 -0.099672236
0.14692448 0.19436777 -0.095662184
0.2302112 0.19446914 -0.095466077
-0.1575769 0.34549099 -0.096240103
0.25272101 -0.32832041 -0.081984937
-0.26675999 -0.27409369 -0.084045216
-0.26675999 -0.15685196 -0.088913098
-0.26675999 0.059671212 -0.087568492
0.12875593 0.19972378 -0.085300013
-0.1973941 0.34549099 -0.088325366
-0.064865172 0.34549099 -0.086576544
-0.020150464 0.34549099 -0.087314717
-0.26675999 -0.21522287 -0.074521512
-0.26675999 -0.1797691 -0.070563242
-0.26675999 0.3064346 -0.07152658
-0.24272141 0.34549099 -0.071895853
-0.092621453 0.34549099 -0.079347946
-0.071410194 0.34549099 -0.071151651
-0.018990636 0.34549099 -0.071892291
-0.26675999 -0.31242523 -0.066211663
0.085517839 -0.17373449 -0.064912438
-0.0227718 -0.11396943 -0.061681096
-0.26675999 -0.1021198 -0.06545829
-0.26675999 -0.093819909 -0.060899165
-0.26675999 0.038238242 -0.068829037
-0.0227718 0.035558671 -0.065266326
0.24580498 0.14597994 -0.061091695
0.25247699 0.1557046 -0.065646783
-0.0227718 0.18202315 -0.065168768
-0.0227718 0.20811786 -0.062671877
0.076513246 0.20615616 -0.06944187
-0.12468132 0.34549099 -0.065053739
-0.040085085 0.34549099 -0.062433273
0.0167991 0.34549099 -0.063667573
-0.26675999 -0.34506619 -0.058785029
-0.26675999 -0.30479652 -0.056794133
0.1072603 -0.1758948 -0.058080308
-0.26675999 0.10579178 -0.052258894
-0.022771802 0.18337367 -0.051815927
0.14789584 0.20985803 -0.058996201
0.023669763 0.21049982 -0.056515619
0.12810349 0.21033609 -0.057148442
0.25272101 0.23887222 -0.055609867
-0.26675999 0.31586492 -0.054210216
-0.26204804 0.34549099 -0.055741526
-0.1359973 0.34549099 -0.051314659
-0.027851937 0.34549099 -0.056697264
-0.26675999 -0.27089709 -0.043393284
-0.022771802 -0.026678167 -0.049698498
-0.022771798 0.12067746 -0.046411283
-0.26675999 0.13078445 -0.046949416
-0.0227718 0.13488452 -0.046871621
-0.0227718 0.14219165 -0.049107056
-0.26675999 0.20846346 -0.045122851
0.22273503 0.21315505 -0.046252929
-0.26675999 0.34467024 -0.047606297
-0.1895283 0.34549099 -0.042735443
-0.13669261 0.34549099 -0.047687851
0.011673624 0.34549099 -0.042682588
0.25272101 -0.23992535 -0.038577612
-0.0227718 -0.026512198 -0.037418835
-0.26675999 0.052868932 -0.031990208
-0.26675999 0.16603857 -0.035760224
-0.0227718 0.1650916 -0.038679894
0.10669295 0.21504268 -0.038609747
0.14673243 0.21603201 -0.03165295
-0.26675999 0.2454561 -0.035574641
0.25272101 0.24644265 -0.033837009
0.25272101 0.32055295 -0.032125428
-0.26675999 0.34233129 -0.035245586
-0.089599267 0.34549099 -0.038176797
0.098168947 0.34549099 -0.031912409
0.19402987 0.34549099 -0.038651772
-0.26675999 -0.25176826 -0.024978682
0.083470963 -0.18282153 -0.027862918
0.13273625 -0.18328211 -0.022637909
-0.0227718 -0.10251052 -0.022367753
-0.26675999 -0.071899846 -0.026898719
-0.022771798 -0.033065654 -0.029316351
-0.0227718 0.027714584 -0.025391161
-0.0227718 0.037076116 -0.025583871
-0.26675999 0.14444718 -0.026025541
-0.26675999 0.1525293 -0.029995121
0.024040103 0.21657085 -0.027863948
0.21739796 0.21761256 -0.020538818
-0.26675999 0.25978333 -0.02254542
-0.23999986 0.34549099 -0.021467093
-0.0258245 0.34549099 -0.026768854
0.25272101 0.34343892 -0.026047505
0.25272101 -0.20936072 -0.018351899
-0.022771798 0.1265626 -0.019399948
-0.0227718 0.19190782 -0.014267873
-0.0227718 0.21299049 -0.013064547
0.087398574 0.2182648 -0.012294408
0.253701 0.31819093 -0.013030352
-0.017779179 0.34549099 -0.011032455
-0.26675999 -0.30930704 -0.0055346633
0.12511836 -0.1843695 -0.0094823632
-0.26675999 -0.16441599 -0.0032298006
-0.26675999 -0.01973201 -0.0057288264
-0.022771802 -0.016601652 -0.008625688
-0.0227718 0.0081745982 -0.0094109736
-0.26675999 0.022880971 -0.0092078
-0.0227718 0.099534869 -0.0034752933
-0.0227718 0.16598956 -0.00066864019
0.092580564 0.2185028 -0.0042104265
0.16922726 0.21855421 -0.002464198
0.17810054 0.21856457 -0.0021133036
-0.26675999 0.27755591 -0.0087939948
-0.055670433 0.34549099 -0.0028935224
0.022777386 0.34549099 -0.008727178
0.12101801 0.34549099 -0.003547594
0.18115017 0.34549099 -0.0088559166
0.03514326 -0.18441296 0.0061551533
0.16842429 -0.18443075 0.0055511738
0.22470781 -0.18450257 0.0031110239
-0.0227718 -0.13586706 0.0094089806
-0.0227718 -0.0085393153 0.0069461064
-0.26675999 0.1060091 0.00040337071
-0.0227718 0.13457315 0.0081477538
0.25247699 0.18393768 0.0030399074
-0.26675999 0.19230509 0.0088026598
-0.26675999 0.27649909 0.0047840774
-0.21438241 0.34549099 0.00094538182
0.25272101 -0.28298604 0.016760461
0.25272101 -0.23039311 0.014358042
-0.0227718 -0.13104968 0.011657234
0.24616322 -0.12543945 0.015065525
-0.0227718 -0.077441648 0.011625816
-0.0227718 -0.044819295 0.013096862
-0.26675999 -0.015455272 0.015568527
-0.26675999 0.037968561 0.014871083
0.24559759 0.15904956 0.011109216
-0.0227718 0.16080059 0.017882979
-0.21152496 0.34549099 0.010628507
-0.16967763 0.34549099 0.015288271
-0.084156193 0.34549099 0.010757983
0.088515162 0.34549099 0.015015211
-0.26675999 -0.28188121 0.021169566
0.054188311 -0.18295023 0.025597319
-0.0227718 -0.06428051 0.025773263
-0.26675999 -0.022449031 0.027794831
-0.022771798 0.14497764 0.027070768
0.0071052993 0.21738344 0.022874638
0.034076776 0.21701604 0.027317222
0.13377771 0.21756515 0.020677418
0.25272101 0.33168936 0.029304886
-0.21567023 0.34549099 0.022340447
-0.1627719 0.34549099 0.022277504
0.25272101 -0.32171464 0.035798881
0.25272101 -0.23229037 0.034997202
0.031183589 -0.18182912 0.033480473
0.056698039 -0.18220304 0.030851228
-0.0227718 -0.1008488 0.037787545
-0.0227718 0.034194179 0.037658595
-0.022771798 0.044825248 0.036365163
-0.0227718 0.084777638 0.037072971
-0.26675999 0.16163296 0.031091057
0.052506894 0.21638414 0.031159686
-0.26675999 0.29106182 0.039847624
-0.26675999 0.31725848 0.033892371
0.25272101 0.3132183 0.032306477
0.25272101 0.32972038 0.035180468
-0.21362594 0.34549099 0.03882014
-0.10470167 0.34549099 0.037973024
0.014467873 0.34549099 0.033154614
-0.26675999 -0.33249599 0.040772349
-0.0227718 -0.016880581 0.042276293
-0.022771798 0.02625766 0.048804551
-0.26675999 0.13110557 0.04257568
0.037901849 0.34549099 0.047468677
0.25272101 -0.31385487 0.054708343
-0.26675999 -0.17277361 0.056746803
0.057337336 -0.17631428 0.057810597
-0.0227718 -0.16282645 0.058986671
-0.26675999 -0.082134515 0.056687661
-0.0227718 0.027309816 0.055676389
-0.26675999 0.044309378 0.057386808
-0.26675999 0.078142263 0.054050237
-0.0227718 0.11108889 0.051025838
0.25272101 0.23803005 0.055390731
-0.079747438 0.34549099 0.05318762
0.092730649 0.34549099 0.05094523
0.12717375 -0.17475721 0.063285634
0.18801445 -0.17262137 0.068872757
0.21166904 -0.1737307 0.065970846
0.23850921 -0.17357793 0.066370487
0.25238472 -0.17517889 0.062182613
-0.0227718 -0.081761681 0.064699791
-0.26675999 0.1601913 0.060633644
-0.26675999 0.17847759 0.068833522
0.25247699 0.17757104 0.069784038
0.25247699 0.19540417 0.068601675
0.11441198 0.20684533 0.068696395
0.17786443 0.20926344 0.061050043
0.18451917 0.20917341 0.061334696
-0.26675999 0.24857922 0.06240952
-0.17128693 0.34549099 0.064836927
0.22537471 0.34549099 0.065418102
-0.26675999 -0.29603249 0.07813412
0.25272101 -0.19669849 0.078979239
0.075530022 -0.16924958 0.077692971
-0.0227718 -0.042020544 0.078443661
-0.022771798 0.0025063083 0.074510291
-0.0227718 0.094949901 0.077536166
0.25199145 0.1456774 0.07706283
0.043175388 0.20437974 0.075287834
-0.26675999 0.29824317 0.07213065
-0.24105531 0.34549099 0.073280588
-0.15583903 0.34549099 0.074756198
-0.26675999 -0.17130959 0.087091774
0.10860344 -0.16435316 0.088637412
0.25247699 -0.15525827 0.08955501
-0.26675999 -0.12142268 0.084472969
0.25247699 -0.12789543 0.086468801
-0.26675999 -0.10326689 0.084371686
-0.0227718 -0.048397791 0.081139237
-0.0227718 0.19120416 0.080186412
0.18069455 0.19888422 0.087653235
-0.16078089 0.34549099 0.088058144
-0.0036023334 0.34549099 0.083904937
0.027762607 0.34549099 0.08176858
0.078575984 0.34549099 0.089714058
0.20339143 0.34549099 0.08180514
-0.26675999 -0.22367741 0.09101887
0.21020184 -0.16308799 0.091084987
-0.26675999 -0.15995716 0.097215183
-0.26675999 -0.045597274 0.094544001
-0.0227718 -0.046529621 0.096782498
-0.26675999 0.056351487 0.090390198
0.058993783 0.19515806 0.095314533
0.1350155 0.19652455 0.092962697
0.25039268 0.24664526 0.096872114
-0.26675999 0.26743561 0.092272781
0.25272101 0.33089441 0.091018781
-0.15191376 0.34549099 0.090563647
-0.26675999 -0.33237305 0.10765231
-0.26675999 -0.29662269 0.10538953
0.23123732 -0.15247929 0.10977045
0.25247699 -0.095659971 0.10563499
-0.0227718 0.018850427 0.10279055
-0.26675999 0.060154289 0.10788999
0.24980062 0.11590125 0.10982721
0.25247699 0.18719386 0.10889279
0.038225204 0.1912213 0.10202975
0.245856 0.28034639 0.10233773
-0.1296131 0.34549099 0.10704978
0.11582993 0.34549099 0.10044179
0.17915291 0.34549099 0.10112693
0.02350935 -0.15045387 0.11280078
0.080234632 -0.15184331 0.11072195
-0.26675999 -0.10848794 0.11096
-0.26675999 -0.074095696 0.11772934
-0.0227718 -0.016997624 0.11408144
-0.0227718 0.015745347 0.11191382
-0.26675999 0.084970295 0.11338747
-0.022771798 0.081357494 0.11810698
0.25247699 0.1597496 0.11934338
0.12394358 0.18586423 0.11116769
-0.26675999 0.30121279 0.11909445
-0.15880992 0.34549099 0.11248143
0.25272101 -0.20945632 0.12977463
0.2180661 -0.14548077 0.12024131
-0.26675999 0.047468178 0.12953013
-0.26675999 0.061240435 0.12467445
0.24380177 0.074761696 0.12885016
0.24596962 0.095702738 0.12001009
-0.0227718 0.12745921 0.12815124
0.10303801 0.17293784 0.12875924
0.17508501 0.17654896 0.12393257
-0.26675999 0.186977 0.12189155
0.25272101 -0.27787134 0.13258153
0.25272101 -0.20221111 0.13010943
0.2136528 -0.13491966 0.13318953
0.071117595 -0.12949541 0.13961354
0.25247699 -0.11709481 0.13558552
-0.26675999 -0.095639519 0.13747965
-0.022771798 -0.034519885 0.13405016
-0.26675999 0.090786904 0.13841857
0.25247699 0.15257363 0.13075596
-0.26675999 0.16612405 0.13999093
0.08935304 0.1673657 0.1350989
0.12080111 0.16845325 0.13394187
0.2343695 0.16715477 0.1353233
-0.072642058 0.34549099 0.13407069
0.1878366 0.34549099 0.13967708
0.20321459 0.34549096 0.13003893
0.25272101 0.34322995 0.13045324
0.0045461012 -0.12362616 0.14517511
0.087029666 -0.12407752 0.1447484
0.11701044 -0.12320839 0.14557004
0.11632566 -0.1187571 0.14977813
-0.26675999 -0.038285673 0.14947362
-0.0227718 0.0093191303 0.1476509
-0.26675999 0.068032466 0.14657569
-0.26675999 0.073425174 0.14362597
-0.0227718 0.13652577 0.14151771
0.21512514 0.15457869 0.14841883
0.19266516 0.16064975 0.14224398
0.25272101 0.22407411 0.14875315
-0.18562499 0.34549099 0.14554876
0.17124289 0.34549099 0.14091036
-0.26675999 -0.21397847 0.15136376
0.25272101 -0.17513651 0.15633205
0.25272101 -0.14992054 0.15792891
0.15414903 -0.11696415 0.15147308
0.18178087 -0.11527747 0.15306762
0.24375005 -0.11838526 0.15012965
0.25247699 -0.098224938 0.15790541
0.25247699 0.12884383 0.15615636
-0.0089988187 0.14830548 0.15374705
0.13415569 0.14802514 0.15398511
0.25247699 0.1488324 0.15131973
0.25272101 0.24376801 0.15858226
-0.1319274 0.34549099 0.15706083
0.25272101 -0.33709115 0.16860828
0.25272101 -0.30746719 0.16235645
0.25272101 -0.2924116 0.16190797
-0.26675999 -0.19266371 0.16207393
0.25272101 -0.1923731 0.16561992
-0.26675999 -0.16776311 0.16953509
-0.26675999 -0.1152087 0.1616217
0.067120746 -0.1002046 0.16485624
0.087929972 -0.10664617 0.16000831
-0.010031129 -0.096788928 0.16742687
0.25247699 -0.041562237 0.16942063
-0.26675999 -0.017680556 0.16474333
0.25247699 0.011540242 0.1678239
-0.26675999 0.099320143 0.16999845
0.067851566 0.13946629 0.16125467
0.08673013 0.13172969 0.16660376
-0.26675999 0.28114176 0.16408452
-0.26675999 0.32719833 0.1690737
0.25272101 -0.32426167 0.17637879
0.25272101 -0.21647492 0.17648266
0.056016032 -0.08719103 0.17339961
0.25204825 -0.087353364 0.1733039
0.14704335 -0.076856337 0.1794935
-0.022771802 0.10037478 0.1762028
0.094292581 0.11032533 0.17954536
0.25483215 0.12311402 0.17582133
0.25272101 0.13825876 0.17272902
-0.26675999 0.15879521 0.17516263
0.245856 0.27535632 0.17718458
-0.26675999 0.28182733 0.17899731
0.25272101 0.31431365 0.17160313
-0.021650376 0.34549099 0.17507872
0.16955109 0.34549099 0.17217256
0.17579067 0.34549099 0.17260675
0.25272101 -0.17694207 0.18921378
0.2364753 -0.075176492 0.18045862
0.11761363 -0.060320899 0.18709941
0.17586869 0.087085545 0.18991524
0.077681318 0.099730544 0.1850535
0.14590058 0.10752062 0.18100363
0.25272101 0.16049922 0.18706825
-0.26675999 0.24371523 0.18838406
-0.26675999 0.33889103 0.18650332
-0.24033897 0.34549099 0.18288937
0.10971522 0.34549099 0.18165867
-0.26675999 -0.14544913 0.19492118
0.16947483 -0.052155077 0.19042419
0.16721094 -0.041949511 0.19367051
0.046709605 -0.034962345 0.19589306
0.077570714 -0.035362665 0.19576573
0.090666816 -0.033776782 0.1962702
-0.26675999 -0.027678445 0.19493207
0.009789438 -0.023924096 0.19830105
0.22874457 -0.024391079 0.19820862
0.25247699 0.015251914 0.19074839
0.23356214 0.054251108 0.19922906
0.21682131 0.06208986 0.19747484
0.20264228 0.078157306 0.19329306
0.060890608 0.080302417 0.19252323
0.25272101 0.19645882 0.19648601
-0.26675999 0.24521168 0.19817404
-0.26675999 0.27500162 0.19088924
0.24953493 0.28103101 0.19359329
0.25272101 0.30959988 0.19823039
-0.076961562 0.34549099 0.1969309
0.25111449 0.34549099 0.19481502
-0.0089911111 -0.0067960117 0.20122024
0.16880426 -0.0029310209 0.20154175
0.044011734 0.0063352347 0.20231237
0.13408244 0.014013977 0.20268534
0.20369802 0.016414501 0.20261437
0.20395264 0.025372213 0.2023495
0.073227793 0.036706701 0.20173925
0.090736464 0.038911164 0.20142385
0.12090591 0.040030703 0.20126367
0.25272101 0.057867959 0.20693374
0.25272101 0.069863141 0.20667896
-0.26675999 0.13171661 0.2015433
-0.26675999 0.15921366 0.20776923
0.25272101 0.15716815 0.20501944
-0.26675999 0.1883266 0.20010927
-0.26675999 0.24105868 0.2022644
0.24585602 0.27936077 0.20074372
0.25272101 0.28796265 0.20329615
-0.20858818 0.34549099 0.20371717
0.25272101 -0.31914893 0.21271639
-0.26675999 -0.25218803 0.21803813
-0.26675999 -0.15586621 0.21053877
-0.26675999 -0.14124684 0.21504262
-0.26675999 -0.11566676 0.2127303
-0.26675999 -0.10416366 0.21303478
0.25272101 -0.08744996 0.21328428
0.25272101 -0.024974789 0.21657097
-0.26675999 0.2653341 0.21247381
-0.18504244 0.34549099 0.21261238
-0.0083953738 0.34549099 0.21678275
0.010995612 0.34549099 0.21763636
0.11233031 0.34549099 0.21565294
0.12241406 0.34549099 0.21919657
0.18115537 0.34549099 0.21025766
-0.26675999 -0.034964398 0.22792634
-0.26675999 -0.021930754 0.22624171
-0.26675999 0.13612713 0.22829621
0.25272101 0.21057191 0.22767368
-0.26675999 0.34267807 0.22882023
-0.19028452 0.34549099 0.2235447
-0.050367042 0.34549099 0.2253751
0.25272101 -0.26566288 0.23127382
-0.26675999 -0.19076598 0.23094374
-0.26675999 -0.014231682 0.23479196
0.25272101 0.015729163 0.23558947
0.25272101 0.02537246 0.2307846
0.25272101 0.21167539 0.23491897
0.25247574 0.28578669 0.23938075
0.25272101 0.29888862 0.23504978
-0.17093879 0.34549099 0.23403978
-0.14902525 0.34549099 0.23867865
0.031631745 0.34549099 0.23318264
-0.25175816 -0.34081611 0.243876
-0.073741846 -0.34252375 0.24387601
0.1139753 -0.3370119 0.24387598
-0.12225094 -0.32416058 0.24387601
-0.1129325 -0.32963252 0.24387598
-0.18697383 -0.31137329 0.243876
-0.14409621 -0.31819615 0.243876
0.13772336 -0.31612369 0.243876
0.1453985 -0.31480286 0.24387601
-0.23935834 -0.30764762 0.24387601
0.049630374 -0.30337203 0.24387601
0.17784141 -0.30964863 0.243876
0.14913741 -0.29460037 0.243876
-0.23049647 -0.28132293 0.243876
-0.14602296 -0.28417397 0.24387598
-0.021857791 -0.28375566 0.243876
-0.26452103 -0.27275616 0.24387601
-0.020401627 -0.27167666 0.24387598
0.17426556 -0.27911252 0.243876
0.041919805 -0.26176566 0.24387601
-0.060518794 -0.25842077 0.24387598
0.078188762 -0.25502068 0.243876
0.16363822 -0.25499558 0.24387601
-0.2318195 -0.2461544 0.243876
-0.076809727 -0.24295817 0.243876
-0.045751132 -0.23149648 0.24387598
0.033412404 -0.23066196 0.243876
0.15999228 -0.23211052 0.243876
0.21379936 -0.23552155 0.243876
-0.096020401 -0.22444463 0.24387601
-0.087118022 -0.22634158 0.24387601
-0.2478423 -0.21846686 0.243876
-0.094070837 -0.21444762 0.243876
-0.050638858 -0.2101554 0.24387601
0.10134193 -0.21363142 0.243876
-0.060859561 -0.20441869 0.24387598
-0.15128143 -0.19045267 0.243876
-0.26675999 -0.18949986 0.24306953
0.0063110068 -0.18506518 0.24387598
0.089759991 -0.18447801 0.24387598
0.19588795 -0.18098025 0.243876
-0.094766855 -0.17251544 0.24387601
-0.12095315 -0.16950919 0.24387598
0.11838718 -0.16080314 0.243876
-0.18221571 -0.15356274 0.243876
0.11571167 -0.15220129 0.243876
0.23416616 -0.15424016 0.24387598
-0.14942268 -0.14539489 0.243876
-0.10819273 -0.14722945 0.24387598
-0.090253621 -0.14408097 0.243876
-0.023840837 -0.14371571 0.24387598
-0.23344693 -0.13906631 0.243876
0.12568876 -0.13575085 0.243876
0.24193713 -0.13224967 0.243876
-0.18590912 -0.12802914 0.24387601
-0.088920228 -0.12420885 0.24387601
0.020037461 -0.12931405 0.243876
0.040999465 -0.12794937 0.24387601
-0.2561411 -0.11099443 0.243876
-0.13099244 -0.10476293 0.243876
-0.037486449 -0.1091364 0.243876
0.16560575 -0.10173024 0.24387598
0.0620602 -0.092025943 0.243876
-0.23435886 -0.083446145 0.243876
-0.19742461 -0.083470695 0.243876
-0.019749984 -0.080956474 0.243876
0.12478752 -0.087790795 0.24387598
-0.26078475 -0.078631207 0.243876
0.029135838 -0.072967261 0.243876
0.1164583 -0.078515872 0.243876
0.20903046 -0.072777838 0.243876
0.22274895 -0.076111063 0.24387598
-0.12015045 -0.06236029 0.243876
-0.015205204 -0.064897813 0.24387601
-0.03935222 -0.055502228 0.243876
0.2023131 -0.053335398 0.24387598
0.24929181 -0.058404982 0.24318816
-0.23045628 -0.048278768 0.24387598
-0.12822637 -0.048556179 0.243876
0.17531228 -0.046723645 0.24387598
0.18076052 -0.043979347 0.24387598
0.21934138 -0.046570256 0.24387601
-0.19694446 -0.039756108 0.24387601
-0.12943648 -0.031403475 0.24387601
-0.077264339 -0.038146555 0.24387601
0.0094528869 -0.037730865 0.243876
-0.065130979 -0.028119713 0.243876
0.10128734 -0.023225449 0.243876
-0.087499961 -0.014946967 0.24387598
0.14947689 -0.01204592 0.24387601
-0.074166492 -0.0086608268 0.24387601
-0.062045865 -0.0069153458 0.24387598
0.13464925 -0.00085283071 0.243876
-0.032411795 0.019030375 0.243876
-0.18117756 0.02786193 0.24387601
-0.037361339 0.029830992 0.243876
0.029285178 0.021491781 0.24387601
-0.23141687 0.032460526 0.243876
-0.25097355 0.044449151 0.243876
-0.25705186 0.056621682 0.24387598
-0.086621359 0.050961614 0.24387598
0.24336869 0.055384591 0.24387601
-0.21870759 0.068185307 0.24387598
-0.132238 0.063191213 0.24387601
0.0043057222 0.062964186 0.243876
0.011534467 0.068692513 0.243876
-0.26165235 0.0909767 0.243876
-0.040842742 0.090494417 0.24387601
0.031931408 0.09255185 0.243876
-0.024524838 0.10731527 0.24387598
-0.016019849 0.10559794 0.24387601
-0.20010985 0.11392856 0.243876
-0.0030751079 0.11757751 0.243876
0.16053815 0.11921567 0.24387601
-0.03201602 0.12866342 0.243876
0.20826583 0.12390674 0.24387598
0.2450503 0.12247699 0.24341533
-0.25104561 0.13901234 0.24387598
-0.15165994 0.13491784 0.24387601
-0.055421963 0.13077566 0.243876
0.059242927 0.1355245 0.24387598
-0.15618701 0.14643657 0.243876
-0.21231832 0.15765694 0.24387598
-0.18161267 0.15459329 0.24387598
-0.020866439 0.16919404 0.243876
0.027188707 0.16564442 0.24387601
0.030992012 0.1623843 0.243876
-0.094768018 0.17427753 0.24387598
-0.05395196 0.17471032 0.24387601
-0.010403499 0.17855248 0.243876
0.17538157 0.17978668 0.243876
0.19925149 0.17077683 0.243876
0.17780708 0.18186624 0.243876
-0.22569655 0.19847903 0.243876
-0.17994083 0.19136953 0.24387601
0.17542136 0.19034444 0.24387598
-0.26107088 0.20814857 0.24387601
-0.17744523 0.20613572 0.24387598
-0.2468612 0.21722864 0.24387601
-0.18580087 0.21654934 0.243876
-0.056259535 0.22170982 0.24387601
0.24899974 0.22371086 0.24333021
-0.10649762 0.23240393 0.24387598
-0.012775794 0.23519874 0.243876
-0.23736154 0.24219678 0.243876
0.049196713 0.24959153 0.243876
0.17962717 0.24331635 0.243876
-0.15760666 0.25474694 0.243876
0.0069144517 0.25264305 0.24387601
0.10552259 0.25975892 0.24387598
-0.026563883 0.26778632 0.24387601
0.13715927 0.26808122 0.24387601
0.14509243 0.26064038 0.24387601
0.19083956 0.26618734 0.243876
0.069692753 0.27940035 0.243876
0.13027495 0.27075094 0.24387598
-0.23160939 0.28854656 0.243876
-0.0025769398 0.28595877 0.24387601
0.09499827 0.28785861 0.243876
0.14614812 0.28411311 0.24387598
-0.1918999 0.29264504 0.243876
-0.063721858 0.29718953 0.24387598
-0.04431583 0.29022041 0.243876
0.094953381 0.30648237 0.243876
-0.16112748 0.31313628 0.243876
-0.097209111 0.31578168 0.243876
-0.18391864 0.32087594 0.24387601
0.050659321 0.32700443 0.24387598
-0.20081003 0.33651924 0.243876
0.14106803 0.33197847 0.24387601
-0.21702901 0.34237522 0.243876
-0.17592689 0.34286815 0.243876
-0.1583472 0.34354496 0.243876
-0.10501006 0.34204102 0.24387601
