# .PCD v0.7 - Point Cloud Data file format
VERSION 0.7
FIELDS x y z
SIZE 4 4 4
TYPE F F F
COUNT 1 1 1
WIDTH 978
HEIGHT 1
VIEWPOINT 0 0 0 1 0 0 0
POINTS 978
DATA ascii
-0.16357578 -0.32029387 -0.23238903
-0.12292908 -0.31703359 -0.23330334
0.066342041 -0.31702775 -0.23336124
0.11123994 -0.31095737 -0.23458838
0.00067475811 -0.29409692 -0.234855
0.055395551 -0.29883665 -0.234855
-0.0018605758 -0.28412208 -0.234855
-0.22407569 -0.27624938 -0.234855
-0.20022488 -0.27068472 -0.234855
0.17974862 -0.27174717 -0.234855
-0.061688833 -0.26760942 -0.234855
0.094767034 -0.26026756 -0.234855
0.13777889 -0.26047421 -0.234855
0.21703665 -0.26898676 -0.234855
-0.066704631 -0.25267208 -0.234855
-0.015594959 -0.25348485 -0.234855
0.2230211 -0.25059178 -0.234855
-0.21029016 -0.24556734 -0.234855
0.14923926 -0.24278317 -0.234855
0.20313619 -0.23118098 -0.234855
-0.083507687 -0.228958 -0.234855
-0.015939275 -0.2214549 -0.234855
-0.019408688 -0.21930099 -0.234855
-0.10754827 -0.19276218 -0.234855
-0.069615826 -0.19149873 -0.234855
-0.11933128 -0.18990335 -0.234855
0.089976177 -0.1623957 -0.234855
0.2002043 -0.1667842 -0.234855
0.23119201 -0.16184369 -0.234855
-0.019185591 -0.1515663 -0.234855
0.011926137 -0.15258652 -0.234855
0.17443433 -0.1596915 -0.234855
-0.12469835 -0.14970089 -0.234855
-0.0036966391 -0.13363427 -0.234855
-0.061077505 -0.12966557 -0.23485498
-0.03933252 -0.12750131 -0.234855
0.025802135 -0.12868588 -0.234855
0.20575444 -0.1209285 -0.234855
-0.19171599 -0.11956865 -0.234855
0.10620005 -0.10251442 -0.234855
-0.063203 -0.085294589 -0.234855
-0.047223903 -0.081631824 -0.234855
-0.012453273 -0.087052874 -0.234855
0.2263274 -0.086202249 -0.234855
-0.14342584 -0.061139755 -0.234855
0.20871791 -0.05786106 -0.234855
-0.047795724 -0.041574199 -0.234855
-0.030314155 -0.041678458 -0.234855
-0.02883026 -0.040212393 -0.234855
0.033154905 -0.047939628 -0.234855
0.15037173 -0.044298504 -0.234855
-0.067359425 -0.030948788 -0.234855
0.18602686 -0.032923564 -0.234855
-0.2330626 -0.027695991 -0.234855
-0.026746839 -0.023117334 -0.234855
-0.07133048 -0.017046064 -0.234855
-0.12876703 0.0098018833 -0.234855
0.234855 0.0077506751 -0.23067686
-0.21072948 0.019473076 -0.234855
-0.18523404 0.015266472 -0.234855
-0.22110426 0.035425402 -0.234855
0.051121965 0.037228748 -0.234855
0.096239045 0.044504926 -0.23485501
0.19422567 0.046758793 -0.234855
-0.21318638 0.054153822 -0.234855
-0.071769044 0.05845499 -0.234855
-0.045371465 0.066698007 -0.234855
0.1077994 0.063903823 -0.234855
0.22705644 0.060408778 -0.234855
-0.072238512 0.071398795 -0.234855
0.072946198 0.078808203 -0.234855
-0.023919785 0.08894223 -0.234855
0.070443228 0.085866094 -0.234855
-0.1359791 0.09498889 -0.234855
-0.10973275 0.092611939 -0.234855
0.048994884 0.096368439 -0.234855
-0.031360574 0.10782482 -0.234855
0.12018878 0.10231249 -0.234855
0.14390397 0.10628185 -0.234855
0.22569026 0.1019489 -0.234855
-0.06198395 0.11322996 -0.234855
0.11085582 0.11928236 -0.234855
0.20957568 0.1240519 -0.234855
-0.21241668 0.13522074 -0.234855
-0.18333426 0.13282898 -0.234855
-0.0016416274 0.13217385 -0.234855
0.054947827 0.13161117 -0.234855
-0.2247133 0.14630236 -0.234855
-0.1756801 0.1436262 -0.234855
0.12327548 0.1463173 -0.234855
-0.036107741 0.15686983 -0.234855
0.045617521 0.15522748 -0.234855
-0.22695082 0.17218356 -0.234855
-0.22444734 0.19233093 -0.234855
-0.13723834 0.19521838 -0.234855
-0.11671558 0.19754644 -0.234855
-0.13391498 0.20842868 -0.234855
-0.090365142 0.21300387 -0.234855
-0.052320275 0.21466006 -0.234855
0.060567647 0.24984394 -0.234855
0.091177955 0.25200284 -0.234855
-0.0079484591 0.28882131 -0.234855
0.16829506 0.28483096 -0.234855
-0.13422418 0.29364169 -0.23575801
0.080792382 0.29771549 -0.234855
-0.12181363 0.30189738 -0.23575801
-0.064414755 0.30169472 -0.23575801
0.16618682 0.30657336 -0.23575801
-0.23575169 0.31699282 -0.2309926
0.037055649 0.31529069 -0.23575801
-0.16534555 0.32756767 -0.23575801
0.079350129 0.32376531 -0.23575801
-0.15650855 0.33905363 -0.23575801
-0.043057773 0.33519113 -0.23575801
0.031077623 0.33550006 -0.23575801
-0.21827546 0.34926435 -0.23575801
-0.15824634 0.34767514 -0.23575801
-0.02479909 0.34461337 -0.23575801
0.16375148 0.34475568 -0.23575801
0.098207988 0.35995084 -0.23575801
-0.098128423 0.36344001 -0.23575801
-0.045052178 0.363574 -0.23075938
0.13146438 0.36357403 -0.23111907
0.18770637 0.36357397 -0.23000763
0.22257362 0.36188132 -0.23575801
-0.23410387 0.37218505 -0.23499474
-0.2040846 -0.33355701 -0.22552001
-0.11422278 -0.33666778 -0.22312948
-0.090460032 -0.33764547 -0.22228155
-0.038449541 -0.33775219 -0.22217649
0.234855 0.22994512 -0.22666083
0.23575902 0.31768784 -0.22255865
0.024544016 0.36357403 -0.22812399
0.14299899 0.363574 -0.22776526
0.19541708 0.363574 -0.22122005
-0.011557801 0.37260699 -0.22547473
0.15147401 0.37260699 -0.22142644
0.18389004 0.37260699 -0.22250983
-0.17309578 -0.34334433 -0.21619004
-0.12732635 -0.34754962 -0.21009785
-0.085376695 -0.34364218 -0.21581507
-0.234855 -0.16442871 -0.21399407
-2.8298819e-05 -0.169367 -0.21247484
0.12474112 -0.1637276 -0.21678999
0.17624207 -0.16033401 -0.21661744
0.2015837 -0.16698726 -0.21679001
0.10270417 -0.14289644 -0.21334222
-0.096577816 -0.12269451 -0.21679001
0.011737362 -0.12191725 -0.21678999
0.033805385 -0.12841378 -0.2166155
-0.017995313 -0.11826273 -0.21679001
-0.10283398 -0.095043868 -0.21678999
0.047185969 -0.083497353 -0.21679001
0.11288498 -0.080156282 -0.21679001
-0.12646 -0.065275952 -0.21089193
-0.099120468 -0.063278489 -0.21679001
0.033788897 -0.069093779 -0.21679001
-0.077097505 -0.05512476 -0.21679001
0.078715354 -0.051417287 -0.21679001
0.14122671 -0.053990766 -0.21678999
0.0077212416 -0.0045682266 -0.21679002
0.075233981 0.003667742 -0.21679001
-0.10976513 0.018321 -0.21679002
0.19251436 0.014290571 -0.21679001
0.15627828 0.028661966 -0.21679001
0.234855 0.028732792 -0.21966738
0.19298065 0.032589268 -0.21679002
0.029479912 0.04329659 -0.21679002
0.12471986 0.041547384 -0.21679001
0.039294556 0.054386023 -0.21679002
0.084392138 0.059470259 -0.21679001
0.085965894 0.062994942 -0.21679001
0.060270291 0.072826348 -0.21678999
-0.10741219 0.09133397 -0.21679001
-0.03487736 0.096610971 -0.21678999
-0.016812626 0.10719147 -0.21679002
-0.016535848 0.12934066 -0.21678999
0.05924467 0.12522045 -0.21679001
-0.12195227 0.13734283 -0.21679001
0.00028177351 0.13653909 -0.21679002
-0.014477216 0.14519669 -0.21679001
0.025412025 0.17648254 -0.21679001
-0.11208019 0.19886346 -0.21678999
0.077830382 0.19025236 -0.21678999
-0.234855 0.21546198 -0.21900555
0.062362552 0.22362921 -0.21679001
0.03868828 0.23049903 -0.21679001
0.023436278 0.24573158 -0.21678999
0.044829465 0.25055188 -0.21679001
-0.027893756 0.26072437 -0.21679001
0.234855 0.26779228 -0.21400416
0.049008258 0.27423781 -0.21679001
0.10726336 0.27011502 -0.21679001
-0.014006823 0.2867063 -0.21678999
-0.068836279 0.29722261 -0.21679001
0.097348578 0.30087361 -0.21679001
0.18927969 0.3074064 -0.21679001
-0.0068418868 0.32914507 -0.21679001
0.022763126 0.33434924 -0.21679002
0.235759 0.33270898 -0.21605211
-0.23574531 0.34210086 -0.21028982
0.11500681 0.34977227 -0.21679001
-0.144526 0.36402038 -0.21862209
0.061698761 -0.35169637 -0.20111176
0.23242219 -0.32018256 -0.20886874
0.234855 -0.29707128 -0.20333354
-0.054855671 -0.16033401 -0.20942833
0.013530221 -0.16033401 -0.20313914
0.10121642 -0.16033401 -0.20923035
0.13754073 -0.16033402 -0.20311189
-0.234855 -0.11717835 -0.20487076
-0.234855 -0.042398199 -0.20622371
-0.12646 0.067877866 -0.20509502
0.234855 0.099778421 -0.20732337
0.23485498 0.15723908 -0.20859748
0.234855 0.23933282 -0.20844115
0.23575899 0.32845998 -0.20305523
0.069860622 0.36357403 -0.20437726
-0.070140496 0.37260699 -0.20242147
-0.00081075728 -0.169367 -0.19427447
0.067357309 -0.16033401 -0.19690654
0.23485498 -0.074295513 -0.19741119
0.21679001 0.052227259 -0.1939657
-0.234855 0.11426534 -0.19022009
-0.234855 0.20329681 -0.19317342
0.234855 0.21868196 -0.19708189
-0.2357468 0.33904153 -0.19833988
-0.042520359 0.363574 -0.1931859
-0.046391703 -0.35438707 -0.18714768
-0.019970145 -0.35426366 -0.1891719
0.234855 -0.19076282 -0.18664348
-0.084309891 -0.169367 -0.18440564
-0.053430807 -0.16936702 -0.18209769
0.064114556 -0.169367 -0.18403167
0.16744386 -0.169367 -0.18397741
0.18578026 -0.16033401 -0.18344972
-0.234855 0.013113551 -0.18924023
0.234855 0.16673014 -0.1827759
0.234855 0.18235099 -0.18724737
0.234855 0.21958831 -0.18322957
-0.234855 0.23786132 -0.1860799
0.21679001 0.34578574 -0.1870928
0.21679001 0.35105056 -0.18356715
-0.16662365 -0.3662965 -0.17939425
-0.11776958 -0.354541 -0.17717192
0.032445788 -0.354541 -0.17311913
-0.027263802 -0.16033401 -0.17198223
-0.234855 -0.13378572 -0.17333879
-0.12646 -0.060835037 -0.17547002
0.234855 0.014452942 -0.17397857
0.21679001 0.035144091 -0.17561761
-0.234855 0.10548458 -0.17078573
-0.12646 0.22857416 -0.1737054
-0.12646 0.2822431 -0.17016555
-0.20592359 0.37260699 -0.17547604
-0.13718626 0.37260699 -0.17034951
0.12442419 0.37260699 -0.17260584
0.17031932 0.37260699 -0.17531531
0.1990826 0.37260699 -0.17450236
0.031498075 -0.354541 -0.16679993
-0.234855 -0.23117018 -0.16539958
0.234855 -0.18424934 -0.16160981
-0.234855 -0.17556834 -0.16010088
0.037417274 -0.16033401 -0.16673326
0.21632202 -0.13108829 -0.16775206
0.234855 0.10851508 -0.1641828
0.21679001 0.28620511 -0.16112664
-0.0044156164 0.363574 -0.16102217
0.029398263 0.363574 -0.16880196
0.22195932 0.36357403 -0.16304234
-0.050720703 0.37260699 -0.16585273
-0.1631567 -0.354541 -0.15997583
0.234855 -0.22087963 -0.15617454
-0.090166867 -0.16033401 -0.1526286
0.086629644 -0.169367 -0.15821218
0.17212056 -0.169367 -0.15857543
-0.12646 -0.10106507 -0.15950425
0.234855 0.016790606 -0.15203881
-0.234855 0.038612582 -0.15780115
-0.234855 0.06975428 -0.15325563
0.23485498 0.083673887 -0.15673219
0.21679001 0.12789813 -0.1570542
-0.12646 0.23430081 -0.15920603
0.21679001 0.28082338 -0.15429577
-0.23575793 0.30867648 -0.15296537
-0.23575258 0.32602608 -0.1582965
0.21679002 0.33050841 -0.15664542
0.084907278 0.363574 -0.15159529
0.13997069 0.363574 -0.15795165
-0.15135343 -0.36928958 -0.1475942
-0.055839285 -0.354541 -0.14468709
0.025797393 -0.354541 -0.14617315
0.10352129 -0.354541 -0.14070034
-0.073453829 -0.16033401 -0.1401833
0.12144834 -0.169367 -0.145363
0.21679001 -0.025895774 -0.1487852
0.23485498 0.139153 -0.14995164
-0.234855 0.15599911 -0.1428577
-0.234855 0.29077756 -0.14035752
-0.11011393 0.363574 -0.14597285
0.041462403 0.363574 -0.14691153
0.13310467 0.363574 -0.14370821
-0.15066817 0.37260699 -0.14831957
-0.044879656 0.37260699 -0.14580409
0.16613716 -0.354541 -0.1332022
-0.008144591 -0.169367 -0.13731378
0.11146893 -0.16033401 -0.13315475
-0.234855 0.093186885 -0.13393043
0.234855 0.10637643 -0.13530587
-0.12646 0.24342933 -0.13424605
-0.23575288 0.32865304 -0.13587101
-0.12646 0.32341912 -0.13202895
0.16206573 0.363574 -0.1374127
-0.16753136 -0.354541 -0.12831339
-0.22150791 -0.33843073 -0.12778302
-0.234855 -0.22622412 -0.12580232
0.234855 -0.18694033 -0.12989005
0.0090301931 -0.16033401 -0.12647553
0.2045093 -0.169367 -0.12411679
0.21631101 -0.16033401 -0.12018175
0.21679001 -0.062835343 -0.12272294
-0.234855 -0.0062797517 -0.12529837
0.234855 0.026030056 -0.12433966
0.234855 0.11899953 -0.12773573
-0.12646 0.12763298 -0.12050929
-0.12646 0.2860291 -0.1200775
-0.234855 0.29092592 -0.12946433
0.235759 0.30946565 -0.12959477
-0.12646 0.35374716 -0.12722993
-0.059765309 0.36357403 -0.12283556
0.17900634 0.363574 -0.12842607
-0.10863099 0.37260699 -0.12772886
0.095033698 -0.354541 -0.11077717
-0.2346032 -0.31086966 -0.11863368
-0.234855 -0.16041562 -0.119666
0.11424714 -0.16936702 -0.11540662
0.21679001 -0.04681294 -0.11129525
0.21679001 0.1338053 -0.11277214
0.234855 0.28504086 -0.11711358
0.23575902 0.32091951 -0.11311873
-0.12646 0.35838851 -0.11287148
-0.0086056311 0.363574 -0.1199358
-0.15900211 0.37260699 -0.11471161
-0.072389662 -0.354541 -0.10214305
-0.032351349 -0.354541 -0.1086142
0.11952846 -0.354541 -0.10429002
-0.21671967 -0.34292343 -0.10129807
-0.038883291 -0.169367 -0.10157672
0.0018226299 -0.16033401 -0.10265908
0.013774339 -0.169367 -0.10313947
0.21344754 -0.14259726 -0.1035872
0.234855 -0.011967406 -0.10142089
-0.234855 0.012555569 -0.10423148
0.21679001 0.014951073 -0.10253539
0.21679001 0.1217164 -0.10686557
0.234855 0.29893827 -0.10758311
-0.081402913 0.37260699 -0.10981037
0.13679181 -0.354541 -0.093627706
0.234855 -0.17472921 -0.097572818
-0.088783741 -0.16033399 -0.09190999
-0.048953399 -0.16033401 -0.098946057
0.067681357 -0.16033401 -0.095504224
0.13812685 -0.16033399 -0.094878346
0.1662834 -0.16033401 -0.090460286
0.18060818 -0.16936702 -0.091050461
-0.234855 -0.0002168566 -0.095351011
-0.12646 0.04453823 -0.095793001
-0.234855 0.18239063 -0.097693868
-0.12646 0.20856935 -0.098741218
-0.089354955 0.37260699 -0.093744427
0.12794536 0.37260699 -0.093677729
0.1446085 0.37260699 -0.097902857
-0.16033176 -0.354541 -0.082971916
0.0081210509 -0.354541 -0.089912198
-0.234855 -0.26469076 -0.084228292
0.234855 -0.22315155 -0.0826253
-0.234855 -0.20882711 -0.081039436
0.234855 -0.16705403 -0.089892186
-0.234855 -0.12239522 -0.083092391
-0.12646 -0.084769726 -0.083255835
-0.234855 -0.059662238 -0.087350465
-0.234855 -0.018696932 -0.084531516
-0.12646 0.0054220892 -0.087794855
0.234855 0.085060626 -0.08344236
0.234855 0.1193988 -0.085606948
-0.234855 0.14355227 -0.087904021
0.021475004 0.363574 -0.086216196
-0.11987836 0.37260699 -0.088147521
0.14094301 -0.354541 -0.075644448
0.234855 -0.30838007 -0.073524714
-0.058568154 -0.16033401 -0.074651517
0.074726775 -0.16033401 -0.075226299
0.10581008 -0.16033401 -0.070097931
-0.12620918 -0.12911783 -0.072643593
-0.234855 -0.073473267 -0.076698683
0.234855 0.095560066 -0.076566003
0.21679001 0.10227212 -0.079737432
-0.23575239 0.34036636 -0.075338371
-0.12646 0.36233675 -0.075091347
-0.17860998 0.37260699 -0.075924657
-0.077221692 -0.354541 -0.062830478
-0.22542611 -0.33367884 -0.066303097
0.234855 -0.30368596 -0.065233715
0.06914781 -0.169367 -0.060965654
0.078069948 -0.16033402 -0.060850687
-0.234855 -0.072930589 -0.064007543
-0.12646 0.082971781 -0.066692673
0.234855 0.1147071 -0.06769301
-0.12646 0.2865819 -0.060953747
0.0553937 0.37260699 -0.063266456
0.234855 -0.29512629 -0.053107567
-0.077576868 -0.16033401 -0.055802729
-0.061877102 -0.16033401 -0.057128251
-0.12169761 -0.14586057 -0.053351067
-0.12646 0.2983596 -0.050444629
-0.23575902 0.30776972 -0.052214257
-0.23574641 0.36345997 -0.058939554
-0.13116863 0.363574 -0.05907952
0.06837187 0.36357397 -0.053925902
-0.19857702 0.37260699 -0.053323142
-0.19581068 -0.35323334 -0.044749778
-0.18404785 -0.354541 -0.041872777
-0.12646 -0.16050614 -0.040661909
-0.10246594 -0.169367 -0.045253783
-0.026231309 -0.16033401 -0.048874319
0.059133653 -0.169367 -0.046444282
0.21679001 -0.084814206 -0.043965787
0.234855 0.062307648 -0.043930009
0.234855 0.088172555 -0.044056639
-0.234855 0.15030664 -0.049260475
0.23485498 0.2897113 -0.048712313
-0.20207496 -0.35139301 -0.03274437
-0.070238337 -0.354541 -0.033250019
0.07237681 -0.354541 -0.031481922
0.081853762 -0.354541 -0.036363058
-0.234855 -0.30577746 -0.037648864
-0.064970858 -0.169367 -0.038722251
-0.045271344 -0.16033401 -0.039455757
-0.039714426 -0.169367 -0.039565444
-0.019798692 -0.169367 -0.03824164
-0.12646 -0.06858173 -0.034158014
0.234855 0.14910474 -0.039860994
0.234855 0.16635543 -0.034049228
-0.234855 0.27723238 -0.037728846
-0.23575898 0.32414418 -0.037756406
-0.054513197 0.363574 -0.032693237
0.21976082 0.363574 -0.032063071
-0.051256053 0.37260699 -0.037138622
-0.20290247 -0.35110536 -0.026123881
0.23293537 -0.31845853 -0.021640174
0.234855 -0.29148164 -0.025291853
0.234855 -0.1144197 -0.024289358
-0.12646 -0.090079799 -0.024870127
-0.12646 0.05238416 -0.024626467
0.234855 0.050379716 -0.025848702
0.234855 0.14465894 -0.027040485
0.234855 0.22202978 -0.023745934
-0.027054116 0.37260699 -0.021800838
-0.080636129 -0.354541 -0.015921518
0.234855 -0.23062833 -0.018092994
0.05096231 -0.16033401 -0.013160974
0.234855 -0.16424575 -0.011592425
-0.11931128 -0.15008593 -0.01772213
0.21679001 0.084306732 -0.018806214
-0.234855 0.12182725 -0.014089372
0.234855 0.13826388 -0.011547448
0.21679001 0.16053574 -0.015602494
-0.234855 0.18436132 -0.01934959
0.21679001 0.18213072 -0.019880418
-0.23575902 0.32219389 -0.014320657
-0.059553102 0.363574 -0.014568411
0.07704708 0.36901665 -0.014034233
-0.089826867 0.37260699 -0.015624996
-0.044657707 0.37260699 -0.01790411
0.234855 -0.23041132 -0.0085466728
0.234855 -0.20252697 -0.00034213439
-0.027578369 -0.169367 -0.0015314035
0.234855 -0.14897615 -0.0090533085
-0.234855 0.11285719 -0.0014038123
-0.234855 0.12107759 -0.00057973713
0.234855 0.25851074 -0.0069974288
0.234855 0.30032277 -0.0058693849
0.15278688 -0.354541 0.0078918189
-0.23451555 -0.31138921 0.0010913461
-0.234855 -0.19588026 0.0081884861
0.13260725 -0.16033401 0.0088976771
0.21410602 -0.14072604 0.0027309656
-0.1248183 -0.13720313 0.0030093174
-0.12646 -0.064996481 0.009991087
0.21679001 0.084047712 0.0097908899
-0.12646 0.094368838 0.0070799738
0.235759 0.33802271 0.0055381274
0.019813724 0.363574 0.0098141655
0.055345587 0.36357403 0.0089974767
-0.17744841 0.37260699 0.0057990979
0.0077694887 0.37260699 0.0072577745
0.018954394 0.37260699 0.0028036833
0.05001425 -0.354541 0.011368761
0.027663145 -0.16033399 0.012912534
0.072360188 -0.169367 0.017095685
-0.12340201 -0.14179073 0.017883316
-0.234855 -0.13947602 0.015788008
-0.234855 0.017571574 0.010608632
-0.12646 0.041232534 0.011875935
-0.234855 0.090996742 0.011481162
-0.12646 0.098760605 0.015158482
0.234855 0.11682333 0.011650968
-0.12646 0.15851313 0.01030466
0.21679002 0.20594311 0.010959122
0.23575899 0.31133544 0.014875256
0.21679002 0.32838765 0.017387068
0.21679001 0.33921558 0.013184176
-0.11329044 0.363574 0.01836767
-0.19159551 0.37260699 0.01054645
-0.011045145 0.37260699 0.012825269
0.117428 0.37104011 0.014442396
-0.16614652 -0.354541 0.022210263
-0.234855 -0.25362274 0.025648378
-0.234855 -0.23249671 0.029895904
0.017037794 -0.169367 0.027326718
0.10172148 -0.169367 0.025162643
0.20382389 -0.16033401 0.023888336
-0.11339977 -0.1569818 0.029838912
0.234855 -0.12120782 0.028576951
0.21679002 0.18260656 0.028262652
0.21679001 0.22243981 0.02136679
-0.235759 0.32078958 0.023763502
0.235759 0.3251009 0.020630566
-0.079644985 0.37260699 0.028276075
-0.234855 -0.27765432 0.031657137
-0.234855 -0.25772327 0.036255889
0.060892627 -0.16033401 0.033554614
0.16587578 -0.169367 0.031226836
0.19538739 -0.16033402 0.038708188
0.234855 0.082544938 0.03159127
0.21679001 0.15432855 0.031965874
-0.12646 0.18978585 0.032734733
0.234855 0.21994618 0.038709886
0.21679001 0.24639198 0.037732344
0.21679001 0.29627746 0.03958825
0.052298084 0.363574 0.034807
0.22833413 0.36357403 0.031962462
-0.13983262 0.37260699 0.03466817
-0.064031906 -0.354541 0.044851504
-0.041650448 -0.354541 0.041548282
-0.03772587 -0.354541 0.04910291
0.049865868 -0.354541 0.049797621
0.11918688 -0.354541 0.041559368
0.234855 -0.28781477 0.044872589
-0.028965212 -0.16033401 0.042619318
0.019491684 -0.16033401 0.040698275
0.062101606 -0.16033401 0.041356288
0.1308424 -0.16033401 0.040329315
0.1582498 -0.169367 0.040083122
0.1770435 -0.169367 0.042943791
0.21125756 -0.14733422 0.043381564
0.21679002 -0.10958188 0.04920033
-0.234855 -0.055025093 0.049601078
-0.234855 -0.0031254161 0.0441157
0.21679001 0.014926091 0.048953228
0.21679001 0.20463914 0.048279755
-0.234855 0.24036771 0.049130656
-0.12646 0.25378308 0.044540193
-0.12646 0.35291085 0.044381626
0.23575899 0.35772315 0.04194884
-0.16919714 0.37260699 0.041048408
0.091414496 -0.354541 0.059620023
-0.022157714 -0.169367 0.058632679
0.086381115 -0.16033401 0.0587386
-0.12646 0.045640528 0.050310094
0.21679001 0.18873194 0.053742498
-0.23575902 0.30364633 0.056334436
0.23575902 0.36955807 0.057088725
-0.016719189 0.37260699 0.050211072
0.037011988 0.37260699 0.055547312
0.181512 0.37260702 0.0552077
-0.234855 -0.21475853 0.069153339
0.234855 -0.20200241 0.060194265
-0.062407359 -0.169367 0.067482293
0.21679001 -0.11890465 0.065661244
-0.234855 -0.09356197 0.062556632
0.21679001 -0.082992524 0.065353423
0.234855 0.13886555 0.067251936
-0.12646 0.27144885 0.068289295
-0.235759 0.3274408 0.067710847
-0.12646 0.32173452 0.061183918
0.0062843096 0.363574 0.068378091
0.235759 0.36098045 0.06400764
-0.10438526 -0.354541 0.071734086
0.234855 -0.27529573 0.070951775
-0.11444563 -0.16033401 0.073402502
0.234855 -0.079262875 0.072390117
-0.234855 0.022954032 0.074187838
0.21679001 0.040074557 0.075266957
0.21679001 0.16879706 0.073130965
0.23485501 0.19175476 0.079942197
0.234855 0.22097763 0.077643156
0.235759 0.31282437 0.072636321
-0.13005449 0.37260699 0.07540527
-0.029456545 0.37260699 0.071694002
0.14773691 -0.169367 0.085931607
0.20679304 -0.16033401 0.080641143
0.21678999 -0.044684276 0.082762986
0.234855 -0.016915709 0.082688034
-0.12646002 0.047788449 0.084184445
0.21679001 0.23600937 0.087510124
0.234855 0.27111304 0.081925355
0.235759 0.31423926 0.085790277
-0.10613498 0.363574 0.081768602
-0.15220618 0.37260699 0.08988148
-0.144526 0.37176532 0.084653564
0.0045947228 0.37260699 0.081705056
0.15011273 0.37260699 0.087246522
0.20340952 -0.16033401 0.090724364
0.21578233 -0.13437809 0.094587721
-0.12646 -0.087799393 0.093667448
0.21678999 0.021665975 0.096624218
0.21679002 0.063732497 0.091960944
-0.234855 0.084716231 0.097942159
-0.12646 0.22944915 0.0900148
0.21679001 0.27607259 0.099899389
-0.13116266 0.363574 0.09075778
0.22249375 0.363574 0.095887147
-0.22778493 0.37260699 0.096384779
-0.18313032 0.37260699 0.095405906
0.0037044175 -0.354541 0.1044484
-0.23436362 -0.31228986 0.10759354
-0.234855 -0.29500622 0.10484809
-0.11038757 -0.169367 0.10724363
-0.067543343 -0.16033401 0.10923827
-0.234855 -0.15949081 0.10930943
0.21678999 -0.12005785 0.10116912
0.234855 -0.084769085 0.10635041
-0.12646 -0.067791328 0.10077751
0.21679001 -0.028961793 0.10918893
-0.12646 -0.016681582 0.10476198
0.21679001 0.026855208 0.10498798
-0.234855 0.10571335 0.1000824
-0.12646 0.15767719 0.10292527
0.234855 0.22576238 0.10366583
0.234855 0.24324569 0.10306436
0.234855 0.25310719 0.10992634
0.23575899 0.35907686 0.10613617
-0.13878627 0.363574 0.10100688
-0.01084916 0.36357397 0.1086704
-0.028564675 0.37260699 0.10692813
0.00095141958 0.37260699 0.10510045
0.22591764 0.37260699 0.10482389
-0.20708512 -0.34920049 0.11743197
-0.089332364 -0.169367 0.11864389
0.06677334 -0.16936699 0.11892389
0.21679001 -0.11197774 0.11029068
0.234855 0.019818097 0.11362442
0.234855 0.034497276 0.11202044
-0.234855 0.19466484 0.11608925
-0.234855 0.21935239 0.11277555
0.234855 0.26775402 0.11478961
0.21679002 0.34044385 0.11235964
0.19734624 0.363574 0.11812832
0.14051735 0.37260699 0.11019905
0.21253906 -0.34605557 0.1256943
0.234855 -0.28525433 0.12327652
-0.234855 -0.25020286 0.12302525
-0.12549332 -0.169367 0.12397568
0.055141166 -0.16936702 0.12080692
-0.234855 -0.12598366 0.12540293
0.21679001 -0.10990402 0.12469827
0.234855 0.065190844 0.12889934
0.21679001 0.075590618 0.12562251
0.234855 0.11286785 0.12630714
0.21679001 0.14192677 0.12731612
-0.23575902 0.32174706 0.12529023
-0.23575899 0.33461976 0.12216935
-0.235759 0.35129187 0.12830195
-0.22546665 0.37260699 0.12426846
-0.080059595 0.37260699 0.12496442
-0.06758102 0.37260699 0.1205792
0.18113668 0.37260699 0.12695108
0.234855 -0.20339599 0.1334962
0.234855 -0.17123735 0.13974027
-0.12646 0.014337964 0.13109058
-0.12646002 0.031362757 0.13701861
0.21678999 0.17004903 0.13710389
0.21679002 0.19904809 0.13701206
0.21679002 0.21610704 0.13347891
-0.234855 0.2442449 0.13100484
-0.12646 0.33893341 0.13338083
-0.08752913 0.37260699 0.13193981
-0.073275387 -0.354541 0.14140943
-0.027580809 -0.354541 0.14705247
0.15924968 -0.354541 0.14442028
0.234855 -0.23117374 0.14194575
-0.026850943 -0.169367 0.14221968
0.0033768527 -0.169367 0.14965996
0.091342315 -0.169367 0.14995854
-0.234855 -0.13953993 0.14522058
0.21679001 -0.10764434 0.14033626
-0.12646 -0.090205818 0.14703666
-0.12646 0.054462567 0.14225613
0.234855 0.051715355 0.14480841
-0.12646 0.13046286 0.14444587
0.234855 0.17948575 0.14799102
-0.12646 0.20362186 0.14736286
0.23575899 0.33901006 0.14744148
0.23575902 0.35207745 0.14553618
0.036015883 0.36357397 0.14512549
0.043184482 -0.354541 0.15620321
0.234855 -0.28199202 0.15595832
-0.234855 -0.20818819 0.15778217
0.097964585 -0.16033399 0.15941611
0.14716417 -0.16033401 0.15703775
0.234855 -0.14077652 0.1582246
-0.12646 -0.065309823 0.15405025
-0.12646 -0.043451596 0.15379906
-0.12646002 0.068381689 0.1559011
-0.234855 0.084534198 0.15402296
0.234855 0.11978478 0.15377627
-0.12646 0.27183008 0.15092184
0.234855 0.28221291 0.15312341
-0.12646 0.30139229 0.15603924
0.235759 0.33733457 0.15387183
0.235759 0.34711879 0.15427986
0.10583039 0.363574 0.15387008
0.14876287 0.363574 0.15287614
-0.075658023 0.37260699 0.15494111
0.22589946 0.37260699 0.15886347
0.036117271 -0.354541 0.16509703
0.063052505 -0.354541 0.16674556
0.13451642 -0.354541 0.1628255
0.234855 -0.19573511 0.16744372
0.234855 -0.12061124 0.16079196
0.21679001 0.046044528 0.16689394
-0.234855 0.068980597 0.1651561
0.21679001 0.32585865 0.16817556
-0.23575862 0.35843551 0.16241403
0.12600307 0.363574 0.16806072
0.12628746 0.37260699 0.16086107
-0.025894657 -0.354541 0.17494565
0.234855 -0.23934245 0.17276634
0.234855 -0.20195898 0.17350581
0.234855 -0.17631303 0.17919381
0.15349531 -0.169367 0.17150716
0.21590173 -0.169367 0.17439993
-0.234855 -0.14241745 0.17645141
0.21410395 -0.14073198 0.17176351
-0.234855 -0.069988333 0.17794091
-0.234855 0.050163142 0.17488283
0.234855 0.11693256 0.17170806
0.21679001 0.15828314 0.17520127
0.21679002 0.19011126 0.17174822
-0.12646 0.29571921 0.1773359
0.234855 0.29294497 0.17802134
-0.23568805 0.36992598 0.17745447
0.063504249 0.36357403 0.17811207
0.16990922 0.36357403 0.17286041
0.18843219 0.37260699 0.17358676
-0.045315295 -0.35430127 0.18855527
-0.21532696 -0.34402931 0.18868792
0.234855 -0.29721117 0.18823102
0.234855 -0.21931754 0.18550701
0.086581223 -0.169367 0.18625316
0.11483138 -0.16033401 0.18729159
-0.12646 0.029813599 0.18760177
0.234855 0.023818605 0.18861488
0.21679001 0.045759991 0.18318731
0.234855 0.05788976 0.18437396
-0.12645999 0.081525005 0.1833549
0.21679001 0.13857788 0.18049207
-0.234855 0.14912409 0.18973278
0.012639971 0.363574 0.1875342
0.032877088 0.363574 0.18811232
0.2254512 0.363574 0.18204382
-0.09254723 0.37260699 0.18385458
-0.089607261 0.37260699 0.18932465
0.19910184 -0.35232955 0.19452679
0.234855 -0.28780499 0.19652356
0.234855 -0.22122027 0.19375116
0.234855 -0.19981375 0.1986814
-0.028369386 -0.16936702 0.19911699
0.039175443 -0.16033401 0.19906045
-0.12646 -0.10254655 0.19689664
0.234855 -0.045917504 0.19499615
-0.12646 -0.019320577 0.19545349
-0.234855 0.0046612173 0.19288905
0.234855 0.047371268 0.19382325
0.234855 0.060611665 0.19752645
0.12937054 0.36357403 0.19712654
0.0011671986 -0.34809187 0.2092119
0.121323 -0.34872618 0.20812659
-0.234855 -0.19548292 0.20026101
0.066307321 -0.169367 0.20319518
0.075121298 -0.16033401 0.20262986
0.17935213 -0.16033401 0.20711064
-0.079961777 -0.15298997 0.20753415
0.0078266412 -0.15740311 0.20317531
0.042327769 -0.15128326 0.20882042
0.11919056 -0.15922585 0.20062441
0.234855 -0.10113122 0.20750692
0.21679001 -0.034846142 0.20926675
0.13500646 0.363574 0.20159197
0.234855 -0.23928928 0.2166419
-0.089481451 -0.16033401 0.21482652
-0.054488558 -0.16033401 0.21555428
0.0059372559 -0.169367 0.21344762
0.021567374 -0.169367 0.2158902
0.061875641 -0.16828656 0.21678901
-0.0034978036 -0.1403431 0.21424003
0.013687447 -0.14208731 0.21362674
0.037521534 -0.13686587 0.21523616
0.21471056 -0.13329175 0.21598315
0.069579095 -0.12227006 0.21678901
0.085251644 -0.12567109 0.21673585
0.18722452 -0.12048807 0.21678901
0.029174104 -0.11082196 0.21678901
-0.11265542 -0.10887896 0.21678901
-0.012756713 -0.098932594 0.21678901
-0.033713721 -0.065789938 0.21678901
0.066738009 -0.065612905 0.21678901
-0.045983113 -0.059645977 0.21678901
0.019634053 -0.055137727 0.21678901
0.16540281 -0.058043033 0.21678901
-0.043285899 -0.045768272 0.21678901
-0.10881683 -0.038144037 0.21678901
-0.075391948 -0.031308062 0.21678901
-0.029604867 -0.033039026 0.21678902
0.17711884 -0.034396674 0.21678901
-0.033174612 -0.013793847 0.21678901
0.086616322 -0.0027228333 0.21678901
0.13504678 -0.0074870773 0.21678901
0.064796068 0.0015540123 0.21678901
0.234855 0.026379796 0.21161944
0.0075908508 0.04487624 0.21678901
0.016524516 0.041650616 0.21678901
0.041362301 0.053437792 0.21678901
0.234855 0.059478119 0.21149887
-0.10929517 0.070790671 0.21678901
-0.11345591 0.099620074 0.21678901
-0.036422782 0.090550534 0.21678901
0.10933139 0.091752499 0.21678901
0.14582889 0.095397666 0.21678901
-0.054374132 0.10962513 0.21678901
-0.049769081 0.13808735 0.21678901
-0.234855 0.14773715 0.21630073
-0.092343763 0.14581966 0.21678901
-0.062705904 0.14543346 0.21678901
-0.053565741 0.14382964 0.21678901
-0.091483794 0.16843778 0.21678901
-0.089575678 0.16146539 0.21678901
0.059016969 0.16558224 0.21678901
0.12373865 0.16234526 0.21678901
0.037216946 0.17716643 0.21678901
0.15206298 0.19037583 0.21678901
0.18241799 0.24030596 0.21678901
0.14842452 0.2529403 0.21678901
-0.10387043 0.26615965 0.21678901
0.20760289 0.26218101 0.21678901
0.16839278 0.2707302 0.21678901
-0.12412652 0.28722784 0.21678901
0.16945148 0.28114778 0.21678901
-0.12646 0.29191184 0.21493781
0.17302874 0.30041081 0.21678901
-0.031584069 0.3195518 0.21678901
0.070213467 0.31736609 0.21678901
0.18818808 0.31337559 0.21678901
0.235759 0.32940257 0.21052335
-0.235759 0.35946104 0.21923509
0.061335646 0.35336804 0.21678901
-0.020466072 0.363574 0.2125144
0.17675079 0.36357397 0.21396662
-0.10173038 0.37260699 0.21765055
-0.046368577 0.37260699 0.21465856
0.10052522 0.37260699 0.21414249
-0.16367233 -0.33965576 0.2203024
0.14777537 -0.33509138 0.2243403
0.234855 -0.23659657 0.2268451
0.234855 -0.15064768 0.22889815
0.234855 -0.10363162 0.22826406
0.234855 -0.09337505 0.22207412
-0.234855 0.11126108 0.22407486
-0.234855 0.12216801 0.2203552
0.234855 0.14180703 0.22934908
0.23575899 0.33030349 0.22700644
-0.13767037 0.363574 0.22826983
-0.011530735 0.363574 0.22126527
0.20852825 0.363574 0.22012539
-0.22370841 0.37260699 0.22549684
0.14560786 -0.32536319 0.23032585
-0.074297354 -0.29748818 0.234855
0.091659658 -0.29253241 0.234855
0.2002911 -0.29269832 0.234855
-0.11716385 -0.28763181 0.234855
-0.16285646 -0.27402994 0.234855
0.086506948 -0.27548462 0.234855
0.23156051 -0.27185896 0.234855
0.10851998 -0.26293099 0.234855
0.1992068 -0.25198901 0.23485501
0.01619783 -0.24034318 0.234855
-0.031515963 -0.23511973 0.234855
0.040004004 -0.23810676 0.234855
0.060085699 -0.2231141 0.234855
-0.034534208 -0.21116382 0.234855
0.14586607 -0.21081679 0.234855
0.2263255 -0.20079318 0.234855
-0.059982575 -0.19538355 0.234855
-0.032031417 -0.19353595 0.234855
0.018226888 -0.19300595 0.234855
0.17169438 -0.19445795 0.234855
-0.022679243 -0.18255666 0.234855
0.095786981 -0.18930876 0.234855
-0.23185885 -0.17578769 0.234855
-0.065901026 -0.16021827 0.234855
-0.0065317713 -0.16610971 0.234855
-0.078358278 -0.14706552 0.23485501
0.028226458 -0.14303422 0.234855
0.16574921 -0.14403743 0.234855
-0.14688709 -0.11483547 0.234855
-0.1836267 -0.10377845 0.234855
-0.097846925 -0.07524237 0.234855
0.069838993 -0.034666207 0.234855
0.15931647 -0.017940298 0.234855
-0.11710818 0.0093757771 0.234855
0.15181795 0.028481638 0.234855
-0.12300299 0.039882764 0.234855
-0.083748914 0.037325174 0.234855
-0.23147973 0.051624514 0.234855
0.21094303 0.050752096 0.234855
-0.19230622 0.067406677 0.234855
-0.18630794 0.066893756 0.234855
-0.16086128 0.06904833 0.234855
-0.083379574 0.070615672 0.234855
0.01050372 0.074694894 0.234855
0.19805747 0.10809629 0.234855
-0.084171169 0.14135048 0.23485498
0.080450632 0.14086598 0.234855
-0.16213939 0.15484022 0.234855
-0.047976382 0.16829804 0.234855
-0.22039768 0.17686044 0.234855
-0.13171682 0.17737454 0.234855
-0.20219082 0.18002543 0.234855
-0.17022365 0.18576472 0.234855
-0.12716368 0.20475037 0.234855
-0.070512757 0.20613223 0.234855
0.20441225 0.20354185 0.234855
-0.10316062 0.21320924 0.234855
-0.057903886 0.21285886 0.234855
0.18049619 0.21085206 0.234855
-0.19637561 0.22765031 0.234855
-0.18918595 0.22806828 0.234855
0.19632056 0.22050431 0.234855
-0.19524391 0.23108137 0.234855
-0.17343703 0.24165535 0.234855
-0.19206707 0.25732851 0.234855
0.055418693 0.25693017 0.234855
-0.16515049 0.26998332 0.234855
0.087127663 0.2643292 0.234855
0.223675 0.26949427 0.234855
-0.234855 0.27375185 0.23167714
-0.21778709 0.27299166 0.234855
0.20104504 0.27430898 0.234855
-0.1883269 0.28512436 0.23485501
-0.041738473 0.29412526 0.234855
0.11916698 0.29750136 0.234855
0.23469587 0.29026577 0.234855
-0.11332062 0.30700749 0.23575801
0.00029662938 0.30481142 0.23575801
-0.025502263 0.31181461 0.23575801
-0.23019564 0.33723322 0.23575801
-0.20498905 0.33080623 0.23575801
-0.077842698 0.33472878 0.23575801
-0.038503133 0.33499116 0.23575801
0.040350176 0.33853835 0.23575801
-0.1417235 0.34908 0.23575801
0.014538087 0.34937811 0.23575801
0.059396416 0.34049964 0.23575801
-0.18909912 0.36087987 0.23575801
0.072262041 0.363574 0.23371401
0.16265066 0.36844313 0.23575801
0.235759 0.36972716 0.23067158
