# .PCD v0.7 - Point Cloud Data file format
VERSION 0.7
FIELDS x y z
SIZE 4 4 4
TYPE F F F
COUNT 1 1 1
WIDTH 970
HEIGHT 1
VIEWPOINT 0 0 0 1 0 0 0
POINTS 970
DATA ascii
-0.23627478 -0.30030301 -0.29365802
0.13596407 -0.30030301 -0.29301628
0.14718966 -0.30030301 -0.29425922
0.18700643 -0.30030301 -0.29458016
-0.062157325 -0.29954398 -0.29463699
0.1888722 -0.29822248 -0.29463699
-0.18813375 -0.27774769 -0.29463699
-0.15448859 -0.27632478 -0.29463699
0.03123571 -0.27592015 -0.29463702
0.26329619 -0.27197456 -0.29463699
-0.21160752 -0.2668173 -0.29463699
-0.1220542 -0.26824656 -0.29463702
-0.043232791 -0.26272762 -0.29463696
-0.14637195 -0.25596309 -0.29463699
-0.012634337 -0.25828853 -0.29463696
0.089114644 -0.25414184 -0.29463699
0.13136156 -0.25194106 -0.29463699
-0.24566326 -0.2456681 -0.29463699
0.10910934 -0.24265853 -0.29463699
-0.057732873 -0.23187327 -0.29463699
0.1353177 -0.23718034 -0.29463699
0.1993313 -0.23202851 -0.29463699
-0.19880846 -0.22824895 -0.29463699
-0.18231235 -0.22403403 -0.29463702
0.091468088 -0.22227743 -0.29463699
-0.098573267 -0.21065192 -0.29463699
0.01075691 -0.21899915 -0.29463699
0.16332822 -0.21653816 -0.29463699
0.24074778 -0.20656353 -0.29463699
0.1034105 -0.19441572 -0.29463699
-0.23015125 -0.18293858 -0.29463699
-0.19048671 -0.18491402 -0.29463699
-0.18807232 -0.1834475 -0.29463702
-0.088021755 -0.17729729 -0.29463699
0.040780552 -0.17233562 -0.29463699
-0.20818251 -0.16893494 -0.29463699
0.051861629 -0.16468026 -0.29463699
0.17361811 -0.16307472 -0.29463699
-0.08045195 -0.15127347 -0.29463702
-0.044944774 -0.15336095 -0.29463699
0.24695817 -0.15856878 -0.29463699
-0.24584168 -0.14105292 -0.29463699
-0.10180149 -0.14286229 -0.29463699
0.064232469 -0.14116263 -0.29463699
0.21402569 -0.14935307 -0.29463702
0.015745372 -0.13340947 -0.29463699
-0.073706813 -0.1224668 -0.29463699
-0.030912563 -0.125424 -0.29463696
-0.017701536 -0.12266263 -0.29463699
0.14667967 -0.1116265 -0.29463699
0.19205678 -0.11408386 -0.29463699
-0.2646935 -0.10591707 -0.29463699
-0.17562014 -0.1011534 -0.29463699
-8.4012747e-05 -0.10536401 -0.29463699
0.070428379 -0.10644734 -0.29463699
0.14680743 -0.1067187 -0.29463699
0.25616813 -0.10654049 -0.29463699
-0.23588872 -0.095718488 -0.29463699
0.012012372 -0.095728949 -0.29463699
0.076203793 -0.093450971 -0.29463699
0.25249749 -0.095156059 -0.29463699
-0.068185739 -0.089172691 -0.29463699
0.023520723 -0.082768768 -0.29463699
0.086510405 -0.080780745 -0.29463699
-0.26185572 -0.077576838 -0.29463699
-0.22928132 -0.07430049 -0.29463699
-0.21180487 -0.071478799 -0.29463699
-0.20225464 -0.076202273 -0.29463699
0.098797671 -0.075044259 -0.29463699
-0.25580227 -0.067191914 -0.29463699
-0.16436574 -0.068978138 -0.29463699
0.041702785 -0.068242595 -0.29463699
0.12506154 -0.067377456 -0.29463699
-0.24177644 -0.052840896 -0.29463699
0.12110948 -0.051773064 -0.29463699
0.19081932 -0.054053165 -0.29463699
-0.14384848 -0.048166152 -0.29463699
-0.18556534 -0.030053012 -0.29463699
-0.17450193 -0.039126482 -0.29463699
-0.056964993 -0.034318678 -0.29463699
-0.20312843 -0.023819439 -0.29463702
-0.2453416 -0.011518113 -0.29463699
-0.18702988 -0.019048609 -0.29463699
0.010475088 -0.010894753 -0.29463699
0.15678903 -0.013967268 -0.29463699
-0.19097698 -0.0053377002 -0.29463699
0.079719387 -0.0078155994 -0.29463699
0.23947531 -0.0089988112 -0.29463699
-0.11333989 0.0052494928 -0.29463699
0.10322042 0.00032757968 -0.29463699
0.13743737 0.012907051 -0.29463699
0.15945818 0.011842187 -0.29463699
0.20973039 0.017029054 -0.29463696
0.24187785 0.026546806 -0.29463702
-0.15020828 0.032952484 -0.29463699
-0.10893972 0.039071172 -0.29463699
0.083428979 0.030931709 -0.29463699
0.14772776 0.038870066 -0.29463699
-0.24451441 0.049970858 -0.29463699
-0.23770252 0.044503983 -0.29463699
0.086792082 0.044945616 -0.29463699
0.10331924 0.047165941 -0.29463699
-0.2048009 0.055342108 -0.29463699
-0.099628933 0.056738179 -0.29463699
0.093954816 0.064997748 -0.29463699
0.20510428 0.061824795 -0.29463699
-0.071227618 0.073433816 -0.29463699
0.0045623332 0.071963452 -0.29463699
0.23344857 0.078289241 -0.29463699
0.2650716 0.073582947 -0.29414982
0.065953106 0.084721394 -0.29463699
0.25709075 0.086327597 -0.29463699
0.097884908 0.094568528 -0.29463699
0.22363196 0.09172105 -0.29463699
0.25707299 0.098756589 -0.29463699
-0.22062546 0.11295521 -0.29463699
-0.17411964 0.11938664 -0.29463699
0.018278003 0.11984605 -0.29463699
0.16283369 0.11055282 -0.29463699
-0.27019799 0.12873043 -0.29318032
-0.16759032 0.12611808 -0.29463699
-0.075732023 0.12639226 -0.29463696
-0.019664317 0.12793747 -0.29463699
0.072461352 0.12476499 -0.29463699
0.12540421 0.12442291 -0.29463699
0.23616484 0.12085555 -0.29463699
0.15111665 0.14017054 -0.29463699
0.21418835 0.15360537 -0.29463699
0.15429601 0.16773254 -0.29463699
-0.24788508 0.17153135 -0.29463699
0.13523525 0.17193869 -0.29463699
-0.12189063 0.18698099 -0.29444814
0.093465701 0.18488845 -0.29463699
0.267932 0.1860289 -0.29443949
-0.27019799 0.22381382 -0.29383424
-0.20357265 0.22220376 -0.29463699
-0.20100448 0.23438399 -0.29463699
-0.23677018 0.24709709 -0.29463699
-0.22080576 0.2422286 -0.29463699
-0.2305712 0.25736886 -0.29463699
-0.22689611 0.25107446 -0.29463699
-0.21606301 0.25061095 -0.29463699
-0.195088 0.26808748 -0.29101294
-0.013286917 -0.30030301 -0.28184697
0.042091589 -0.30030301 -0.28082588
0.068099126 -0.30030298 -0.28385305
0.081906036 -0.30030301 -0.28204235
-0.27019799 -0.13497412 -0.28257075
0.267932 -0.014497511 -0.28823498
-0.27019799 0.058567315 -0.28804141
-0.195088 0.27999884 -0.28630692
-0.20256779 -0.30030301 -0.27405056
-0.17353308 -0.30030301 -0.27923131
-0.025128312 -0.30030301 -0.27509362
0.07219816 -0.30030301 -0.27701983
-0.27019799 -0.26822543 -0.27623329
0.267932 -0.041195326 -0.27333224
-0.27019799 -0.03810969 -0.27971622
-0.27019799 0.042487711 -0.27796337
0.267932 0.14519164 -0.27322152
-0.19207069 0.18698099 -0.2747255
-0.155891 0.18698099 -0.2753292
-0.1010938 0.18698099 -0.27073449
0.10068179 0.18698099 -0.27760485
0.191618 0.18698099 -0.27472568
-0.195088 0.2947515 -0.27166748
0.086737953 -0.30030301 -0.26163056
0.17344272 -0.30030301 -0.2669616
0.267932 -0.20323946 -0.2647337
0.267932 -0.1996617 -0.2662805
-0.27019799 -0.12282161 -0.2643165
-0.27019799 -0.019432306 -0.26558656
-0.27019799 -0.00089932233 -0.26817757
0.010329053 0.18698099 -0.26666483
-0.21333079 0.30030301 -0.26408264
0.054720178 -0.30030301 -0.25189036
0.267932 -0.24376334 -0.25373501
-0.27019799 -0.1888921 -0.25766203
0.267932 -0.16893929 -0.25101489
-0.27019799 -0.088463135 -0.25933114
-0.27019799 -0.073880084 -0.25798696
0.267932 -0.040566854 -0.25096351
-0.27019799 0.010805331 -0.25524414
-0.27019799 0.051563062 -0.25304407
-0.14916626 0.18698099 -0.25003767
-0.10612763 0.18698099 -0.25186887
-0.084425129 0.18698099 -0.25321442
-0.195088 0.20225959 -0.25438499
-0.27019799 0.22467248 -0.25700855
0.066133305 -0.30030301 -0.24919587
0.21205212 -0.30030301 -0.24220297
0.267932 -0.18946989 -0.24176052
0.267932 -0.14954823 -0.24349302
-0.029404692 0.18698099 -0.24203347
0.014456775 0.18698099 -0.2427735
0.075422756 0.18698099 -0.24901983
0.15303345 0.18698099 -0.24273631
-0.195088 0.21861817 -0.24617156
-0.195088 0.24050675 -0.24575032
-0.27019799 0.28322598 -0.24001911
-0.26777142 -0.30030301 -0.23487744
0.098941319 -0.30030301 -0.23471877
0.20725359 -0.30030301 -0.23250785
0.24716625 -0.30030301 -0.23223895
-0.27019799 -0.21271257 -0.2350921
0.267932 -0.21903946 -0.23239271
0.267932 -0.12637791 -0.23518658
0.26876101 0.16808505 -0.23413987
-0.16157205 0.18698099 -0.23232892
0.063603982 0.18698099 -0.23256823
-0.27019799 0.23910271 -0.23550576
-0.195088 0.28088075 -0.23986138
0.267932 -0.22728737 -0.22177255
-0.27019799 -0.18658742 -0.22734857
0.267932 -0.1892966 -0.22907871
0.267932 -0.07481128 -0.22892952
0.267932 0.042228103 -0.22642662
0.267932 0.071439177 -0.22858149
-0.27019799 0.14792687 -0.22678204
-0.16905849 0.18698099 -0.2270495
-0.047155101 0.18698099 -0.22644432
0.063097149 0.18698099 -0.227082
0.24406169 0.18698099 -0.22974928
0.267932 0.18408768 -0.22518572
-0.1907897 0.26276118 -0.22299898
-0.18649225 -0.30030301 -0.2127773
-0.15122056 -0.30030301 -0.21052369
-0.13033593 -0.30030304 -0.21207365
-0.014286552 -0.30030301 -0.21091165
-0.0072843507 -0.30030301 -0.218366
0.020313047 -0.30030301 -0.2110655
0.12538533 -0.30030301 -0.21882622
0.15974768 -0.30030301 -0.21410282
-0.27019799 -0.25046656 -0.21801165
0.267932 -0.056973092 -0.21562558
-0.27019799 0.017419755 -0.21888989
-0.27019799 0.06574221 -0.21003275
-0.27019799 0.13803412 -0.21223198
-0.27019799 0.17146163 -0.21447918
-0.13680759 0.18698099 -0.21024933
0.23928021 0.18698099 -0.21830551
-0.27019799 0.20352799 -0.21770872
-0.27019799 0.28986207 -0.21625429
-0.15421119 -0.30030301 -0.20790073
0.094003931 -0.30030301 -0.20106876
0.2201789 -0.30030301 -0.2082952
0.267932 -0.2874029 -0.20426516
0.267932 -0.017141618 -0.20213751
0.267932 0.026860822 -0.20727217
0.094782665 0.18698099 -0.20880336
0.20998119 0.18698099 -0.20577207
0.2501148 0.18698099 -0.20946538
-0.27019799 0.25993064 -0.20538238
-0.18889301 0.26595205 -0.20002986
-0.13413233 -0.30030301 -0.19982728
0.09741956 -0.30030301 -0.19506803
0.15430316 -0.30030301 -0.19017267
-0.27019799 -0.27525643 -0.19067083
-0.27019799 0.020235322 -0.19230027
-0.27019799 0.039035231 -0.19281024
0.267932 0.054065965 -0.19570835
0.22661701 0.14400631 -0.19068633
0.26876101 0.15598136 -0.19352764
-0.27019799 0.17051604 -0.19099168
-0.16632392 0.18698099 -0.19086406
-0.080416292 0.18698099 -0.1947947
0.22683188 0.18698099 -0.19624467
-0.27019799 0.19131769 -0.1934803
-0.18889301 0.25645962 -0.19505227
-0.19166338 0.28129673 -0.19055301
-0.2422843 -0.30030301 -0.18529911
0.018496118 -0.30030301 -0.18872088
-0.27019799 -0.2278059 -0.18241242
-0.27019799 -0.051328748 -0.18422133
-0.27019799 0.011816859 -0.184264
0.267932 0.094237685 -0.18286902
0.22661699 0.11696469 -0.18454616
0.26876101 0.17114252 -0.18166335
-0.17213947 0.18698099 -0.18774217
-0.16614398 0.18698099 -0.18601207
0.1282602 0.18698099 -0.18909001
-0.195088 0.22583731 -0.18550816
-0.27019799 0.2373631 -0.18058547
-0.18975346 -0.30030301 -0.17279096
-0.16323705 -0.30030301 -0.17097808
-0.1577017 -0.30030301 -0.17473112
-0.031066582 -0.30030301 -0.17477755
0.00047529489 -0.30030301 -0.17330176
0.19693068 -0.30030301 -0.17848347
-0.27019799 -0.16037656 -0.17038634
-0.27019799 -0.056507628 -0.17223087
0.267932 -0.052317798 -0.17064792
0.267932 0.045160554 -0.17830813
0.267932 0.059662886 -0.17836829
0.22646254 0.096323602 -0.17278443
0.267932 0.1313097 -0.17792979
0.21397866 0.16306384 -0.17259163
0.21542744 0.17129703 -0.17673211
-0.18176313 0.18698099 -0.17938395
-0.16205858 0.18698099 -0.1724035
-0.085537739 0.18698099 -0.17562234
-0.017039359 0.18698099 -0.17445096
0.074813031 0.18698099 -0.17679197
-0.195088 0.19132364 -0.17177354
-0.22904208 -0.30030304 -0.16361332
-0.17030853 -0.30030304 -0.1624057
-0.14616884 -0.30030301 -0.16008928
-0.080314323 -0.30030301 -0.16360286
0.16253397 -0.30030301 -0.16189626
0.267932 -0.17381251 -0.16912901
0.267932 -0.11491892 -0.16439152
0.267932 -0.067569859 -0.16777775
-0.07691136 0.18698099 -0.1650475
0.22661701 0.18462574 -0.16074309
0.25478071 0.18698099 -0.16798666
0.033245895 -0.30030301 -0.1502994
0.057805177 -0.30030301 -0.15674031
-0.27019799 -0.28159001 -0.15504497
0.267932 -0.24741039 -0.1505658
0.267932 -0.23043589 -0.15345214
-0.27019799 -0.14350191 -0.15558152
-0.27019799 -0.087507486 -0.15227386
0.267932 -0.081727475 -0.15663058
-0.27019799 0.065022156 -0.15493448
0.267932 0.089625344 -0.15535137
0.21131466 0.10511622 -0.15228298
0.267932 0.1120299 -0.15322065
0.22661701 0.14965293 -0.15651439
-0.24732703 -0.30030301 -0.1447565
0.015008695 -0.30030301 -0.14858747
0.09957552 -0.30030301 -0.14968592
0.20289829 -0.30030298 -0.14451438
0.23358011 -0.30030301 -0.1437071
0.2556681 -0.30030301 -0.14520335
0.267932 -0.18059517 -0.14914761
0.267932 -0.1734871 -0.14095956
-0.27019799 -0.14316872 -0.14320159
0.267932 0.077047311 -0.14069393
-0.27019799 0.23149019 -0.14223383
-0.27019799 0.28408054 -0.1468832
-0.24153841 0.30030301 -0.14276841
-0.26359457 -0.30030301 -0.13530201
-0.23056488 -0.30030301 -0.13950723
0.032784563 -0.30030301 -0.13675232
0.14241686 -0.30030301 -0.13474318
0.15393336 -0.30030301 -0.13794698
0.267932 -0.2862865 -0.13367093
0.267932 -0.099082105 -0.13034649
0.267932 -0.067724138 -0.13989036
0.267932 -0.046625059 -0.13490064
-0.27019799 -0.026461195 -0.13339911
-0.27019799 0.083325326 -0.13201472
0.22661699 0.13697654 -0.13182755
0.267932 0.14901029 -0.13627087
0.267932 0.17603144 -0.13031887
-0.27019799 0.18714464 -0.13251211
-0.14534172 0.18698099 -0.13679077
-0.137233 0.18698099 -0.13654071
0.065853901 0.18698099 -0.1362762
0.17648959 0.18698099 -0.1330265
-0.27019799 0.22584982 -0.13405551
-0.24656239 0.30030301 -0.1373758
-0.00046879798 -0.30030301 -0.12763828
0.17952703 -0.30030301 -0.1298216
-0.27019799 -0.21374077 -0.12509108
-0.27019799 -0.13582751 -0.12920964
0.267932 0.15842132 -0.12350372
0.070932969 0.18698099 -0.12961915
-0.22863525 0.30030301 -0.12318552
-0.057420246 -0.30030301 -0.11161208
-0.27019799 -0.2001579 -0.1155014
-0.27019799 -0.17166439 -0.11002537
0.267932 -0.073974885 -0.11469045
0.267932 0.029281311 -0.11636162
0.267932 0.080536067 -0.11643156
-0.195088 0.27116993 -0.11400705
-0.195088 0.28944701 -0.1115475
-0.26751119 -0.30030301 -0.1059694
-0.10412774 -0.30030301 -0.10760847
0.26249337 -0.30030301 -0.10737405
0.267932 -0.254899 -0.10579522
-0.27019799 -0.19301303 -0.10872292
-0.27019799 -0.088309258 -0.1017689
-0.27019799 -0.035041157 -0.10334606
0.267932 -0.0210796 -0.10130835
-0.27019799 -0.012459598 -0.1074197
0.267932 0.093445107 -0.10453433
-0.0027500987 0.18698099 -0.10823145
0.23207566 0.18698099 -0.10949081
0.26116961 0.18698099 -0.10571927
-0.27019799 0.20624861 -0.10158315
-0.19952738 -0.30030304 -0.091917187
-0.14207862 -0.30030301 -0.096291386
-0.050272826 -0.30030301 -0.094383314
-0.27019799 -0.27988917 -0.095653385
-0.27019799 -0.039245263 -0.090032607
0.267932 -0.02315714 -0.09333545
0.267932 0.027245123 -0.092065379
0.267932 0.13728014 -0.094275579
0.021035135 -0.30030301 -0.080642462
0.23755966 -0.30030304 -0.085515328
0.267932 -0.2669836 -0.087144122
-0.27019799 -0.24091764 -0.084358558
0.267932 -0.1703736 -0.084184811
0.267932 -0.16405742 -0.087623432
-0.27019799 0.070113078 -0.08525046
0.267932 0.073631607 -0.085856706
-0.045672756 0.18698099 -0.08812353
-0.034094535 0.18698099 -0.08116658
0.12939656 0.18698099 -0.086206466
0.13296476 0.18698099 -0.083389789
-0.27019799 0.27291259 -0.083160713
-0.12391466 -0.30030301 -0.071939543
0.05530297 -0.30030301 -0.07652539
0.084848903 -0.30030301 -0.075374737
0.267932 -0.23196036 -0.075399607
-0.27019799 -0.21193908 -0.074581444
0.267932 -0.16289212 -0.079082966
-0.27019799 -0.11509006 -0.071020722
-0.27019799 -0.099490963 -0.079993129
0.267932 0.039786633 -0.078125343
-0.27019799 0.059977978 -0.073574886
0.267932 0.065427326 -0.076756865
-0.14360875 0.18698099 -0.072256759
-0.1241667 0.18698099 -0.07917241
0.17030825 0.18698099 -0.079430841
-0.27019799 0.20755881 -0.074365079
-0.25395837 0.30030301 -0.077423669
-0.27019799 -0.18943441 -0.065421276
0.267932 -0.11794658 -0.068910554
0.267932 0.11450584 -0.064315163
-0.27019799 0.15828304 -0.068615414
-0.16686852 0.18698099 -0.069299094
-0.014633857 0.18698099 -0.067078948
0.25208199 0.18698099 -0.065897413
-0.27019799 0.21638808 -0.069677606
-0.195088 0.282482 -0.06806951
-0.195088 0.2958253 -0.067110442
-0.24726012 0.30030301 -0.062802099
0.267932 -0.14911732 -0.051437501
-0.27019799 -0.047408655 -0.052425273
0.267932 0.16982396 -0.050590955
-0.18427527 0.18698099 -0.059611164
-0.27019799 0.22552028 -0.051534072
-0.13013524 -0.30030301 -0.042882439
0.17850426 -0.30030301 -0.047898322
0.18080401 -0.30030301 -0.049826473
0.267932 -0.29826522 -0.04316631
0.267932 -0.2803933 -0.040946823
-0.27019799 -0.18127249 -0.043655585
0.267932 0.10688763 -0.046311956
0.267932 0.14448753 -0.048436858
-0.034942042 0.18698099 -0.045776192
-0.20320401 0.30030301 -0.046671048
-0.12152874 -0.30030298 -0.034069836
-0.060407527 -0.30030301 -0.037700735
0.21567279 -0.30030301 -0.035500199
0.267932 -0.23183313 -0.035119154
0.267932 -0.22272596 -0.032497492
-0.27019799 -0.17248452 -0.0351974
0.267932 -0.17064539 -0.03756243
-0.27019799 -0.1413302 -0.03081958
0.267932 -0.097800039 -0.030177817
-0.27019799 -0.065876149 -0.033461057
-0.15365028 0.18698099 -0.034104042
0.093891725 0.18698099 -0.03703133
0.12205346 0.18698099 -0.030024998
-0.19653301 0.266752 -0.039240066
-0.21160044 0.30030301 -0.038286738
-0.19974059 -0.30030301 -0.024288312
-0.089859441 -0.30030301 -0.020629615
-0.054630063 -0.30030301 -0.024907842
0.064415298 -0.30030301 -0.029384017
0.11828128 -0.30030301 -0.021178365
0.15230633 -0.30030301 -0.026337177
0.17444651 -0.30030301 -0.025080144
0.18277048 -0.30030301 -0.022760287
0.267932 -0.27415693 -0.02637808
-0.27019799 -0.12037806 -0.020360492
-0.27019799 -0.095167018 -0.02424065
-0.27019799 0.10277116 -0.023004316
-0.06069617 0.18698099 -0.02136001
0.019600756 0.18698099 -0.02696088
-0.19788894 -0.30030301 -0.019603036
-0.16750704 -0.30030301 -0.01557634
-0.035749547 -0.30030304 -0.019780114
0.066424437 -0.30030301 -0.015534304
-0.27019799 -0.19796859 -0.012153737
-0.27019799 -0.14425267 -0.011664227
-0.27019799 -0.059322998 -0.013496274
0.267932 0.074656963 -0.015146188
-0.27019799 0.11280344 -0.01226519
0.24046713 0.18698099 -0.014136175
-0.27019799 0.24117687 -0.013169509
-0.19766565 0.30030298 -0.01746881
-0.092701197 -0.30030301 -0.0081327558
0.10810725 -0.30030301 -0.0086486377
0.267932 -0.13533244 -0.003944695
-0.27019799 0.067807309 -0.0039020479
-0.27019799 0.16440323 -0.0068039382
0.267932 0.16376033 -0.00042845309
0.031730272 0.18698099 -0.0057162642
0.061197445 0.18698099 -0.0043360069
0.13328089 0.18698099 -0.0061970875
0.14064443 0.18698099 -0.0077236816
-0.27019799 0.21727355 -0.00057601929
-0.195088 0.24108882 -0.0053953947
-0.22715378 -0.30030301 0.0079142451
-0.18430346 -0.30030301 0.0030058324
-0.14018792 -0.30030301 0.00028190017
-0.080359504 -0.30030301 0.0060643591
0.267932 -0.13892776 0.00094329566
0.267932 -0.020492807 0.0094197169
-0.019263484 0.18698099 0.0091574788
0.16798663 0.18698099 0.0058759134
-0.27019799 0.1966175 0.0066099856
-0.195088 0.27892691 0.0082103088
-0.20968235 -0.30030301 0.018837661
-0.11878444 -0.30030301 0.019445557
-0.026412934 -0.30030304 0.012899339
0.22522758 -0.30030301 0.017880559
0.23749125 -0.30030301 0.012516506
-0.27019799 -0.26123685 0.012015566
-0.27019799 -0.19983704 0.015093792
0.267932 0.036268249 0.012457088
-0.27019799 0.18106106 0.010984913
0.076065414 0.18698099 0.011958495
0.26722318 0.18698099 0.019910052
-0.19820711 0.24786499 0.01934294
-0.26879913 0.30030301 0.012136877
-0.23406093 0.30030304 0.019513041
-0.015953671 -0.30030301 0.025552372
0.044770658 -0.30030301 0.021822803
0.267932 -0.18466604 0.024209738
-0.27019799 -0.17029062 0.027875889
0.267932 -0.078626968 0.029921912
-0.27019799 -0.057349924 0.025535809
-0.27019799 0.0093664918 0.024878295
-0.27019799 0.11383563 0.028508507
0.267932 0.12405129 0.023501851
-0.09893012 0.18698099 0.023064069
0.17203684 0.18698099 0.022132268
0.22773138 0.18698099 0.02907224
-0.27019799 0.21680722 0.029523879
-0.035383675 -0.30030304 0.037913583
0.13736567 -0.30030301 0.033812191
0.19453011 -0.30030301 0.031963557
0.23513016 -0.30030301 0.032731205
-0.27019799 -0.20979653 0.031105593
-0.27019799 -0.055378757 0.034250937
-0.17461914 0.18698099 0.030216545
-0.022566831 0.18698099 0.037074443
0.091184191 0.18698099 0.039813802
-0.195088 0.24286565 0.036021933
-0.14018868 -0.30030301 0.046798296
-0.037520919 -0.30030301 0.041829046
0.041957505 -0.30030301 0.046421051
0.20327154 -0.30030301 0.045642361
0.267932 -0.22975791 0.042979229
0.267932 -0.1065584 0.049258813
0.057325829 0.18698099 0.04750175
0.14840022 0.18698099 0.043697052
0.19949146 0.18698099 0.045266557
-0.195088 0.27589795 0.041354708
-0.195088 0.29780328 0.043540843
-0.22383486 -0.30030301 0.059474222
-0.27019799 -0.27493498 0.056609642
0.267932 -0.15961435 0.050143313
-0.27019799 -0.036996499 0.055446967
0.031533562 0.18698099 0.055767957
0.063847348 0.18698099 0.054713205
0.18633837 0.18698099 0.058291852
-0.22211909 -0.30030304 0.066082343
0.21679537 -0.30030301 0.064958811
0.267932 -0.28102854 0.063322946
0.267932 -0.22546162 0.068327688
-0.27019799 -0.11424457 0.061413448
0.267932 0.022124464 0.068427049
0.070456751 0.18698099 0.062036552
-0.27019799 0.264853 0.06673184
-0.21310143 0.266752 0.06064783
-0.20452365 0.266752 0.060652141
-0.22091636 0.30030301 0.06825082
-0.21271211 -0.30030301 0.07471136
-0.022831604 -0.30030301 0.074507087
0.060104214 -0.30030301 0.073918104
-0.27019799 -0.29583618 0.072744876
0.267932 -0.11762692 0.078256384
-0.27019799 -0.064994797 0.078887045
0.267932 -0.00032617897 0.07638739
0.267932 0.0030743293 0.070223652
0.267932 0.071977124 0.078384086
-0.27019799 0.18728063 0.070044875
-0.27019799 0.19424082 0.07860928
-0.21518221 0.30030301 0.072463222
-0.19593559 0.30030301 0.073834024
-0.062280383 -0.30030301 0.082294069
-0.040821403 -0.30030301 0.087797202
0.267932 -0.27058429 0.08047054
-0.27019799 -0.24962024 0.088536285
-0.27019799 -0.21265313 0.08545506
-0.27019799 -0.16716492 0.083609089
0.267932 -0.16863139 0.089583613
-0.27019799 -0.13075253 0.08069998
0.267932 -0.10150424 0.081621461
0.267932 0.0088013411 0.084705018
0.267932 0.053955086 0.081973672
0.267932 0.17739019 0.087400965
0.14973524 -0.30030301 0.095111296
0.267932 -0.26270157 0.098646335
-0.27019799 -0.20172447 0.092283972
-0.27019799 0.11864234 0.090750173
0.267932 0.11694768 0.092415571
-0.27019799 0.15210259 0.09439715
-0.015599284 0.18698099 0.096383572
0.21529962 0.18698099 0.097429395
-0.195088 0.27657431 0.09303727
-0.27019799 0.06414739 0.10521928
-0.27019799 0.14457873 0.10455526
-0.12902078 0.18698099 0.10050997
0.24929745 -0.30030301 0.11220986
0.267932 -0.20478362 0.11908679
0.267932 -0.12897705 0.11300843
0.267932 -0.093158625 0.11242399
0.267932 -0.073599681 0.11970429
0.267932 -0.058687806 0.11908662
-0.27019799 0.1252667 0.11778957
-0.27019799 0.17130031 0.11744981
0.0055261273 0.18698099 0.11059474
0.018172275 0.18698099 0.1150443
-0.23987281 0.30030304 0.11153383
-0.10077871 -0.30030301 0.12678061
0.047432587 -0.30030301 0.12629616
0.19745508 -0.30030301 0.1223822
-0.27019799 -0.27660269 0.12245651
-0.27019799 -0.14732398 0.12224705
0.267932 -0.030954212 0.12835149
-0.27019799 0.15251884 0.12732558
0.267932 0.15460421 0.12813532
-0.18977737 0.18698099 0.12234481
-0.10700785 0.18698099 0.12414412
-0.088616222 0.18698099 0.12017231
-0.048928712 0.18698099 0.12929171
-0.028100125 0.18698099 0.12592345
0.23097198 0.18698099 0.12182046
-0.27019799 0.24707644 0.120198
-0.25784755 -0.30030301 0.13153252
-0.18142018 -0.30030301 0.13808423
-0.072801903 -0.30030301 0.13323388
0.02332373 -0.30030301 0.13695863
0.267932 -0.10809409 0.13131176
-0.27019799 0.060138859 0.13005933
-0.12241126 0.18698099 0.13650438
0.016118273 0.18698099 0.13271488
0.19304457 0.18698099 0.13028967
-0.21872726 -0.30030301 0.14804921
-0.19551244 -0.30030301 0.14993629
-0.019220747 -0.30030301 0.1468658
0.095364355 -0.30030301 0.14950566
-0.27019799 -0.227089 0.14015883
0.267932 -0.17392297 0.14145896
-0.27019799 -0.069915175 0.14075482
-0.090040743 0.18698099 0.14487904
-0.056761995 0.18698099 0.14875574
-0.27019799 0.20213184 0.14734247
-0.27019799 0.26452133 0.14824066
-0.23981847 -0.30030301 0.15395838
-0.10133481 -0.30030301 0.15981403
0.11209913 -0.30030301 0.15990728
0.2440324 -0.30030301 0.15244293
-0.27019799 -0.12301902 0.15010853
0.058356255 0.18698099 0.15244484
-0.22531445 -0.30030301 0.16989237
-0.19034643 -0.30030301 0.16397189
0.18228889 -0.30030301 0.16337091
0.267932 -0.164377 0.16521907
-0.27019799 -0.14116403 0.16941202
0.267932 -0.0039332286 0.16443384
0.267932 0.0095672905 0.16059032
0.12718584 0.18698099 0.16090232
-0.195088 0.28445327 0.16436291
-0.26820654 0.30030301 0.1626865
-0.16339652 -0.30030301 0.17574178
0.15966961 -0.30030301 0.17556205
0.267932 -0.18521653 0.17588536
0.267932 -0.075243212 0.17970037
-0.27019799 -0.042936444 0.17988557
0.267932 -0.0020405278 0.17500876
0.267932 0.032930598 0.17079711
-0.27019799 0.059066676 0.17400008
0.267932 0.09356086 0.17788446
-0.085758626 0.18698099 0.17542525
0.20705067 0.18698098 0.17635964
0.22054453 0.18698099 0.17867482
0.2319936 0.18698099 0.17019138
-0.25967458 -0.30030301 0.18516517
-0.17740558 -0.30030301 0.18997888
-0.071609162 -0.30030301 0.18222976
-0.057959184 -0.30030301 0.18729186
0.24098982 -0.30030301 0.18307257
-0.27019799 0.094223067 0.18242857
0.267932 0.15767628 0.185911
-0.18230805 0.18698099 0.18810681
0.11842221 0.18698099 0.1855589
-0.26815534 -0.30030304 0.19034009
-0.1501697 -0.30030301 0.194949
-0.083371624 -0.30030301 0.19785166
0.18047073 -0.30030304 0.19118853
-0.27019799 -0.075642921 0.19275191
-0.27019799 -0.057287201 0.19176941
0.267932 0.033540204 0.19800472
-0.12804183 0.18698099 0.19019453
-0.27019799 0.20251751 0.19075358
-0.195088 0.22859848 0.19741938
-0.27019799 0.27555338 0.19317263
-0.2488586 0.30030301 0.1974211
-0.20343068 -0.30030301 0.20594029
-0.17407891 -0.30030304 0.20722204
-0.12759627 -0.30030301 0.2034041
0.095142931 -0.30030301 0.20116319
0.16900682 -0.30030301 0.20803174
0.22376624 -0.30030301 0.20784007
0.24977386 -0.30030301 0.20034534
-0.27019799 -0.17700185 0.20670596
0.267932 -0.16474436 0.2057085
-0.27019799 -0.064161494 0.20212495
0.267932 -0.02647426 0.2020092
0.267932 0.064932495 0.20101705
-0.27019799 0.079709969 0.20981494
-0.27019799 0.1301921 0.20082483
-0.14063829 0.18698099 0.20424418
0.16334952 0.18698098 0.20899807
0.22051094 0.18698098 0.20333983
-0.26321089 -0.30030301 0.21891156
0.010507554 -0.30030301 0.21857783
-0.27019799 -0.23022713 0.2111849
0.267932 -0.21640106 0.21652816
0.267932 -0.18732336 0.21744397
0.267932 -0.017016739 0.21271636
-0.27019799 0.094499722 0.21496797
-0.04745977 0.18698099 0.2100922
0.10436806 0.18698099 0.21236454
0.11064661 0.18698099 0.21799675
0.1467949 0.18698099 0.21402428
0.19846959 0.18698098 0.21862043
-0.195088 0.20469925 0.21981524
-0.26136303 0.30030301 0.21969412
0.0056119673 -0.30030304 0.2285268
-0.27019799 -0.18764766 0.22591619
0.267932 -0.16555773 0.22948563
0.267932 -0.097391985 0.22662461
0.267932 -0.024177805 0.22338808
-0.18345769 0.18698099 0.22409452
0.18814726 0.18698099 0.22918618
0.25208184 0.18698099 0.22024621
0.267932 0.18203942 0.22704552
-0.195088 0.19981442 0.22967474
-0.19954593 0.30030301 0.22629394
-0.24362743 -0.30030298 0.23212028
-0.22239749 -0.30030298 0.23181815
-0.20991202 -0.30030304 0.23516902
-0.086127341 -0.30030301 0.23294398
-0.064181089 -0.30030301 0.23661056
0.267932 -0.25965366 0.23265578
-0.27019799 -0.13226403 0.23719856
-0.27019799 -0.10009505 0.23860821
0.267932 -0.05216901 0.2390161
0.267932 -0.03464517 0.23706147
0.267932 0.10987593 0.23711441
0.267932 0.13303241 0.23106413
-0.077130362 0.18698099 0.23471652
0.036428761 0.18698099 0.23124915
0.15227519 0.18698099 0.23119549
0.08045534 -0.30030301 0.24523428
0.14710537 -0.30030301 0.24387699
-0.27019799 -0.19679973 0.24142501
-0.27019799 -0.16561539 0.24145462
-0.27019799 -0.10019451 0.2454613
-0.27019799 -0.024081215 0.24635756
-0.19050427 0.18698099 0.2426613
-0.039053962 0.18698099 0.24999331
0.077415392 0.18698099 0.24027793
0.1796921 0.18698099 0.24611318
-0.195088 0.20061946 0.24136946
-0.195088 0.2244153 0.24987906
-0.27019799 0.26811668 0.24374041
-0.050168872 -0.30030301 0.25754836
0.063854046 -0.30030301 0.25743321
-0.27019799 0.1243114 0.25941041
-0.195088 0.18885913 0.25931621
0.085340463 0.18698099 0.25349122
0.09193825 0.18698099 0.25222415
0.10365483 0.18698099 0.25629425
0.1222218 0.18698099 0.25831276
-0.195088 0.19335952 0.25089592
-0.195088 0.2363337 0.25237268
-0.27019799 0.27282929 0.25535485
0.015604578 -0.30030301 0.26767564
0.23845993 -0.30030301 0.2631737
-0.27019799 -0.15394838 0.26323339
0.267932 0.049168907 0.26975182
-0.1710851 0.18698099 0.26266325
-0.195088 0.21327135 0.26197842
-0.27019799 0.29988205 0.26980162
-0.13314509 -0.30030301 0.27729627
0.267932 -0.2817013 0.27954656
0.267932 0.099129066 0.27745152
-0.010649189 0.18698099 0.27956727
0.23354931 0.18698099 0.27510139
-0.25806156 0.30030301 0.2745207
-0.26655725 -0.30030301 0.28139827
0.21795857 -0.30030301 0.28155282
0.267932 -0.021461807 0.28145996
-0.27019799 0.02706828 0.28746068
-0.15825331 0.18698099 0.28213704
-0.10952418 0.18698099 0.28055707
0.099784479 0.18698099 0.28993559
0.10903169 0.18698099 0.2837086
0.17780139 0.18698099 0.28827798
-0.27019799 0.21165295 0.28180701
0.2061711 -0.30030301 0.29085281
0.21128677 -0.30030301 0.29206616
-0.072501503 -0.29086262 0.29463699
-0.011992797 -0.29596856 0.29463699
-0.14986122 -0.28692752 0.29463699
-0.13435364 -0.28303614 0.29463699
-0.093644284 -0.28352752 0.29463699
-0.235319 -0.27290091 0.29463699
-0.20243835 -0.27223551 0.29463699
-0.14216086 -0.27339065 0.29463699
0.066068724 -0.27373981 0.29463699
0.090047307 -0.27174133 0.29463702
-0.16959758 -0.26342237 0.29463699
0.026570939 -0.26145828 0.29463699
0.22615717 -0.26760221 0.29463699
-0.27019799 -0.2578817 0.29281461
0.16507107 -0.25091416 0.29463699
0.267932 -0.25486147 0.2909787
-0.2575478 -0.24566944 0.29463699
-0.19747612 -0.2462754 0.29463699
-0.080114171 -0.24371058 0.29463699
-0.061031915 -0.2413387 0.29463699
0.0038137659 -0.24548641 0.29463699
0.22584198 -0.24399167 0.29463699
-0.07371255 -0.23714891 0.29463699
0.048122875 -0.23180561 0.29463699
0.22260948 -0.2321071 0.29463699
-0.2640081 -0.22677024 0.29463699
-0.16517472 -0.22698665 0.29463699
0.017230369 -0.22231641 0.29463699
-0.097372867 -0.21438831 0.29463699
0.084131084 -0.21925727 0.29463699
0.20917344 -0.21070634 0.29463699
0.21596386 -0.21585371 0.29463699
-0.14855501 -0.20496234 0.29463699
-0.12520944 -0.20978604 0.29463699
-0.048250653 -0.20945984 0.29463699
0.015146904 -0.20831895 0.29463699
0.17135382 -0.20905106 0.29463699
0.20582567 -0.20057583 0.29463699
0.0038515553 -0.19960079 0.29463699
0.10730174 -0.19702929 0.29463699
-0.13271308 -0.18565279 0.29463699
-0.01581154 -0.18654102 0.29463699
-0.18241534 -0.17141891 0.29463699
-0.12692584 -0.16267478 0.29463699
0.21789162 -0.16320433 0.29463699
0.24269253 -0.16097791 0.29463699
0.015501827 -0.15788448 0.29463699
-0.22436683 -0.14322533 0.29463699
0.0012554675 -0.14991648 0.29463699
0.042880125 -0.14237769 0.29463699
0.21370386 -0.14320254 0.29463699
-0.2402766 -0.13609169 0.29463699
0.10803246 -0.13293663 0.29463702
0.25103146 -0.13349093 0.29463699
0.15545437 -0.12910168 0.29463699
-0.26696858 -0.11836432 0.29463699
0.23102987 -0.11937 0.29463699
0.2600117 -0.10648755 0.29463699
0.085366979 -0.09784849 0.29463699
0.25789693 -0.090842232 0.29463699
-0.10918912 -0.081859134 0.29463699
-0.07053744 -0.082167774 0.29463699
0.267932 -0.089514293 0.29273355
-0.16704841 -0.075430959 0.29463699
0.11525606 -0.079184785 0.29463699
-0.25790536 -0.068385333 0.29463699
-0.21909535 -0.068886496 0.29463699
-0.10827595 -0.068687163 0.29463699
-0.023829587 -0.065527447 0.29463699
0.090292692 -0.065446563 0.29463699
-0.13977014 -0.057015944 0.29463699
0.19651347 -0.056258038 0.29463699
0.038042758 -0.046283141 0.29463699
0.060197547 -0.049222812 0.29463699
0.130714 -0.04786681 0.29463699
0.15748635 -0.043444071 0.29463699
-0.23588564 -0.030831605 0.29463699
-0.0093256151 -0.032024976 0.29463699
0.036167368 -0.036421318 0.29463699
0.24513693 -0.034613632 0.29463699
-0.22640879 -0.024803173 0.29463699
-0.15539883 -0.027014855 0.29463699
0.06874498 -0.020480337 0.29463699
-0.27019799 -0.011489943 0.2918756
-0.25158703 -0.016257115 0.29463699
0.050957859 -0.017259516 0.29463699
0.11248997 -0.016861781 0.29463699
-0.2318913 -0.0073937997 0.29463699
0.10454076 -0.0069922656 0.29463699
-0.11629871 0.0057854056 0.29463699
-0.022266608 0.0046708551 0.29463699
-0.26818848 0.014121458 0.29463699
-0.063159749 0.016945392 0.29463699
0.024565715 0.026197419 0.29463702
-0.22832149 0.037664611 0.29463699
0.23654673 0.037616856 0.29463699
0.1321559 0.047570229 0.29463699
0.15011548 0.044637717 0.29463699
-0.22736491 0.055444181 0.29463699
-0.17910644 0.057214264 0.29463699
0.2253224 0.053649709 0.29463696
-0.095604725 0.060636774 0.29463699
0.026929699 0.065113589 0.29463699
-0.24730861 0.077694215 0.29463699
-0.10607825 0.071227849 0.29463699
0.13587426 0.074585147 0.29463699
0.14934886 0.077653125 0.29463699
-0.18734461 0.081829876 0.29463699
-0.040866915 0.088273816 0.29463699
0.083200715 0.089774057 0.29463699
0.20151046 0.080686718 0.29463699
-0.17151548 0.090595573 0.29463699
0.071481027 0.098482341 0.29463699
0.20473795 0.0932118 0.29463699
-0.26752234 0.10832365 0.29463699
-0.25505003 0.10217719 0.29463699
-0.1411318 0.10513243 0.29463699
-0.098362088 0.10110103 0.29463699
-0.024830226 0.10101971 0.29463699
0.153422 0.10005905 0.29463702
0.10087175 0.11744033 0.29463699
0.13126577 0.11600065 0.29463699
-0.15970874 0.1386126 0.29463699
-0.054174013 0.13910805 0.29463699
0.13289206 0.13699016 0.29463699
0.267932 0.13925941 0.29339397
-0.24005476 0.14135554 0.29463699
-0.025432993 0.14534256 0.29463699
0.0074832514 0.14158902 0.29463699
0.18644068 0.1458237 0.29463699
-0.15846519 0.15730761 0.29463699
-0.029064141 0.15680632 0.29463699
0.0041138008 0.15744206 0.29463699
0.17815632 0.15375187 0.29463699
0.024058621 0.16862705 0.29463699
-0.24775368 0.17206028 0.29463699
-0.22057787 0.17689843 0.29463699
-0.15853131 0.17910662 0.29463699
-0.040005587 0.17141615 0.29463699
0.048351437 0.17701241 0.29463699
0.074992202 0.17104664 0.29463699
0.12629627 0.17378968 0.29463699
-0.0087391883 0.18698099 0.29356372
0.11009425 0.1866712 0.29463699
-0.23064044 0.22007243 0.29463699
-0.27019799 0.24000636 0.29393846
-0.22042912 0.29988137 0.29463699
-0.23807053 0.30030301 0.29194233
