# .PCD v0.7 - Point Cloud Data file format
VERSION 0.7
FIELDS x y z
SIZE 4 4 4
TYPE F F F
COUNT 1 1 1
WIDTH 975
HEIGHT 1
VIEWPOINT 0 0 0 1 0 0 0
POINTS 975
DATA ascii
-0.13478425 -0.35088313 -0.26291901
0.19332853 -0.35591337 -0.26291901
0.18520004 -0.34941447 -0.26291901
-0.15081832 -0.32924414 -0.26291901
-0.13420197 -0.32875285 -0.26291901
-0.12610641 -0.32667732 -0.26291901
0.045341805 -0.32532901 -0.26291901
0.084632874 -0.31591976 -0.26291901
0.18296015 -0.31915101 -0.26291901
-0.17905237 -0.30232728 -0.26291901
0.12163953 -0.30062032 -0.26291901
-0.20815872 -0.28091806 -0.26291901
-0.16444485 -0.27437055 -0.26291901
0.19087496 -0.27821815 -0.26291901
-0.10869053 -0.26902738 -0.26291901
0.058999535 -0.26138759 -0.26291901
0.14783989 -0.26251906 -0.26291901
-0.14169173 -0.2596316 -0.26291901
-0.15428297 -0.24739949 -0.26291901
-0.11503778 -0.24742769 -0.26291901
-0.046738215 -0.24134853 -0.26291901
0.13558517 -0.24379843 -0.26291901
-0.16960068 -0.23434226 -0.26291901
-0.071295142 -0.23053378 -0.26291901
0.048673071 -0.2335833 -0.26291901
0.12443338 -0.23741491 -0.26291901
-0.20522423 -0.22419237 -0.26291901
0.12562278 -0.22465296 -0.26291901
0.20104544 -0.22853504 -0.26291901
0.14754595 -0.21022156 -0.26291901
-0.11261758 -0.20506689 -0.26291901
0.19848694 -0.20760837 -0.26291901
0.14633881 -0.1996478 -0.26291901
-0.18448299 -0.16687083 -0.26291901
0.10204792 -0.15343225 -0.26291901
0.10940693 -0.13752431 -0.26291901
0.01510644 -0.12365113 -0.26291901
-0.096633166 -0.11756195 -0.26291901
-0.021070257 -0.11439209 -0.26291901
0.14379354 -0.11718406 -0.26291901
0.011913007 -0.10573222 -0.26291901
0.014906041 -0.093453735 -0.26291901
0.08504688 -0.09008944 -0.26291901
0.097874075 -0.067094401 -0.26291901
-0.14698154 -0.043259054 -0.26291901
-0.066624194 -0.04832153 -0.26291901
-0.024305485 -0.042174816 -0.26291901
-0.016343422 -0.046225369 -0.26291901
0.056365959 -0.046869844 -0.26291901
0.19277355 -0.040118679 -0.26291901
-0.083616741 -0.037878521 -0.26291901
0.077164002 -0.035511494 -0.26291901
-0.21741809 -0.026217282 -0.26291901
-0.19220407 -0.029043853 -0.26291901
-0.18191752 -0.025023878 -0.26291901
0.024300214 -0.028236898 -0.26291901
0.094127238 -0.028548878 -0.26291901
0.1529706 -0.020887032 -0.26291901
-0.1582634 -0.018306758 -0.26291901
-0.10792215 -0.014937453 -0.26291901
-0.086179644 -0.014335819 -0.26291901
0.015146196 -0.015984029 -0.26291901
0.2026066 -0.01658836 -0.26291901
-0.086524203 0.018550884 -0.26291901
-0.17186494 0.026061255 -0.26291901
-0.10316599 0.034260623 -0.26291901
-0.06617865 0.038230058 -0.26291901
-0.19931638 0.04209581 -0.26291901
0.19257718 0.054201119 -0.26291901
-0.20006599 0.068146601 -0.26291901
0.009440368 0.069575556 -0.26291901
0.056173645 0.067171298 -0.26291901
0.072690412 0.071358606 -0.26291901
0.039470922 0.089406438 -0.26291901
-0.016673423 0.096955404 -0.26291901
-0.028892195 0.1134208 -0.26291901
0.087952606 0.11812494 -0.26291901
0.18216121 0.12766236 -0.26291901
-0.15969774 0.13319102 -0.26291901
-0.20224568 0.15050408 -0.26291901
0.10757312 0.15025494 -0.26291901
0.15312569 0.15986064 -0.26291901
0.16183636 0.15745789 -0.26291901
0.12294573 0.16889167 -0.26291901
-0.21372828 0.17127229 -0.26291901
0.028069463 0.17226097 -0.26291901
-0.055980712 0.18448956 -0.26291901
0.14774311 0.18091352 -0.26291901
0.16357556 0.18962353 -0.26291901
-0.22303 0.19981882 -0.26204956
0.15834753 0.22474141 -0.26291901
-0.19046856 0.25787118 -0.26291901
-0.16157605 0.25955495 -0.26291901
0.032403599 0.25405014 -0.26291901
0.081657819 0.26914197 -0.26291901
-0.22303 0.27554417 -0.26161915
-0.18899359 0.27166149 -0.26291901
-0.023527712 0.28029585 -0.26291901
0.047617145 0.29675767 -0.26291901
0.074943155 0.29672128 -0.26291901
-0.0068489909 0.30168205 -0.26291901
-0.19361672 0.31882605 -0.26291901
0.15944695 0.31251535 -0.26291901
-0.18582809 0.35988125 -0.26291901
-0.087996602 0.35330099 -0.26291901
-0.050980829 0.35872716 -0.26291901
-0.0021700934 0.36212099 -0.26013252
-0.051070616 -0.36212099 -0.25420663
0.2043 -0.27262214 -0.25886306
0.2043 -0.17113127 -0.25803038
0.20430002 -0.10036021 -0.25414631
0.2043 -0.041601162 -0.25427341
-0.22303 0.070535257 -0.2572062
-0.22303 0.17126191 -0.25703347
0.2043 0.23067652 -0.25585994
0.080783673 0.36212099 -0.25806692
0.19112061 -0.36212099 -0.24135134
-0.22303 -0.31444466 -0.24649648
-0.22303 -0.30001014 -0.24380891
0.20704485 -0.10228777 -0.24269401
0.207075 0.01434378 -0.24246523
-0.22303 0.027572513 -0.24960449
0.20509152 0.035416048 -0.24269399
-0.22303 0.049170792 -0.24390775
0.019707866 0.36212099 -0.24132083
0.14151847 0.36212099 -0.24360241
-0.11909571 -0.36212099 -0.23295359
0.207075 -0.27388519 -0.23731275
-0.22303 -0.23513933 -0.23170945
-0.22303 -0.09450829 -0.23477715
-0.22303 -0.025592431 -0.23021442
0.207075 0.047798716 -0.23694338
-0.071874134 -0.36212099 -0.2284618
-0.22303 -0.22781679 -0.22642015
-0.22303 -0.11326395 -0.22399285
-0.22303 0.10027409 -0.22776684
-0.22303 0.1608516 -0.22580361
0.207075 0.30548555 -0.22130281
-0.2081317 0.36212099 -0.22000714
0.13344298 0.36212099 -0.22227144
0.207075 -0.33278668 -0.21374485
-0.22303 -0.31464797 -0.2113722
0.207075 -0.15413643 -0.21580824
-0.22303 -0.13240427 -0.21573475
-0.22303 -0.07519868 -0.21728075
0.207075 0.10743827 -0.2152072
0.207075 0.17909889 -0.21093932
0.207075 0.18203244 -0.21721607
0.207075 0.22255564 -0.21183652
0.207075 0.30803117 -0.21616006
-0.21462789 0.36212099 -0.21072371
-0.042796515 0.36212099 -0.21713006
-0.0048964992 -0.36212099 -0.20436475
0.14771406 -0.36212099 -0.20086668
-0.22303 -0.29628503 -0.20215231
0.207075 -0.19235219 -0.20408067
-0.22303 -0.1730487 -0.20309399
-0.22303 -0.16483951 -0.20737538
-0.22303 0.026976436 -0.20428501
-0.22303 0.19713402 -0.20441815
0.062300809 0.36212099 -0.20364252
0.14485399 0.36212099 -0.20154129
0.15816025 -0.36212099 -0.19560066
-0.22303 -0.34836149 -0.19341105
-0.22303 0.00046384335 -0.19241324
-0.031045809 0.028208472 -0.1960389
0.036009949 0.031948432 -0.19617051
0.12362535 0.037132502 -0.19631328
7.1855262e-05 0.056056548 -0.19353533
0.207075 0.055968687 -0.1941362
-0.047271308 0.060172141 -0.19277886
0.22091693 0.29699308 -0.19857207
0.207075 0.32042336 -0.19426498
0.20685259 -0.36212099 -0.18705611
0.207075 -0.33488798 -0.18058494
-0.22303 -0.29122883 -0.18932745
-0.22303 -0.23187707 -0.18227579
-0.22303 -0.05873701 -0.1803772
0.079291359 -0.045900181 -0.18217097
-0.040522903 0.088206254 -0.18738091
-0.041293096 0.095223725 -0.18474725
0.10185649 0.090979688 -0.18574795
0.11830632 0.090684958 -0.18579045
0.13937442 0.098788343 -0.18265821
-0.15323985 0.36212099 -0.18398978
-0.10867985 0.36212099 -0.18980789
-0.19841586 -0.36212099 -0.17064646
-0.22303 -0.31789243 -0.17178808
-0.22303 -0.17619541 -0.17689705
0.18205285 -0.0061318655 -0.17424116
0.19042601 0.032215584 -0.17783168
0.13712606 0.05423791 -0.17958549
0.207075 0.075593524 -0.17584819
-0.0882027 0.088865362 -0.17555982
0.067038447 0.10989886 -0.17878354
-0.22303 0.11428971 -0.17159896
-0.048791774 0.12185998 -0.17476965
-0.030253671 0.12629573 -0.17302603
0.207075 0.13099176 -0.17604575
-0.22303 0.1422317 -0.17205401
0.207075 0.22736578 -0.17852469
-0.22302999 0.28615901 -0.17464012
-0.22303 0.33764941 -0.17043123
-0.20411704 0.36212099 -0.17459458
-0.066505276 0.36212099 -0.17245205
-0.014474146 0.36212099 -0.17568037
0.095591411 0.36212099 -0.17998606
0.12392529 0.36212099 -0.17309618
-0.15354136 -0.36212099 -0.16681822
-0.22303 -0.27021259 -0.16623347
0.08132425 -0.080980681 -0.1655792
-0.094284721 -0.061089668 -0.16003893
0.13956365 -0.04532608 -0.16142616
0.1747039 -0.044656817 -0.16185106
-0.22303 0.0077413917 -0.16216746
0.13354 0.072713569 -0.16592753
-0.087695912 0.098781101 -0.16751826
-0.22303 0.10177749 -0.16442779
0.17921305 0.10916067 -0.16558582
0.18310755 0.11507331 -0.16249615
0.207075 0.32002431 -0.16752128
-0.22303 0.36164564 -0.16318297
-0.11923692 0.36212099 -0.1650572
-0.10827535 0.36212099 -0.16341305
-0.086742491 0.36212099 -0.1675732
0.052493699 0.36212099 -0.16926019
-0.1430054 -0.36212099 -0.15480255
-0.10984115 -0.36212099 -0.15170224
-0.048317619 -0.36212099 -0.15360676
0.207075 -0.32386625 -0.15420029
-0.22303 -0.26497614 -0.15530139
-0.22303 -0.17289025 -0.15916675
0.207075 -0.16271138 -0.15072072
0.019970939 -0.094876014 -0.15136477
-0.094640777 -0.070480898 -0.15691173
-0.22303 -0.019865833 -0.15092209
0.13354 0.014971418 -0.1504786
0.19042602 0.052633334 -0.15039578
0.17649227 0.12268787 -0.15851714
0.207075 0.13206798 -0.1595964
0.027490247 0.14394009 -0.15970784
0.11688189 0.14923495 -0.15428051
-0.00040964037 0.15260956 -0.15401675
0.207075 0.21220407 -0.1537053
0.207075 0.28049171 -0.15106526
-0.1690204 0.36212099 -0.15890756
-0.1108539 0.36212099 -0.15869325
0.207075 -0.30633241 -0.1408143
0.207075 -0.26891616 -0.14672327
0.207075 -0.13984844 -0.1415599
0.11705159 -0.1130632 -0.14088686
0.15757689 0.0042436356 -0.14081992
0.14272276 0.044351377 -0.14507338
0.17777655 0.063361965 -0.14277545
-0.22303 0.073489323 -0.14669459
-0.086453132 0.12186135 -0.14336538
-0.22303 0.13970162 -0.14971629
-0.084311679 0.17255121 -0.14120524
0.207075 0.17853716 -0.14571452
0.207075 0.27274007 -0.14738141
-0.20401014 0.36212099 -0.14944832
-0.21130016 -0.36212099 -0.13291177
-0.19068705 -0.36212099 -0.13037279
-0.15439701 -0.36212099 -0.13550875
-0.11738394 -0.36212099 -0.13027301
0.207075 -0.3229135 -0.13073774
-0.22303 -0.12907016 -0.138833
-0.095464602 -0.095817327 -0.13658988
-0.092193633 -0.01773916 -0.13568878
-0.091812357 -0.0092520947 -0.13335848
0.17624499 0.10356551 -0.13093805
0.14041474 0.15717629 -0.1367619
-0.014420239 0.17499699 -0.13201733
0.00045325095 0.17639391 -0.13323952
-0.20637012 0.36212099 -0.13800746
0.04450161 -0.36212099 -0.12071937
0.07056836 -0.36212099 -0.12011161
-0.22303 -0.13042872 -0.12839392
0.07445024 -0.12310576 -0.12851365
0.14352852 -0.093610249 -0.12734731
-0.093721673 -0.058369789 -0.12108138
0.14454708 -0.037391797 -0.12363452
0.19042602 0.073861293 -0.12389296
0.2154 0.075945199 -0.12251973
0.18642154 0.11457896 -0.12562925
0.2154 0.12046777 -0.12197967
0.14656521 0.16741841 -0.12646158
-0.038295697 0.17243458 -0.12288915
0.14497623 0.17223153 -0.12292276
-0.034826726 0.18296325 -0.12663434
-0.001534164 0.18182534 -0.12671164
0.207075 0.23640169 -0.12457398
0.207075 0.28792417 -0.1236397
-0.20669554 0.36212099 -0.12657841
0.069574028 0.36212099 -0.12218158
-0.19942884 -0.36212099 -0.11281833
-0.03135914 -0.36212099 -0.11330353
0.14484853 -0.36212099 -0.11499412
-0.22303 -0.32264218 -0.11257048
-0.22303 -0.30464268 -0.11598378
-0.22303 -0.28384936 -0.11497305
0.207075 -0.12816747 -0.11477587
0.13805431 -0.1067566 -0.11304508
0.15055168 -0.053683996 -0.11253574
0.21190087 -0.0084833913 -0.11958006
-0.086226873 0.12077066 -0.11986436
-0.22303 0.13887 -0.11631456
0.14430131 0.13133919 -0.11540978
-0.085268095 0.14168873 -0.11247106
-0.044047792 0.17059051 -0.11763892
0.018341582 0.18771483 -0.11772093
0.17076111 0.18391743 -0.11218078
-0.22303 0.20486587 -0.11614616
-0.22303 0.21125275 -0.11946027
0.207075 0.22985892 -0.11371242
0.207075 0.29266965 -0.11267783
-0.22303 0.34128851 -0.11928112
-0.10789478 -0.36212099 -0.10702532
-0.088543192 -0.36212099 -0.1009649
0.207075 -0.32691109 -0.10406896
0.207075 -0.25606304 -0.10772984
-0.22303 -0.12773463 -0.10383517
0.14559086 -0.11098072 -0.10844956
0.20199224 -0.044544205 -0.10153464
0.21185163 -0.032925438 -0.10854506
-0.090680733 0.010302671 -0.10605124
-0.088182881 0.07026162 -0.10657948
0.2017968 0.086216636 -0.10866968
-0.087362856 0.090170495 -0.10756856
0.036682546 0.16977179 -0.10554304
0.081532672 0.18711141 -0.10869317
-0.051589791 0.19457053 -0.10742591
-0.0086872298 0.19440649 -0.10815234
0.040667195 0.19796979 -0.10541819
-0.0067711808 0.20120054 -0.10335079
-0.057493225 -0.36212099 -0.09134271
0.207075 -0.30701217 -0.097255342
-0.22303 -0.27729893 -0.093388736
0.061459541 -0.14290784 -0.099964648
-0.072753958 -0.13983037 -0.094887264
0.13638808 -0.12440974 -0.090206705
-0.22303 -0.055199377 -0.099477887
-0.22303 -0.047038257 -0.090813369
-0.22303 0.065695792 -0.095855862
0.19042601 0.10070905 -0.098621391
0.19042601 0.14535768 -0.091228172
0.13354 0.18792525 -0.098394193
-0.075060986 0.20804951 -0.095195822
0.033345632 0.20352148 -0.09644825
-0.22303 0.29256535 -0.092404328
0.18431571 0.36212099 -0.095866367
0.10082023 -0.36212099 -0.081308685
-0.22303 -0.33568561 -0.082908735
0.207075 -0.29341045 -0.084730178
0.17885081 -0.083914176 -0.081895053
-0.22303 0.025884718 -0.080340512
-0.083268508 0.18186045 -0.084528089
0.1235913 0.36212099 -0.081026942
0.207075 -0.28948826 -0.075907677
-0.22303 -0.18618682 -0.078172207
-0.047527656 -0.15123123 -0.072692543
0.080512114 -0.15593798 -0.075872734
-0.22303 -0.063657433 -0.07138177
-0.22303 -0.057581626 -0.077762961
-0.093105689 -0.055717058 -0.077270143
0.19042599 -0.037966207 -0.079425462
-0.089492694 0.029652506 -0.07311064
0.19042601 0.050892845 -0.079748154
-0.22303 0.10703526 -0.070569597
0.17256191 0.1697759 -0.074208744
0.041085906 0.21142179 -0.078431323
0.088976547 0.21089004 -0.075751983
0.11390375 0.21102464 -0.073451698
0.207075 0.22173309 -0.070709452
0.207075 0.31031615 -0.079467624
-0.19949241 0.36212099 -0.079430163
0.16764542 0.36212099 -0.071023755
0.039063253 -0.36212099 -0.063618638
0.11292939 -0.36212099 -0.068962157
-0.22303 -0.30439979 -0.067670539
0.207075 -0.29193565 -0.062657349
0.096844897 -0.16149652 -0.063090272
-0.095344141 -0.11238523 -0.066174388
-0.094535768 -0.093673766 -0.063858427
0.18849489 -0.092554472 -0.069026366
-0.22303 -0.08684212 -0.063375257
-0.093341276 -0.06570027 -0.061568946
-0.22303 0.008907333 -0.067282759
-0.087594636 0.073299691 -0.066598393
-0.085665487 0.11940855 -0.066301167
-0.22303 0.17335856 -0.065654472
0.18020752 0.17867292 -0.061147705
0.21335842 0.19063999 -0.069723956
0.097834446 0.21460709 -0.066856392
0.18442832 0.21329506 -0.06369482
0.20707501 0.28085414 -0.065164454
-0.22303 0.31946772 -0.061228886
-0.14887378 0.36212099 -0.067387179
-0.04376575 0.36212099 -0.062305223
0.14404735 0.36212099 -0.060896046
0.11756141 -0.36212099 -0.056605838
-0.22303 -0.34973228 -0.053768829
-0.039202541 -0.16031374 -0.05020041
0.093127981 -0.16390119 -0.056548715
-0.094366699 -0.15549141 -0.055618431
0.096785389 -0.14068264 -0.059671432
0.207075 -0.14574435 -0.058785532
0.19042601 -0.13025463 -0.052184619
0.21539998 -0.11174511 -0.052155536
0.13542664 -0.097470671 -0.058828514
0.2154 0.1627073 -0.057621095
0.13550226 0.21669991 -0.059220649
0.207075 0.2271246 -0.059380144
-0.20813844 0.36212099 -0.050234638
-0.0042900667 0.36212099 -0.055817012
0.042921502 0.36212099 -0.05837914
0.054157477 -0.16533236 -0.048492085
-0.0080399839 -0.15636417 -0.048639778
-0.094170429 -0.090219632 -0.044684995
-0.22303 -0.076558262 -0.044446245
0.19042602 -0.078635514 -0.048476022
-0.22303 -0.0021189339 -0.042959105
-0.22303 0.013751626 -0.046781644
0.19042601 0.090139568 -0.042243734
0.19042601 0.13625279 -0.049123161
-0.22303 0.16148593 -0.0459002
0.2154 0.1908132 -0.040327638
0.047951318 0.22343153 -0.046492107
0.17109437 0.22048061 -0.04078218
0.11062329 0.36212099 -0.042018991
-0.16296032 -0.36212099 -0.037813723
0.0048988834 -0.36212099 -0.037151307
0.04212236 -0.36212099 -0.039822258
-0.22303 -0.34642446 -0.036885627
0.207075 -0.20811251 -0.033659667
0.098252177 -0.17060238 -0.030513659
-0.0077982023 -0.16559531 -0.035201691
0.0091239363 -0.166733 -0.030993132
0.19042601 -0.14731096 -0.030302489
0.207075 -0.13915776 -0.037645351
-0.095057316 -0.11551187 -0.030042743
-0.22303 -0.020733876 -0.036538862
-0.090804636 -0.013194739 -0.031749036
-0.22303 0.14654213 -0.033518802
0.21089455 0.2050153 -0.030740304
0.042968247 0.22617042 -0.031181047
0.207075 0.3498618 -0.034538776
-0.093074523 0.36212099 -0.031991769
-0.03835424 0.36212099 -0.034378428
0.010212556 0.36212099 -0.036179133
0.060232796 0.36212099 -0.031840477
-0.17340054 -0.36212099 -0.024630941
0.207075 -0.24032173 -0.021304771
-0.22303 -0.12330988 -0.02430588
0.19042601 0.027217982 -0.02720475
-0.22303 0.061144233 -0.026929133
-0.22303 0.075360686 -0.028999098
0.19042602 0.18261786 -0.02733326
-0.22303 0.34437925 -0.029965192
0.024650969 0.36212099 -0.02109205
0.069990128 0.36212099 -0.025690541
0.207075 -0.21025556 -0.011612918
0.19042601 -0.02758834 -0.012914967
0.19042601 -0.011266831 -0.011340033
0.19042601 0.21479768 -0.019380802
0.2071165 0.29343569 -0.01478879
0.13354 -0.15345469 -0.0021238457
0.13354 -0.14999124 -0.0063919807
0.19042602 -0.10196515 -0.0062528132
-0.22303 -0.084262908 -0.0094806626
-0.084666334 0.050428379 -0.0089450087
-0.22303 0.18499513 -0.003481999
0.2154 0.18258381 -0.0021590795
-0.081244677 0.2087099 -0.0063660182
-0.01621107 0.23342448 -0.0015529646
-0.22303 0.32419538 -0.005966831
-0.22303 0.33293271 -0.0061761755
-0.17495789 -0.36212099 0.0034226701
0.0057244878 -0.36212099 0.00023483415
0.13642868 -0.36212099 0.0079765245
0.19778594 -0.36212099 0.0084694922
-0.22303 -0.25041026 0.00043486431
-0.22303 -0.14748871 0.0094900131
0.20735592 -0.13316928 0.0037636934
0.15161757 -0.1145456 0.00052458164
0.2154 -0.11961628 0.0042481432
-0.22303 -0.037189007 0.0080267116
0.19042602 0.13352427 0.0023384858
0.19042601 0.17624824 0.0031370781
0.13354 0.21957494 0.0069531165
0.13354 0.22789814 0.009691176
0.041249849 0.23071201 0.00098182214
-0.22303 0.35181093 0.009926796
-0.16849385 0.36212099 0.0095679536
-0.14923605 0.36212099 0.00038300827
0.16291785 -0.36212099 0.016219474
-0.22303 -0.18936524 0.014262665
-0.026081929 -0.16831575 0.018334724
0.19042601 -0.14841585 0.010335624
0.2154 -0.12316512 0.01563153
-0.22303 -0.0025351346 0.011198973
0.16519868 0.19504505 0.010107556
0.049616031 0.22936232 0.011105924
0.089034766 0.22730675 0.014834587
-0.061121732 0.23397455 0.012505943
-0.12279786 0.36212099 0.012977667
-0.1122522 0.36212099 0.010135133
0.024403341 0.36212099 0.01025641
0.075037651 -0.36212099 0.02458675
0.12313331 -0.36212099 0.021751724
-0.22303 -0.32646561 0.023791771
0.207075 -0.23632051 0.02344317
0.03008105 -0.17026354 0.020083249
0.10643986 -0.17224428 0.026482832
-0.086978287 -0.16531876 0.021773573
-0.096033305 -0.1549065 0.02792808
-0.22303 0.00039827637 0.021841042
-0.22303 0.018051028 0.028314115
-0.22303 0.098105371 0.022822581
-0.084104687 0.13226391 0.022427253
0.19042601 0.22384572 0.027235573
-0.073779866 0.23378286 0.020011084
-0.16864371 0.36212099 0.020255018
-0.088386431 0.36212099 0.027191803
-0.14199431 -0.36212099 0.038737908
-0.22303 -0.050558642 0.039043296
-0.22303 0.055646475 0.037997726
0.19042599 0.12008357 0.037646502
-0.22303 0.15767324 0.038352475
0.2154 0.17581913 0.036193445
0.19042601 0.18739592 0.034193851
0.1872081 0.19172893 0.039251313
0.084024817 0.2253007 0.037521563
0.13354 0.22266504 0.03836412
-0.074971065 0.23249876 0.033652332
-0.052918784 0.23103502 0.038944796
-0.22303 0.24398863 0.035444912
-0.22303 0.35420811 0.034488156
0.20626362 0.36212099 0.03144215
0.012239891 -0.36212099 0.04841331
0.207075 -0.25660524 0.047141246
0.076908879 -0.16717927 0.049915478
0.13354 -0.13097051 0.041115694
-0.22303 -0.11898325 0.042948153
0.19042052 -0.10959337 0.047140047
0.205955 -0.092156678 0.047100287
-0.09193293 -0.061493922 0.0452304
-0.22303 -0.022736549 0.042518951
0.19042601 0.034166563 0.048548594
-0.086333498 0.072574586 0.045302764
0.19042601 0.15727231 0.045748126
-0.081439584 0.19120562 0.040076755
0.207075 0.33500814 0.04175273
-0.22303 0.34850043 0.043956071
0.054840013 0.36212099 0.040254474
0.207075 -0.33229274 0.05505044
-0.22303 -0.10654932 0.053598545
-0.22303 0.065205872 0.059453662
0.19042601 0.092967801 0.058941174
-0.22303 0.10647383 0.056506161
0.19042602 0.14366421 0.057274155
0.19042601 0.15547489 0.054440573
0.15971592 0.18918201 0.052680366
0.19042602 0.2016952 0.05794457
-0.22303 0.29475451 0.050615445
-0.22303 0.32883394 0.05633951
-0.17132048 -0.36212099 0.067411855
-0.1071962 -0.36212099 0.066168696
0.066357076 -0.36212099 0.064491071
0.08967264 -0.36212099 0.069244459
-0.22303 -0.29642767 0.061185606
0.207075 -0.28779513 0.067812197
0.207075 -0.17084917 0.06271866
0.026070405 -0.163075 0.062444307
0.207075 -0.16882566 0.061365079
-0.094277874 -0.12422254 0.069036111
0.19042601 -0.11975975 0.069161162
0.15269855 -0.10259099 0.067175902
0.21540001 -0.089442119 0.068533175
-0.089367174 -0.0046010129 0.061722212
-0.22303 0.056466341 0.061187547
-0.083955973 0.12347012 0.067138731
0.14044625 0.2175298 0.060195178
0.207075 0.26164529 0.066444173
0.05240988 0.36212099 0.067556173
0.13684902 0.36212099 0.063627943
-0.21475115 -0.36212099 0.071160212
-0.028866667 -0.36212099 0.076329097
0.13408542 -0.36212099 0.076044753
0.17908517 -0.36212099 0.070453279
0.207075 -0.29897332 0.07082729
0.20707498 -0.17435646 0.077256791
0.017669026 -0.15538202 0.079108045
0.055342488 -0.1596067 0.072834924
0.15684053 -0.10103665 0.071623325
-0.087049328 0.047801059 0.072877005
0.19042601 0.10209855 0.07483615
0.19042601 0.21242303 0.079134092
0.20707501 0.301065 0.074218355
-0.2190996 0.36212099 0.073028818
-0.023383174 -0.36212099 0.080437452
-0.22303 -0.25878096 0.086629659
0.093310088 -0.1533231 0.089723244
0.12818223 -0.15801382 0.082198679
-0.092913501 -0.096219212 0.085899748
0.20564826 -0.073488273 0.08612372
0.19042601 -0.053174015 0.086299688
-0.088545829 0.0096562449 0.081299789
-0.085006662 0.092495054 0.088188365
-0.084442295 0.10697009 0.084671378
0.21259688 0.18900236 0.089730293
0.083357915 0.2112076 0.084011815
0.16418019 0.21411347 0.08492814
-0.22303 0.31028181 0.084235206
0.056734718 0.36212099 0.084012911
0.20321611 0.36212099 0.082523823
-0.15463866 -0.36212099 0.090354532
-0.13471788 -0.36212099 0.098372817
-0.12326495 -0.36212099 0.091284864
0.16338126 -0.36212099 0.098571517
0.18099323 -0.36212099 0.096467376
0.18872084 -0.089395277 0.092634104
0.19042601 -0.050198652 0.093130074
-0.22303 0.021114629 0.092198759
0.19042601 0.054011449 0.098989263
0.19545034 0.14372653 0.094316825
-0.22303 0.17955548 0.093892314
0.21540001 0.17840211 0.092478409
0.2017757 0.20566043 0.097995475
-0.16348003 0.36212099 0.092498615
0.049380872 0.36212099 0.093413308
-0.1423634 -0.36212099 0.10131534
0.17710602 -0.36212099 0.10650335
0.207075 -0.34543511 0.10329549
-0.22303 -0.31302908 0.10173716
-0.22303 -0.17783591 0.10931351
0.1554576 -0.081959911 0.10354958
0.21539998 -0.085100919 0.10615126
-0.088276744 0.010078708 0.10305625
-0.085692197 0.071176834 0.10588378
-0.035291772 0.20474952 0.10836174
0.14376469 0.20532435 0.10174876
-0.22303 0.33881503 0.1048062
-0.13003807 0.36212099 0.10923228
-0.12473734 0.36212099 0.10063386
0.14122957 -0.36212099 0.11312215
-0.22303 -0.29547232 0.11903852
-0.22303 -0.14974406 0.11247804
0.087332577 -0.14003663 0.1148264
-0.094156727 -0.13338 0.11261921
-0.093615055 -0.12144881 0.11638296
0.14734223 -0.12515672 0.11158074
-0.084165514 0.10659358 0.11003426
-0.22303 0.17359765 0.11605833
0.20676091 0.22819901 0.11124842
-0.22303 0.2758401 0.11352402
-0.015475571 0.36212099 0.11397089
0.16996203 -0.36212102 0.12451075
0.207075 -0.30479723 0.127491
0.043724217 -0.12650988 0.12956715
0.19042601 -0.10043976 0.1226404
0.20954752 -0.0882269 0.12281961
0.19091606 -0.025913829 0.1290402
-0.087652653 0.018838314 0.12542219
0.19042601 0.12366769 0.12996475
0.207075 0.32194942 0.12725477
-0.22303 0.36169538 0.12623072
0.10642209 0.36212099 0.12004459
0.13636471 0.36212099 0.12949204
-0.20788759 -0.36212099 0.13277835
-0.14364997 -0.36212099 0.13487588
-0.13974206 -0.36212099 0.13787876
-0.031733491 -0.36212099 0.13471967
0.13479269 -0.36212099 0.13022481
0.19512339 -0.36212099 0.13175352
0.207075 -0.25475585 0.1367217
0.0033333823 -0.12412192 0.13088636
0.13204095 -0.12269387 0.1376746
0.16736527 -0.10817057 0.13702615
0.19269216 -0.0075445585 0.13657507
-0.22303 0.014847577 0.13140944
0.19779578 0.078135572 0.13780843
0.11210033 0.17688048 0.13697156
0.14491281 0.17943224 0.13881201
-0.022085669 0.18378708 0.13670112
0.0086125061 0.36212099 0.13919762
0.12463976 0.36212099 0.13690773
-0.22303 -0.25822645 0.14821471
-0.22303 -0.1766368 0.14494109
-0.22303 -0.15556024 0.14163038
0.19042601 0.020586438 0.14132403
0.19042601 0.06612011 0.1422693
0.21539998 0.087733716 0.14934838
0.207075 0.16578022 0.14646304
0.11373784 0.17183492 0.14281867
0.16376069 0.17404947 0.14466766
-0.13847142 0.36212099 0.14541127
0.07282012 0.36212099 0.14299954
0.15593931 0.36212099 0.14373709
0.207075 -0.3412942 0.15122263
0.207075 -0.14102547 0.15610729
0.10983394 -0.10696128 0.15378363
-0.22303 -0.073169857 0.15802103
0.16048339 0.096157134 0.15346038
0.19042599 0.10190959 0.15147598
0.13354 0.11405411 0.15853906
-0.22303 0.12089299 0.15640211
0.21053357 0.13147451 0.15120235
-0.015574127 0.16814855 0.15176788
0.064102218 0.36212099 0.15147424
-0.22302999 -0.29378903 0.16787013
-0.22303 -0.26327476 0.16173078
-0.015003284 -0.082735583 0.16882741
0.15879592 -0.079291977 0.16357049
-0.22303 -0.05483827 0.16741833
-0.088344254 -0.0074539017 0.1606341
-0.087066144 0.022281094 0.16378663
-0.086052932 0.045145504 0.1688661
-0.22303 0.053817257 0.16911978
0.207075 0.11278036 0.16778862
-0.22303 0.12894736 0.16644955
0.13354 0.12553205 0.16474862
0.067388348 0.15248577 0.16082111
0.18034147 0.15165026 0.164983
0.207075 0.26346055 0.16908477
-0.11916241 -0.36212099 0.17041899
0.15645665 -0.36212096 0.17665437
0.1840632 -0.36212099 0.17416845
0.207075 -0.127275 0.17653833
-0.089379601 -0.036955342 0.17768067
0.13354 -0.016238432 0.17358354
0.19042601 0.052667245 0.17436096
-0.22303 0.076617911 0.1713547
-0.22303 0.095808916 0.17015645
-0.08313714 0.11262625 0.17729039
0.055256799 0.12941878 0.178083
0.082779422 0.12943473 0.17723735
0.045531403 0.13998097 0.17208488
-0.22303 0.2108252 0.17024419
0.207075 0.34067312 0.1702875
-0.16191095 0.36212099 0.17483662
0.0022314638 0.36212099 0.1702067
0.048423126 0.36212099 0.1754609
0.207075 -0.17831081 0.18684901
-0.22303 -0.14835179 0.18632269
-0.22303 -0.10081035 0.18787627
0.207075 -0.083036005 0.18473774
0.055826847 -0.061566867 0.18370466
0.1344862 -0.035668403 0.1887732
0.062755421 0.049417518 0.1892291
0.038212031 0.050247461 0.18999738
0.048473258 0.10789566 0.18804124
0.17478514 0.11657601 0.18671897
-0.22303 0.12176186 0.1875338
-8.0227852e-05 0.1200811 0.18399933
0.207075 0.20308575 0.18842341
0.207075 0.25650069 0.18570688
-0.22303 0.27259591 0.18297529
-0.14860496 0.36212099 0.18380184
-0.13661295 0.36212099 0.18092138
-0.11000343 -0.36212099 0.19655392
0.207075 -0.22277449 0.19235902
0.207075 -0.09812735 0.19021451
0.085778899 -0.034026537 0.19417731
-0.063337572 -0.027320113 0.19607861
0.024197415 -0.023061749 0.19804189
0.13628583 -0.0084423004 0.19692355
0.15750171 -0.00034350657 0.19873229
0.19042601 0.0012073666 0.19366217
0.207075 0.0055866335 0.19098575
0.019699227 0.076682344 0.1993479
0.036318373 0.079411522 0.19875622
0.16826053 0.088134274 0.19563885
0.15396985 0.094841465 0.19353533
0.00061700493 0.36212099 0.19476815
0.207075 -0.30392024 0.20036645
0.207075 -0.22256821 0.20805967
-0.22303 -0.15089557 0.2089729
-0.036972523 -0.0014793423 0.20269966
0.076646797 0.0013026502 0.2021275
0.14764524 0.0038757846 0.20185196
0.094369672 0.017921478 0.20362785
-0.045743156 0.032786809 0.20613036
0.013379835 0.033263348 0.20573728
0.17116465 0.031232454 0.20286156
0.1322917 0.046054058 0.20172948
0.045935947 0.053866282 0.20279902
0.066673398 0.050688244 0.20294163
0.15925893 0.051554315 0.20200625
0.17406046 0.0532979 0.20193286
0.035408616 0.063992999 0.20132013
0.207075 0.11044224 0.20636992
0.207075 0.32707092 0.20417215
-0.22303 0.34635997 0.20761015
-0.14111136 0.36212099 0.20894645
0.10578435 0.36212099 0.20461671
0.1165726 0.36212099 0.2096225
0.14228982 0.36212099 0.2051246
0.018182367 -0.36212099 0.21431223
-0.22303 -0.23465469 0.21850534
-0.22303 -0.22505672 0.21163315
-0.22303 0.045265138 0.21393561
-0.22303 0.099367544 0.21393915
-0.22303 0.14170754 0.21125835
0.207075 0.15783285 0.21923047
0.19790332 0.21595769 0.21872902
0.090499401 -0.36212099 0.22775716
-0.22303 -0.3142069 0.22063221
0.207075 -0.31322756 0.22199738
-0.22303 -0.22169656 0.22706078
0.207075 0.062226366 0.22113776
-0.22303 0.094135895 0.22203311
0.207075 0.30953261 0.22811623
-0.21453127 0.36212099 0.2276309
-0.060675438 0.36212099 0.22100085
0.20707498 -0.28024217 0.23394942
-0.22303 -0.22453304 0.23352386
-0.22303 0.05053553 0.23104297
-0.22303 0.10243145 0.2303569
-0.22303 0.30483669 0.23089787
0.05954542 0.36212099 0.23209751
0.155926 0.36212099 0.23334885
0.17558099 0.36212099 0.23957661
-0.22303 -0.14057863 0.24868399
0.2062176 -0.13992012 0.24048302
-0.22303 -0.098743752 0.24606594
-0.22303 -0.060330331 0.24572393
-0.22303 0.018122733 0.24285579
0.2043 0.012466699 0.24990267
-0.22303 0.02055411 0.24337003
-0.22303 0.11954574 0.24612266
0.2065413 0.11304782 0.240483
0.010479107 0.36212099 0.24591653
0.051440269 0.36212099 0.24481624
0.20429999 -0.32611912 0.25047588
-0.22303 -0.28178275 0.25374568
0.2043 -0.23089497 0.25753865
-0.22303 -0.025663137 0.25389773
-0.22303 -0.018659651 0.25216171
0.2043 0.15082431 0.25692225
-0.22303 0.30494007 0.25442162
-0.0040117949 0.36212099 0.25824162
-0.16289799 -0.36212099 0.26239827
0.044420775 -0.36212099 0.26251769
0.11282434 -0.36008132 0.26291901
0.16141599 -0.36024678 0.26291901
-0.071438596 -0.34274459 0.26291901
0.044746533 -0.33098161 0.26291901
0.11296246 -0.33620927 0.26291901
0.12009753 -0.33632112 0.26291901
0.096333459 -0.32820889 0.26291901
-0.05396606 -0.31149459 0.26291901
0.13981447 -0.30243555 0.26291901
-0.17252158 -0.28378335 0.26291901
-0.14414734 -0.285779 0.26291901
-0.19111238 -0.27318615 0.26291901
-0.051690347 -0.27825767 0.26291901
-0.039674468 -0.27549356 0.26291901
-0.22126581 -0.26787043 0.26291901
-0.040142268 -0.25469425 0.26291901
0.00091679394 -0.24359056 0.26291901
-0.04513377 -0.23549274 0.26291901
-0.17840078 -0.22857204 0.26291901
0.057145193 -0.22697283 0.26291901
-0.010639228 -0.21642211 0.26291901
0.043747507 -0.21605793 0.26291901
0.14818037 -0.21386579 0.26291901
0.079189777 -0.20803271 0.26291901
0.19875151 -0.19340028 0.26291901
-0.078668416 -0.18714802 0.26291901
-0.044797719 -0.18266627 0.26291901
0.18320028 -0.18383411 0.26291901
-0.10947724 -0.17733811 0.26291901
-0.078364432 -0.17909175 0.26291901
-0.01087385 -0.15348521 0.26291901
0.16634154 -0.15814126 0.26291901
0.19594334 -0.15380897 0.26291901
-0.19700453 -0.14204788 0.26291901
-0.021767041 -0.14141202 0.26291901
0.063520707 -0.14570361 0.26291901
0.1564268 -0.14672884 0.26291901
-0.10446329 -0.13707046 0.26291901
0.091059729 -0.12319823 0.26291901
-0.14469925 -0.11248082 0.26291901
-0.12781939 -0.11933161 0.26291901
0.15127996 -0.1083516 0.26291901
-0.20083898 -0.097006761 0.26291901
-0.15716273 -0.097432047 0.26291901
0.042645529 -0.095355831 0.26291901
0.095466048 -0.099116012 0.26291901
0.1686579 -0.096733183 0.26291901
0.18017554 -0.097371928 0.26291901
-0.19293424 -0.087386347 0.26291901
-0.0072083957 -0.071467385 0.26291901
0.12797166 -0.074610494 0.26291901
-0.082297638 -0.06623289 0.26291901
0.16342701 -0.065969065 0.26291901
-0.026214786 -0.057380609 0.26291901
0.017568357 -0.05934713 0.26291901
-0.12657538 -0.04559264 0.26291901
0.0035583004 -0.044609353 0.26291901
-0.18192992 -0.031266898 0.26291901
-0.12843128 -0.021049239 0.26291901
0.010709837 -0.028443813 0.26291901
0.029574484 -0.023205211 0.26291901
0.11948877 -0.028852254 0.26291901
0.13380137 -0.010933042 0.26291901
-0.18410119 0.0072482079 0.26291901
0.15865037 0.018074811 0.26291901
0.16612047 0.015873328 0.26291901
-0.055139415 0.029473215 0.26291901
0.040701613 0.025953278 0.26291901
0.16748296 0.020747378 0.26291901
-0.1907438 0.039982691 0.26291901
-0.14313141 0.032915071 0.26291901
-0.092085071 0.041669741 0.26291901
-0.039628781 0.04978992 0.26291901
0.055940852 0.043631919 0.26291901
-0.15474692 0.050893396 0.26291901
-0.069451496 0.050602634 0.26291901
-0.2148865 0.067920037 0.26291901
0.07020545 0.062021736 0.26291901
0.046600249 0.074062519 0.26291901
0.17011851 0.07081224 0.26291901
-0.16529644 0.087488517 0.26291901
-0.1275508 0.08817111 0.26291901
-0.061494917 0.082768753 0.26291901
-0.022656351 0.088766977 0.26291901
0.069763847 0.097303621 0.26291901
-0.22303 0.11477547 0.26258469
-0.086850271 0.11633708 0.26291901
-0.014721187 0.11784855 0.26291901
-0.018608779 0.1341262 0.26291901
0.14761445 0.13597751 0.26291901
-0.12310782 0.14576018 0.26291901
0.20216639 0.14191654 0.26291901
-0.1495354 0.15195036 0.26291901
-0.11832915 0.15515423 0.26291901
-0.1747317 0.16095439 0.26291901
0.19905621 0.17733701 0.26291901
-0.074154437 0.18980062 0.26291901
0.039192259 0.18994021 0.26291901
0.084062234 0.18826239 0.26291901
0.10105877 0.18276116 0.26291901
0.022151634 0.20982325 0.26291901
0.18613812 0.20668946 0.26291901
0.17282729 0.22122434 0.26291901
0.20267792 0.22721829 0.26291901
0.0078659058 0.24525382 0.26291901
0.086241476 0.24106325 0.26291901
0.093075916 0.24001098 0.26291901
0.17161801 0.24830639 0.26291901
-0.19069034 0.25800291 0.26291901
0.1821337 0.25520343 0.26291901
0.019530708 0.26194042 0.26291901
-0.047931023 0.27496886 0.26291901
0.088136144 0.27789664 0.26291901
0.20237307 0.27669379 0.26291901
0.10256019 0.28170455 0.26291901
-0.17601675 0.29468518 0.26291901
-0.085993722 0.30793965 0.26291901
0.0024041235 0.30477682 0.26291901
0.14041886 0.30488586 0.26291901
-0.18334602 0.31609902 0.26291901
0.035411067 0.31467643 0.26291901
0.1249776 0.31724533 0.26291901
0.018124066 0.32862067 0.26291901
-0.14447336 0.33463275 0.26291901
0.072423317 0.33892709 0.26291901
0.11936212 0.33468127 0.26291901
-0.057993561 0.34500456 0.26291901
0.069220796 0.34616548 0.26291901
-0.19962618 0.35986468 0.26291901
-0.055423539 0.356388 0.26291901
0.025029868 0.35923055 0.26291901
