# .PCD v0.7 - Point Cloud Data file format
VERSION 0.7
FIELDS x y z
SIZE 4 4 4
TYPE F F F
COUNT 1 1 1
WIDTH 979
HEIGHT 1
VIEWPOINT 0 0 0 1 0 0 0
POINTS 979
DATA ascii
0.035675123 -0.28206599 -0.28003803
0.077912584 -0.28206599 -0.28065366
0.20192327 -0.28147864 -0.28156102
0.14412034 -0.27394563 -0.28156099
-0.19061042 -0.26043606 -0.28156099
-0.052336276 -0.25578439 -0.28156099
-0.037989728 -0.25491816 -0.28156099
0.11805853 -0.25192225 -0.28156099
0.19976835 -0.25658986 -0.28156099
-0.20351461 -0.24021362 -0.28156099
-0.038519174 -0.24839994 -0.28156099
-0.003249675 -0.23640597 -0.28156099
0.0066032112 -0.23166552 -0.28156099
0.17162064 -0.22250529 -0.28156102
-0.21542515 -0.21216431 -0.28156099
-0.1211198 -0.21454036 -0.28156099
0.10426909 -0.21198873 -0.28156099
0.22458306 -0.214203 -0.28156099
0.21378376 -0.20243956 -0.28156099
-0.22066593 -0.19596796 -0.28156099
-0.17798138 -0.19911614 -0.28156099
0.15151766 -0.19918197 -0.28156099
-0.2208423 -0.1816009 -0.28156099
-0.1413987 -0.18287039 -0.28156099
-0.02162005 -0.18656456 -0.28156099
0.11942315 -0.18130244 -0.28156099
0.25310901 -0.18655249 -0.28070441
-0.14357984 -0.17517884 -0.28156099
0.1054672 -0.17877173 -0.28156099
0.23611012 -0.17809319 -0.28156099
-0.19453099 -0.16335195 -0.28156099
0.18442142 -0.16590546 -0.28156099
-0.24665302 -0.1472971 -0.28156099
-0.078741275 -0.14224599 -0.28156099
0.092122309 -0.14075117 -0.28156099
0.11326681 -0.14854841 -0.28156099
-0.0012394562 -0.13519496 -0.28156099
0.022017039 -0.1336565 -0.28156096
0.19287539 -0.13390088 -0.28156099
-0.16852996 -0.12096316 -0.28156099
0.091676682 -0.12384525 -0.28156099
-0.082591951 -0.11340332 -0.28156099
-0.0035887398 -0.11221492 -0.28156099
-0.071153894 -0.10442179 -0.28156099
-0.044045445 -0.10301968 -0.28156099
0.11051699 -0.10823241 -0.28156099
0.16406323 -0.10035995 -0.28156099
0.20746751 -0.10033427 -0.28156099
0.24729773 -0.10890138 -0.28156099
-0.22057442 -0.091612145 -0.28156102
0.15687171 -0.083816558 -0.28156099
0.23259205 -0.085050143 -0.28156099
-0.19801022 -0.07328251 -0.28156099
-0.13477573 -0.070494682 -0.28156102
0.14667432 -0.075106353 -0.28156099
0.18688184 -0.079260685 -0.28156099
-0.23336355 -0.065511733 -0.28156099
-0.11724947 -0.060421426 -0.28156099
-0.073824331 -0.069570765 -0.28156099
0.0017523468 -0.066788808 -0.28156099
0.12665741 -0.060543027 -0.28156099
0.25087291 -0.067147851 -0.28156099
-0.027777262 -0.05127389 -0.28156099
0.053618852 -0.051490676 -0.28156099
-0.19383737 -0.04685067 -0.28156099
-0.025130237 -0.046069637 -0.28156099
0.010950886 -0.04398147 -0.28156099
0.057998911 -0.033104762 -0.28156099
0.17501226 -0.030929394 -0.28156099
-0.088081807 -0.023196511 -0.28156099
-0.014037482 -0.021026365 -0.28156099
0.02097661 -0.028586052 -0.28156099
0.061604589 -0.020896455 -0.28156099
-0.21394357 -0.013613331 -0.28156099
-0.1135928 -0.011448189 -0.28156099
0.042252384 -0.019622013 -0.28156099
-0.17508918 -0.009840779 -0.28156099
-0.15516326 -0.0068635531 -0.28156099
-0.049307294 -0.0015882775 -0.28156099
0.078398019 -0.0092090815 -0.28156099
0.10768937 -0.0029195063 -0.28156099
0.19919647 -0.00074544549 -0.28156099
-0.16436122 0.0080593564 -0.28156099
-0.015972113 0.0023596063 -0.28156099
0.25310901 0.0020113662 -0.28015363
-0.24004686 0.016678602 -0.28156099
0.21493971 0.01688683 -0.28156099
0.13487077 0.02551866 -0.28156099
0.19944696 0.024237126 -0.28156099
0.21328728 0.028907612 -0.28156099
-0.060266107 0.043226019 -0.28156102
-0.0019711107 0.050763771 -0.28156099
0.13607208 0.053623572 -0.28156099
0.24034238 0.058414668 -0.28156096
-0.12805261 0.063815862 -0.28156096
0.13782367 0.067342028 -0.28156099
0.17694232 0.063299082 -0.28156099
-0.22693902 0.074010402 -0.28156099
-0.19008231 0.070346653 -0.28156099
-0.14877486 0.070659086 -0.28156099
-0.0621351 0.077444941 -0.28156099
-0.043110542 0.078803852 -0.28156099
-0.010440715 0.073452182 -0.28156099
0.0050709918 0.076616846 -0.28156099
-0.14975555 0.082725912 -0.28156099
-0.01293866 0.083908841 -0.28156099
-0.23842326 0.093435481 -0.28156099
-0.21361005 0.095778085 -0.28156099
-0.14855242 0.097254366 -0.28156099
0.21004274 0.0997499 -0.28156099
0.037089966 0.10481254 -0.28156099
-0.23668553 0.11240075 -0.28156099
0.18190382 0.11207994 -0.28156099
-0.14989512 0.12518501 -0.28156099
0.026739214 0.13680747 -0.28156099
0.089246646 0.1388513 -0.28156099
0.1904421 0.13336997 -0.28156099
0.21001875 0.13351846 -0.28156099
-0.007170409 0.14694062 -0.28156099
-0.15515016 0.16635889 -0.28156099
-0.07389912 0.16246992 -0.28156099
-0.019015886 0.1612834 -0.28156099
0.0024546385 0.16562553 -0.28156099
0.095714323 0.163094 -0.28156102
0.12801495 0.16631776 -0.28156099
0.1855308 0.16971594 -0.28156099
0.093194388 0.1770708 -0.28156099
0.031687621 0.18242063 -0.28156099
0.0097408369 0.19752991 -0.28156099
0.035117485 0.19484882 -0.28156099
0.25163332 0.19966227 -0.28156099
-0.15547518 0.20566614 -0.28156099
0.036933407 0.20925999 -0.28156099
0.19350748 0.20357099 -0.28156099
-0.21182317 0.21643306 -0.28156102
-0.13988581 0.21847683 -0.28156099
-0.085891709 0.21344022 -0.28156102
0.060358107 0.21812873 -0.28156099
0.078431845 0.21819764 -0.28156099
0.1136799 0.21993463 -0.28156099
-0.1705734 0.227236 -0.28156099
-0.06294214 0.22349347 -0.28156099
-0.0027574096 0.23866944 -0.28156099
0.073424183 0.24076201 -0.28156099
0.13895875 0.24970761 -0.28156099
-0.18982583 0.25149462 -0.28156099
0.14098707 0.25205702 -0.28156099
0.15339831 0.25308734 -0.28156099
0.16300002 0.25224549 -0.28156099
0.16953868 0.26031598 -0.28156099
-0.20634072 -0.28206599 -0.27048895
0.075315796 -0.28206599 -0.27544424
0.21887833 -0.28206599 -0.27036163
0.25310901 -0.12188006 -0.2726011
0.25425041 -0.077423073 -0.27206501
0.254296 0.13947245 -0.27013859
-0.040580068 0.26074901 -0.27385807
-0.12471689 -0.28206599 -0.26003596
-0.024055339 -0.28206599 -0.26514181
0.010865942 -0.28206599 -0.26541221
0.055950496 -0.28206599 -0.26468143
0.14476949 -0.28206599 -0.2650533
0.16316672 -0.28206599 -0.26244459
0.25310901 -0.25154713 -0.26247844
0.25314754 -0.21465828 -0.26205599
-0.25836843 -0.13066354 -0.26357371
-0.24839085 0.054812238 -0.26693135
0.25331312 0.086167321 -0.26773947
-0.24332002 0.10617539 -0.26007521
-0.22650725 0.23270082 -0.2606259
0.022862144 0.26074901 -0.26306629
-0.24094725 -0.28206599 -0.25891373
-0.17129424 -0.28206599 -0.25663811
-0.13580348 -0.28206599 -0.25960711
-0.078981481 -0.28206599 -0.25054389
0.254296 -0.16543393 -0.25740796
0.254296 -0.12370523 -0.25755653
-0.25395733 -0.019125368 -0.25446296
0.25555199 0.11791744 -0.25065714
0.25310901 0.22937897 -0.25396529
0.25033742 0.26074901 -0.25033441
0.08410351 -0.28206599 -0.24327724
0.097940296 -0.28206599 -0.24192026
-0.25800353 -0.24741168 -0.24827214
0.25555199 -0.069375619 -0.24030301
-0.25395617 -0.019104697 -0.24307233
-0.24866776 0.051741205 -0.24669009
-0.24684268 0.071980633 -0.24316028
-0.22619991 0.23462585 -0.24742483
0.25310901 0.23186702 -0.24333055
-0.10645969 0.26074901 -0.24896458
0.029315468 0.26074901 -0.24789199
0.20091687 0.26074901 -0.24742536
-0.14630744 -0.28206599 -0.23023583
0.074953683 -0.28206599 -0.2339849
-0.25886574 -0.18402633 -0.23777752
0.25555199 0.026759163 -0.23892032
-0.24874316 0.050905101 -0.23645225
-0.2279534 0.22364286 -0.23399821
-0.20352007 0.26074901 -0.23675007
-0.17477778 0.26229399 -0.23660764
0.14714636 0.26074901 -0.23950328
-0.25308719 -0.28206599 -0.22876832
0.25555199 -0.12871099 -0.22216511
-0.25629574 -0.063680127 -0.22504143
-0.25543129 -0.045548476 -0.22038645
-0.24888891 0.049288705 -0.22623739
-0.24834587 0.055310827 -0.22910447
-0.2431941 0.10734731 -0.22801876
0.254296 0.22010107 -0.2222514
0.05900605 0.26074901 -0.22732851
-0.15607728 -0.28206599 -0.21038882
0.14500375 -0.28206599 -0.2161594
-0.25812057 -0.24347988 -0.21193026
0.25555199 -0.16796082 -0.21257272
0.25555199 -0.045795109 -0.21647009
0.25555199 0.16664924 -0.21194577
0.25310901 0.24097002 -0.21588662
-0.1920853 0.26074901 -0.21964163
0.0073497593 -0.28206599 -0.20969498
0.087795362 -0.28206599 -0.20308791
0.25555199 -0.13408467 -0.201141
0.25555199 -0.04185909 -0.20814171
-0.24973083 0.039952196 -0.20275147
0.25555199 0.053434502 -0.20713088
-0.24752337 0.064432167 -0.20119742
0.25555199 0.067855552 -0.20009069
0.25555199 0.097133011 -0.20935336
0.25555199 0.17367697 -0.20736337
-0.22325422 0.25307801 -0.20966205
-0.15802488 0.25876001 -0.20490617
0.25310901 0.25096783 -0.20593122
-0.097768411 0.26074901 -0.20039813
-0.084421307 0.26074901 -0.20509467
-0.054179862 0.26074901 -0.20568115
0.1222157 0.26074901 -0.20272353
-0.13286342 -0.28206599 -0.19221678
0.25555199 -0.14509009 -0.19778551
0.25555199 -0.017642006 -0.19718647
-0.25332215 -0.0082157115 -0.19057049
-0.23830396 0.14911905 -0.19315463
-0.22380948 0.24960159 -0.19793923
-0.20212097 -0.28206599 -0.18766725
-0.1469015 -0.28206599 -0.18510854
-0.067299381 -0.28206599 -0.18384025
0.095435031 -0.28206599 -0.18975931
-0.2587865 -0.16621751 -0.18705273
-0.25214958 0.0078515066 -0.1865478
-0.24575575 0.083506227 -0.18396848
-0.242129 0.1172601 -0.1822212
0.11497027 0.26074901 -0.18117705
-0.17402709 -0.28206599 -0.17864628
0.12652364 -0.28206599 -0.17160824
0.1594435 -0.28206599 -0.17503342
0.24425951 -0.28206599 -0.17840153
-0.25887236 -0.18551284 -0.17802003
0.25555199 -0.18047766 -0.17938212
0.25555199 -0.018948052 -0.17120098
0.25555199 0.090775475 -0.1743407
0.25555199 0.10760383 -0.17363258
-0.028976498 0.26074901 -0.17483336
0.023420721 0.26074901 -0.17426343
-0.16145091 -0.28206599 -0.16577867
0.15330793 -0.28206599 -0.16964695
0.16827165 -0.28206599 -0.16981058
-0.2469863 0.070387907 -0.16967371
0.25555199 0.12763935 -0.16482858
-0.22506662 0.24172428 -0.16749161
-0.1021607 0.26074901 -0.16830812
-0.082889713 0.26074898 -0.16831563
-0.011679906 0.26074901 -0.16970296
0.14952001 0.26074901 -0.16735274
0.16148689 0.26074901 -0.16311058
0.095686823 -0.28206599 -0.15203403
0.1040276 -0.28206599 -0.15901917
0.25555199 -0.2095502 -0.15138024
0.25555199 -0.13733038 -0.15789239
0.25730899 0.038604856 -0.15585771
-0.24721508 0.067850895 -0.15167253
-0.14145248 0.26229399 -0.15316841
-0.004628554 0.26074901 -0.1595891
0.03355106 0.26074901 -0.15075555
-0.17499959 -0.28206599 -0.1451129
-0.15986374 -0.28206599 -0.14285806
-0.055796251 -0.28206599 -0.14118129
0.25730899 -0.020821191 -0.14190713
-0.2537095 -0.014682831 -0.14388369
0.25555199 0.17847529 -0.14902519
0.049999673 0.26074901 -0.14709195
-0.13086793 -0.28206599 -0.13950986
0.25310901 -0.27528295 -0.1368072
-0.25764027 -0.098460965 -0.1332057
-0.25004107 0.036511779 -0.13291013
-0.23823759 0.14965105 -0.1345081
0.25310901 0.25372678 -0.13465756
0.21564829 0.26074901 -0.13498053
-0.20628539 -0.28206599 -0.12570828
-0.1877868 -0.28206599 -0.12087781
-0.16163947 -0.28206599 -0.12266441
0.05565979 -0.28206599 -0.12094118
0.22321108 -0.28206599 -0.12381485
-0.25887614 -0.18636781 -0.12312506
0.25555199 -0.1893806 -0.12681642
0.26756135 0.010394924 -0.12362538
0.26523817 0.063599572 -0.12181675
0.25730899 0.080684349 -0.1240354
0.25555199 0.14595297 -0.12776881
0.25555199 0.15209807 -0.12392825
-0.13399695 0.26229399 -0.12963194
0.039865658 0.26074901 -0.1268989
0.17324182 0.26074901 -0.12085515
-0.16305919 -0.28206599 -0.11279977
-0.11954124 -0.28206599 -0.11461383
-0.03296461 -0.28206599 -0.11030976
0.010657299 -0.28206599 -0.11818491
0.11174197 -0.28206599 -0.11316022
0.25958005 0.086390309 -0.11978094
0.25893858 0.092846081 -0.11612843
-0.19125235 0.26074901 -0.11739635
0.22078389 0.26074904 -0.117647
-0.11809433 -0.28206599 -0.10261339
-0.053654142 -0.28206599 -0.10257408
0.024445496 -0.28206599 -0.10413196
0.12158148 -0.28206599 -0.10716942
0.25555199 -0.2272266 -0.10131551
-0.25867176 -0.20913805 -0.109589
-0.25858146 -0.14055206 -0.10001035
0.25730899 -0.08407528 -0.10498227
0.25730899 0.10927731 -0.10864615
-0.025593223 0.26074901 -0.10221909
-0.0015599616 -0.28206599 -0.096833169
0.086616375 -0.28206599 -0.091908127
0.2041834 -0.28206599 -0.098572828
-0.25872481 -0.15234786 -0.092772022
0.26625079 0.10690595 -0.093365908
0.25730899 0.14262185 -0.092397533
-0.2251409 0.24125898 -0.098736003
-0.062459029 0.26074901 -0.095817521
-0.057343766 0.26074901 -0.09558437
-0.048485976 0.26074901 -0.092488408
-0.012974767 0.26074901 -0.096276574
0.049609769 0.26074901 -0.091079339
0.077112235 0.26074901 -0.093618274
0.11339257 0.26074901 -0.091914028
0.254296 -0.2693806 -0.089695409
0.25555199 -0.23522176 -0.087301791
-0.25849366 -0.22320166 -0.08257924
-0.25696158 -0.080904439 -0.089193225
-0.25528061 -0.042847872 -0.085607879
-0.25414211 -0.02243799 -0.083734706
-0.24170557 0.12120114 -0.084607035
-0.24051598 0.13138811 -0.080614693
0.25555199 0.16823661 -0.08517009
-0.2286741 0.21912877 -0.083714917
0.25340614 0.23238 -0.088479862
-0.10181187 0.26074901 -0.088584095
-0.05590171 0.26074901 -0.081696719
0.092620783 0.26074901 -0.081790566
0.12314793 0.26074901 -0.086390376
0.1553717 0.26074901 -0.082135417
0.24835959 0.26074901 -0.083496511
0.254296 -0.2712037 -0.075204805
0.25555199 -0.18149541 -0.076623738
0.25555199 -0.16999531 -0.078487486
0.26286352 -0.1134427 -0.073537454
-0.25580975 -0.052333564 -0.076899238
0.28511462 0.0064200768 -0.070053093
-0.2371158 0.15864331 -0.079898521
-0.23141208 0.20026755 -0.077118501
-0.15894705 0.25876001 -0.070214055
-0.141453 0.26222932 -0.070552856
-0.090441175 0.26074901 -0.077509038
0.1062559 -0.28206599 -0.064595848
0.15801586 -0.28206599 -0.063958794
0.21244697 -0.28206599 -0.067615271
-0.25742996 -0.26668081 -0.064661443
-0.25802052 -0.24684131 -0.062402349
0.25555199 -0.23615639 -0.064174563
0.25555199 -0.18170938 -0.068841994
-0.25823396 -0.12442224 -0.068211749
-0.25797004 -0.11217104 -0.066691488
0.27831206 -0.059968088 -0.063097104
0.28529641 0.021156209 -0.069353379
-0.23992211 0.13614853 -0.062517874
-0.016244683 0.26074901 -0.064659387
0.21663219 0.26074901 -0.066211946
0.22719467 0.26074901 -0.0696491
0.14585681 -0.28206599 -0.050906055
0.254296 -0.25717863 -0.05293256
0.25555199 -0.16903052 -0.055020768
0.25730899 -0.13447562 -0.058396749
-0.25701427 -0.082267195 -0.054962665
-0.24165267 0.12169337 -0.056481726
0.26436523 0.14524819 -0.05607044
0.25730899 0.17585325 -0.056175388
-0.02020973 0.26074901 -0.058249623
0.11852738 0.26074901 -0.054479122
0.18564339 0.26074901 -0.051974688
-0.18500933 -0.28206599 -0.041189946
-0.083534583 -0.28206599 -0.046986409
0.0095875189 -0.28206599 -0.041142613
0.017716568 -0.28206599 -0.049977355
0.25555199 -0.20681524 -0.047222592
0.25555199 -0.17251518 -0.041633002
-0.25831038 -0.12796894 -0.047597662
0.26475194 -0.12331694 -0.045669049
-0.24634033 0.077551767 -0.049696192
0.25555199 0.2185277 -0.045875572
-0.037495852 0.26074901 -0.041551225
0.22229582 0.26074901 -0.0448374
-0.25495067 -0.28206599 -0.037821263
-0.035279755 -0.28206599 -0.038201116
0.25555199 -0.19704619 -0.034186747
0.28018373 -0.075739257 -0.03541401
-0.23890662 0.14428839 -0.039500974
-0.0035154074 0.26074901 -0.039583232
0.0070048384 0.26074901 -0.031110942
0.044551209 0.26074901 -0.034725644
0.25555199 -0.17845792 -0.021141607
-0.2523452 0.0051712734 -0.026029259
-0.24361965 0.10338688 -0.024402518
-0.2426236 0.11265677 -0.028091088
-0.24127296 0.12522732 -0.029735409
-0.22464226 0.24438217 -0.023389671
-0.065416902 0.26159638 -0.021958366
0.18639928 0.26074901 -0.026540011
-0.13491914 -0.28206599 -0.012711808
-0.25831011 -0.23711254 -0.017974254
-0.25889191 -0.18990725 -0.014622077
0.2847864 -0.071532622 -0.011884457
0.29580843 -0.034438558 -0.011874245
-0.25110945 0.022104442 -0.010162883
0.28663859 0.088588648 -0.018527878
-0.23720217 0.15795098 -0.015273958
-0.22456554 0.24486278 -0.011993011
0.068753451 0.26074901 -0.018163394
0.11158516 0.26074901 -0.017467357
-0.1753369 -0.28206599 -0.0066370592
-0.16068456 -0.28206599 -0.0021990687
-0.071208432 -0.28206599 -0.0062385798
0.10904201 -0.28206599 -0.0052136593
0.25730899 -0.15604106 -0.0095225815
-0.25668308 -0.073699571 -0.0055233389
0.30193099 -0.022095539 -0.0090937484
-0.22213618 0.26007789 -0.0063898936
-0.141453 0.2610248 -0.0065873563
0.16727726 0.26074901 -0.0016917959
0.22491428 0.26074901 -0.0083624274
-0.19959086 -0.28206599 0.0036653355
0.24857178 -0.28206599 0.0070542842
-0.25851989 -0.22113261 0.0070235841
0.25555199 -0.20312695 0.0023778155
-0.25880736 -0.17090355 0.0085958242
-0.25292522 -0.0027763755 0.00046569109
0.30193099 0.026392218 0.0049289102
-0.2477698 0.061699301 0.0091679394
-0.24415551 0.098399572 0.0043379087
0.18550047 0.26074901 0.0013037414
-0.15155853 -0.28206599 0.01102709
0.16317488 -0.28206599 0.015281446
0.18700033 -0.28206599 0.01315397
0.25555199 -0.25412351 0.016090937
-0.25882465 -0.17478947 0.013985217
0.25555199 -0.17885521 0.015417572
0.25730899 -0.15915862 0.018792661
-0.25809321 -0.11788811 0.010152884
0.29445034 -0.047478694 0.018685885
0.30193099 -0.017971708 0.015057831
0.30193099 0.018948112 0.018473547
0.30193099 0.041606851 0.019055791
-0.2466566 0.074044414 0.010836653
-0.22880799 0.21829021 0.011482321
-0.063155666 0.26074901 0.015259601
0.030321762 0.26074901 0.018586121
0.0063982829 -0.28206599 0.029227227
0.015902184 -0.28206599 0.024157077
0.13309501 -0.28206599 0.023690186
0.14784926 -0.28206599 0.025676772
0.19441031 -0.28206599 0.020213485
0.21040773 -0.28206599 0.021810591
-0.25704449 -0.27963066 0.025207423
0.25555199 -0.20061797 0.020075276
-0.25864786 -0.14363401 0.025478696
-0.25099084 0.023729924 0.027109567
-0.24682997 0.072121531 0.0290436
0.254296 0.22064762 0.027562968
-0.15683368 0.25876001 0.024164157
-0.020452831 0.26074901 0.025448233
-0.012119403 0.26074904 0.021975055
-0.19570282 -0.28206599 0.032248475
-0.13788778 -0.28206599 0.03370991
0.25730899 -0.1655553 0.032925576
-0.25747153 -0.094095573 0.033560559
0.30193099 0.020527696 0.039361246
-0.24297908 -0.28206599 0.041681975
-0.1586092 -0.28206599 0.041946501
-0.08039102 -0.28206599 0.042384744
0.21357852 -0.28206599 0.04170341
0.25555199 -0.25555694 0.048881039
-0.25887325 -0.18571714 0.047234371
-0.25823772 -0.12459521 0.045533724
0.27329999 -0.10845097 0.046870328
-0.25416517 -0.02285137 0.047917947
-0.24039124 0.13238786 0.041811612
-0.23981844 0.13697933 0.045993347
-0.23695305 0.15994777 0.041718137
0.25310901 0.20791513 0.048410475
-0.18216872 0.26074901 0.04312396
-0.17509228 0.26229399 0.049595945
-0.084597535 0.26074901 0.042450543
-0.067005463 0.26074904 0.047719032
0.048455268 0.26074901 0.040135004
0.23648694 0.26074901 0.044091001
-0.2432135 -0.28206599 0.059810162
0.023857113 -0.28206599 0.051846005
0.15936401 -0.28206599 0.058142968
0.25730899 -0.1513149 0.05465737
0.26344821 -0.13726915 0.054988753
-0.25835088 -0.12984888 0.057398893
0.30193099 0.0030434211 0.05016429
0.28778633 0.085531548 0.053827502
-0.23162104 0.19879791 0.057581253
-0.22303237 0.25446707 0.053057566
-0.012382796 0.26074901 0.058200669
0.0057967827 0.26074898 0.05297501
0.23769721 0.26074901 0.056371234
0.22530308 -0.28206599 0.066038094
0.254296 -0.25625283 0.069889642
0.25730899 -0.15356618 0.064318463
0.27469021 -0.097341992 0.066944078
0.27957991 -0.080947846 0.066848382
-0.2510311 0.023178082 0.067602023
-0.087087452 0.26074901 0.063473195
0.00064026564 0.26074901 0.063657969
0.15631376 0.26074901 0.063831687
-0.24708997 -0.28206599 0.076205738
-0.19524908 -0.28206599 0.072191633
-0.12993705 -0.28206599 0.072241366
-0.11870737 -0.28206599 0.070860311
-0.030902535 -0.28206599 0.077697106
0.06226971 -0.28206599 0.071306996
0.088682629 -0.28206599 0.07741344
-0.25881088 -0.17169492 0.079911843
0.25555199 -0.17220937 0.070065811
-0.25709334 -0.084311895 0.070003062
0.29293644 -0.023157766 0.072620258
-0.24784645 0.060849287 0.079322353
-0.24637701 0.077144839 0.072468653
-0.2365993 0.16278338 0.071271539
0.25310901 0.25281343 0.071700655
0.23777401 0.26074901 0.078258961
-0.11462592 -0.28206599 0.086754978
-0.025209589 -0.28206599 0.081741132
-0.018664232 -0.28206599 0.086140767
0.081215277 -0.28206599 0.086968884
0.2001211 -0.28206599 0.081304133
0.2355487 -0.28206599 0.080127254
0.25555199 -0.23990782 0.083484277
0.25730899 -0.14013875 0.083315611
-0.25216529 0.0076366505 0.087918006
-0.24904072 0.047605276 0.084801927
0.29055774 0.04632296 0.082650267
0.28744876 0.056127064 0.087918654
0.28275579 0.086198039 0.080559447
0.25730899 0.16669631 0.08273717
0.254296 0.21964286 0.087894537
0.25359413 0.22609401 0.083945744
-0.22589763 0.23651923 0.088787258
-0.14951327 0.25876001 0.088069648
0.18680383 0.26074901 0.08998663
0.22842982 0.26074901 0.084331125
-0.19773194 -0.28206599 0.091777533
0.012040451 -0.28206599 0.090571284
0.159256 -0.28206599 0.091621421
0.17636263 -0.28206599 0.09875913
0.254296 -0.26136458 0.094510227
-0.2559045 -0.054031767 0.097409241
0.28342783 -0.035141077 0.09922111
0.28905088 0.0026493175 0.094678834
-0.18724188 0.26074901 0.093615755
0.027096314 0.26074901 0.098460406
0.077422202 0.26074901 0.090731964
-0.028631553 -0.28206599 0.10781268
-0.25714472 -0.27626339 0.10915344
0.27713788 -0.057972763 0.10656098
-0.25478935 -0.034041032 0.10960048
-0.23768398 0.15408882 0.1089507
-0.23681763 0.16103338 0.1038978
-0.0081924172 0.26745099 0.10728832
-0.12546462 -0.28206599 0.11297628
0.15509944 -0.28206599 0.11131539
-0.25393075 -0.018648826 0.1138017
-0.24822614 0.056638695 0.11105998
-0.24219795 0.11661834 0.11037545
0.25758088 0.13959913 0.11057107
-0.23943633 0.1400423 0.11682171
-0.23268166 0.19133849 0.11706426
-0.22529002 0.24032499 0.11953953
-0.20901513 0.26074901 0.11696345
-0.063790284 0.26074901 0.11819556
-0.0062166173 0.26745099 0.11183712
0.010145795 0.26074901 0.11853207
0.020455061 0.26074901 0.11348604
0.054993946 0.26745099 0.11557769
0.077299096 0.26745099 0.11158704
0.15766892 0.26745099 0.11884485
-0.23054609 -0.28206599 0.12419783
0.042678922 -0.28206599 0.12890473
0.11708881 -0.28206599 0.12661123
0.12781981 -0.28206599 0.12912989
0.25555199 -0.19904445 0.12850432
0.27987289 0.014992137 0.12328222
-0.24232358 0.11544927 0.12055218
-0.23289113 0.18986529 0.12045316
-0.23152521 0.19947198 0.12747882
0.25555199 0.20398559 0.12708603
-0.22364958 0.25060272 0.12804368
-0.22062887 0.26074901 0.1240065
0.051108494 0.26074901 0.12099616
0.11481017 0.26745099 0.12744007
0.12667993 0.26074901 0.12317896
0.15103054 0.26745099 0.1261754
0.16436499 0.26122344 0.12363724
0.25310901 -0.27644897 0.13331588
0.25730899 -0.10537913 0.13544789
0.2761454 -0.0010354379 0.13373867
0.27572292 0.020828515 0.13560703
-0.12465131 0.26074901 0.13055891
-0.043914195 0.26309499 0.13999122
-0.035700344 0.26745099 0.13459343
-0.017746348 0.26074901 0.13134122
-0.0064048655 0.26745099 0.13863495
0.016881697 0.26074901 0.13518867
0.076828279 0.26745099 0.13440394
0.090338349 0.26074901 0.13606595
0.1165217 0.26745099 0.1339817
0.12050802 0.26074901 0.13253263
0.1309768 0.26074901 0.1361396
0.14258008 0.26074901 0.13053831
0.15504767 0.26074904 0.13960934
-0.23889731 -0.28206599 0.14219286
-0.16222027 -0.28206599 0.14443909
-0.15755562 -0.28206599 0.14765491
-0.031141754 -0.28206599 0.14404452
-0.25851521 -0.22150216 0.1495458
0.25730899 -0.07933712 0.1496322
-0.25171474 0.013810325 0.14072688
0.25730899 0.11048011 0.1427642
-0.23579586 0.1692237 0.14816406
0.25555199 0.17605357 0.14841573
0.25555199 0.18657732 0.14699611
-0.22023737 0.26074901 0.14825918
-0.12807937 0.26074901 0.14429417
0.046156526 0.26074901 0.14244057
0.17499596 0.26074901 0.14308938
-0.24297072 -0.28206599 0.15779294
-0.22880055 -0.28206599 0.15191847
0.1213156 -0.28206599 0.15743116
0.19655377 -0.28206599 0.15174018
-0.25864786 -0.21102698 0.15776236
-0.25876451 -0.16126533 0.15334809
0.25555199 -0.15125853 0.15934569
0.25555199 -0.12559354 0.15687583
-0.25296089 -0.0032651238 0.15872371
0.26907551 -0.0011882664 0.15536642
-0.24908559 0.047107629 0.15521798
0.25310901 0.24132103 0.15769523
-0.098416612 0.26074901 0.15471363
-0.013003427 0.26745099 0.15877652
0.11184403 0.26745099 0.15018991
-0.027329911 -0.28206599 0.16514507
0.13741651 -0.28206599 0.16940334
-0.25682536 -0.077380389 0.16307455
-0.25479382 -0.034121048 0.16968842
-0.25444725 -0.027908131 0.16707122
-0.25211638 0.0083065536 0.16922534
-0.25057331 0.029450987 0.16631287
0.26444682 0.057249717 0.16349301
0.25730899 0.097644091 0.16957432
-0.11160199 0.26027146 0.16791804
-0.033076469 0.26074904 0.16151583
0.20977935 0.26074901 0.16751394
0.071991242 -0.28206599 0.17537242
0.14707977 -0.28206599 0.17957824
-0.2579298 -0.24988854 0.17039478
-0.25881228 -0.17201006 0.17928892
0.25555199 -0.096066713 0.1701109
0.25730899 -0.029863583 0.17832482
-0.23823217 0.14969455 0.17190224
-0.23742881 0.1561341 0.17319812
-0.1407678 0.26229399 0.17104854
-0.03179476 0.26704293 0.17759328
-0.025053009 0.26074901 0.17673963
-0.011459325 0.26074901 0.17219092
-0.00034943037 0.26074901 0.17964895
0.063391641 0.26745099 0.17716318
0.076320522 0.26074901 0.17736787
0.15157712 0.26074901 0.17761882
-0.21836594 -0.28206599 0.18223725
-0.13299081 -0.28206599 0.18250236
-0.25835374 -0.23425163 0.18711841
0.25555199 -0.21524663 0.1832684
-0.25792229 -0.10995474 0.18231517
-0.25742924 -0.09300141 0.18659633
-0.24326603 0.10667792 0.18111102
-0.23839772 0.14836761 0.18325865
0.25555199 0.16781002 0.18273133
0.25555199 0.17767118 0.18176256
-0.14826699 0.25876001 0.18660289
-0.11448728 0.25944501 0.1889454
-0.0089808358 0.26074901 0.18004808
0.19395888 0.26074901 0.18343794
-0.19588794 -0.28206599 0.19684109
-0.25883836 -0.17787285 0.1995337
0.25555199 -0.13570911 0.19565243
-0.25569898 -0.050347511 0.19573255
0.25730899 -0.021977931 0.19182563
0.25730899 0.021941531 0.19466472
0.25555199 0.15855771 0.19821155
0.25555199 0.19688493 0.1901181
-0.16796802 0.25927061 0.19888353
-0.074018516 0.26074901 0.19774336
-0.033558995 0.26074901 0.19198532
-0.015070047 0.26745099 0.19720367
0.16691378 -0.28206599 0.20389932
-0.25815761 -0.12087686 0.20473255
-0.25668502 -0.073749684 0.20222969
0.25555199 -0.026904278 0.2066492
0.25416216 0.22609398 0.20679623
-0.22534761 0.23996435 0.20542766
-0.19585006 0.26074901 0.20827323
-0.13924524 0.26229399 0.20830542
-0.020218348 0.26074901 0.20250307
0.12950136 0.26074901 0.20321938
-0.25003323 -0.28206599 0.2135317
-0.2275914 -0.28206599 0.21518171
-0.1220582 -0.28206599 0.21049035
-0.042115852 -0.28206599 0.21734813
0.1166281 -0.28206599 0.21643564
0.17930043 -0.28206599 0.2135708
0.19591948 -0.28206599 0.21399923
0.22442493 -0.28206599 0.21781527
0.254296 -0.26073924 0.21967332
0.25555199 -0.24251726 0.21349984
-0.25884831 -0.19519813 0.21484914
0.25555199 -0.010840816 0.21937957
0.25555199 0.12076269 0.21951273
-0.22929828 0.21513434 0.21812226
-0.22809216 0.22277382 0.21589001
0.25310901 0.23614581 0.21683988
-0.02090703 0.268426 0.21553902
-0.014243226 0.26745099 0.21438241
0.1157435 0.26745099 0.21735838
0.25288963 0.26074901 0.21378216
-0.18946303 -0.28206599 0.22406277
0.030950323 -0.28206599 0.22950779
0.12420449 -0.28206599 0.22517166
0.254296 -0.27027491 0.22108927
-0.25876066 -0.20211862 0.22879693
0.25555199 -0.20607844 0.22236136
0.25555199 -0.13850851 0.22343898
0.25555199 -0.12794854 0.2269589
-0.25506133 -0.03891661 0.22474898
0.25555199 -0.024190988 0.22134131
-0.25152075 0.016468689 0.22071292
-0.2475315 0.064342082 0.22910826
-0.23170799 0.1981865 0.22378987
0.25555199 0.19641261 0.22804825
-0.18922669 0.26074901 0.22946616
-0.11260936 0.26162297 0.222881
0.059728235 0.26074901 0.22853749
-0.25800356 -0.24741071 0.23351935
0.25555199 -0.19835204 0.23875982
-0.23955816 0.13906571 0.23777613
0.25555199 0.16131669 0.23486516
-0.17402905 0.26074901 0.23829305
0.018489938 0.26745099 0.23671542
0.12327529 0.26074901 0.23941468
0.1172713 -0.28206599 0.24390601
0.25555199 -0.13836066 0.24274485
-0.25779536 -0.10406177 0.24726941
0.25555199 -0.079306439 0.24888852
-0.25524065 -0.042131282 0.24595401
0.25555199 -0.033238947 0.24309464
0.25555199 0.11170234 0.24934515
0.25555199 0.12799272 0.24022029
0.25555199 0.20269538 0.24722195
-0.16720524 0.26074901 0.24093878
-0.15390992 0.26074901 0.242154
-0.0113294 0.26074901 0.24871524
-0.0032200254 0.26074901 0.24375369
0.161219 0.2672464 0.24666734
-0.18957856 -0.28206599 0.25484905
-0.1415143 -0.28206599 0.2559844
-0.080161467 -0.28206599 0.25683883
0.15601985 -0.28206599 0.25377449
-0.2572411 -0.27302521 0.25298482
0.25310901 -0.26457337 0.25029191
0.25555199 -0.20025061 0.25082988
0.25555199 -0.11827105 0.25102064
-0.2557565 -0.051378429 0.25173053
-0.24956429 0.041798897 0.25868249
0.25555199 0.13627811 0.25386
0.25555199 0.21789461 0.25258306
-0.173917 0.26074904 0.25932068
-0.13478801 0.26074901 0.25375864
-0.10913412 0.26074901 0.25093973
-0.028208265 0.26074901 0.25400224
0.09963432 0.26745099 0.25793123
0.14574832 0.26074901 0.25414672
0.22890255 0.26074898 0.25015029
-0.25885054 -0.18060979 0.26219472
-0.25352335 -0.011345707 0.26417875
-0.25205779 0.0091094142 0.2631467
-0.25168452 0.014224423 0.26223558
-0.24888255 0.049359195 0.26631665
0.25310898 0.049037591 0.26607162
0.25310901 0.075989455 0.26482859
-0.24191673 0.11923571 0.26424283
0.254296 0.13832933 0.2602624
0.254296 0.15354154 0.26107511
0.25310901 0.16311102 0.26306939
0.161219 0.26514083 0.26406664
0.20061526 -0.28206599 0.27053183
-0.25823221 -0.12433966 0.27004093
0.25310901 -0.026730075 0.27405846
-0.25219661 0.0072075687 0.27520633
-0.24084806 0.12872627 0.27246106
-0.23226717 0.19425374 0.27190006
0.25310901 0.23655617 0.27505723
-0.12193421 0.26074901 0.27805623
0.10710782 0.26652819 0.27841499
0.11118327 0.26333851 0.27841496
0.13673487 0.26745099 0.27340502
0.14854082 0.26309499 0.2786133
0.17557073 0.26074901 0.27524769
-0.18519562 -0.28206599 0.28100333
-0.064148426 -0.28031686 0.28156099
-0.038053647 -0.28159547 0.28156099
0.18705766 -0.28206599 0.28043422
-0.15825678 -0.2713033 0.28156099
-0.042864431 -0.27073178 0.28156099
0.013525963 -0.27494997 0.28156099
0.20095405 -0.27623871 0.28156099
-0.057806268 -0.26634189 0.28156099
0.067108497 -0.26824307 0.28156099
0.14784309 -0.26668024 0.28156099
-0.11874004 -0.25075227 0.28156099
0.20646629 -0.25156873 0.28156099
0.22761008 -0.25316706 0.28156099
-0.14284751 -0.24692567 0.28156099
0.093224645 -0.24356131 0.28156099
-0.21869281 -0.23455398 0.28156099
-0.23801675 -0.22270893 0.28156099
-0.18781249 -0.22666395 0.28156099
-0.16862014 -0.22754005 0.28156099
0.24999727 -0.22150618 0.28156099
0.25098372 -0.22652239 0.28156099
-0.17436486 -0.21639489 0.28156099
-0.046640337 -0.21909176 0.28156099
-0.24763264 -0.20071025 0.28156099
-0.22460431 -0.20811205 0.28156099
-0.22404981 -0.19786008 0.28156099
-0.16790885 -0.19763868 0.28156099
0.14170346 -0.19435486 0.28156099
-0.1428787 -0.18175454 0.28156099
-0.041357301 -0.18956503 0.28156099
-0.10906233 -0.17515238 0.28156099
-0.063132063 -0.17240371 0.28156099
0.21374851 -0.17891192 0.28156099
0.24341069 -0.17307147 0.28156099
-0.12862779 -0.16952729 0.28156099
-0.054630674 -0.16075897 0.28156099
0.22244112 -0.16436701 0.28156099
0.090461165 -0.15569785 0.28156099
0.11395895 -0.15662746 0.28156099
0.2479371 -0.15559733 0.28156099
-0.25126874 -0.14095801 0.28156099
0.093464613 -0.14972122 0.28156099
-0.098682411 -0.13719332 0.28156102
0.022345491 -0.13462155 0.28156099
0.032273754 -0.13419195 0.28156099
0.062251251 -0.13683352 0.28156099
-0.16209829 -0.12092 0.28156099
-0.13809691 -0.12924436 0.28156099
-0.079297081 -0.1119331 0.28156099
0.1354614 -0.11285426 0.28156099
-0.23336855 -0.10084191 0.28156099
0.09824805 -0.10961892 0.28156099
-0.017278843 -0.093570456 0.28156099
0.15677971 -0.092413507 0.28156099
-0.25399351 -0.085572414 0.28156099
0.050579943 -0.073261857 0.28156099
0.11663143 -0.065854616 0.28156099
-0.23160648 -0.05639451 0.28156099
-0.25399607 -0.046160523 0.28156099
-0.19142173 -0.04658613 0.28156099
-0.018441945 -0.03500104 0.28156099
0.23108351 -0.034645565 0.28156099
-0.15684526 -0.02518283 0.28156099
-0.14687064 -0.026879054 0.28156099
0.035009131 -0.0037010368 0.28156099
0.052301712 -0.0056921467 0.28156099
0.13323551 -0.00049749762 0.28156099
-0.19334127 0.004510005 0.28156099
-0.20499404 0.012135793 0.28156096
0.036167912 0.010037802 0.28156099
0.048171908 0.017446786 0.28156099
-0.059346598 0.028182326 0.28156099
0.024697855 0.026962958 0.28156099
0.084130719 0.021144163 0.28156099
-0.016241923 0.03988833 0.28156099
-0.0058789039 0.03422321 0.28156099
0.01521913 0.034505494 0.28156099
0.14546174 0.035972454 0.28156099
0.24242839 0.035779469 0.28156099
-0.14391786 0.041362174 0.28156099
0.08091782 0.041724771 0.28156099
0.18557656 0.043947946 0.28156099
0.20586821 0.043588504 0.28156099
-0.012132615 0.056227855 0.28156096
-0.16948643 0.065713339 0.28156099
0.029230647 0.064875081 0.28156099
0.20288241 0.065107986 0.28156099
-0.11627014 0.070279777 0.28156099
-0.10187308 0.071591794 0.28156099
0.1169094 0.079474419 0.28156099
-0.20913069 0.087217838 0.28156099
-0.072880767 0.082758322 0.28156099
-0.056079559 0.084219456 0.28156099
0.034575328 0.080019712 0.28156099
-0.19292504 0.093043379 0.28156102
0.029985067 0.097129993 0.28156099
0.046385475 0.091314986 0.28156099
-0.17637892 0.10210219 0.28156099
-0.020491399 0.10826005 0.28156099
0.051395349 0.10702701 0.28156099
-0.24285772 0.11047795 0.28120297
-0.20947796 0.11834258 0.28156099
-0.17975789 0.11517753 0.28156099
-0.063746445 0.11997119 0.28156099
0.01445153 0.11811723 0.28156099
0.23875871 0.11121137 0.28156099
-0.13930051 0.13444524 0.28156099
-0.16378564 0.14673948 0.28156099
-0.072197691 0.14851856 0.28156099
0.0015898496 0.14490506 0.28156099
0.15650553 0.14087449 0.28156099
0.22867049 0.14409138 0.28156099
0.024734624 0.15755752 0.28156099
0.12599988 0.15854764 0.28156099
0.16001664 0.15489259 0.28156099
0.18198723 0.15134914 0.28156099
-0.16471073 0.16744037 0.28156099
-0.062156253 0.16543874 0.28156099
0.096295759 0.16110748 0.28156099
-0.036003947 0.17149852 0.28156099
-0.0035916194 0.17560396 0.28156099
0.1919262 0.17166662 0.28156099
-0.21743672 0.18848899 0.28156099
0.074662 0.18923105 0.28156099
-0.11461779 0.19758464 0.28156099
0.06766773 0.1984551 0.28156102
0.094181918 0.19561246 0.28156099
-0.098807052 0.20673662 0.28156099
-0.023173481 0.20490974 0.28156096
-0.13589433 0.21822816 0.28156099
-0.1218319 0.21963371 0.28156099
0.20209399 0.21954517 0.28156099
-0.10307039 0.22317281 0.28156099
-0.095427513 0.23912399 0.28156099
0.12063594 0.23348875 0.28156099
0.19138363 0.23874778 0.28156099
0.16824517 0.24359608 0.28156099
0.18259609 0.2433461 0.28156099
0.24197726 0.24202906 0.28156099
-0.13207281 0.2518172 0.28156099
-0.17448971 0.26074901 0.28093025
0.11729328 0.26074901 0.28144106
