# .PCD v0.7 - Point Cloud Data file format
VERSION 0.7
FIELDS x y z
SIZE 4 4 4
TYPE F F F
COUNT 1 1 1
WIDTH 118
HEIGHT 1
VIEWPOINT 0 0 0 1 0 0 0
POINTS 118
DATA ascii
0.2387491 0.28445727 -0.093889967
0.23734097 0.29494432 -0.094902724
0.23603982 0.30464265 -0.094810054
0.23473053 0.31446689 -0.093636431
0.23360103 0.3228372 -0.094317712
0.23876967 0.28434396 -0.086174272
0.23733412 0.29522035 -0.085324034
0.23607637 0.30457428 -0.086301364
0.23455118 0.31599468 -0.084261224
0.23380527 0.32159266 -0.082727939
0.23866685 0.28521588 -0.075425588
0.23743206 0.2947098 -0.075833492
0.23611362 0.30459103 -0.074038021
0.23469871 0.3151077 -0.075382456
0.23400745 0.32028508 -0.074409828
0.23888239 0.2835272 -0.065177187
0.23729968 0.29589966 -0.06537544
0.23609468 0.30496335 -0.064403966
0.23478344 0.31474629 -0.064124569
0.23362456 0.32337284 -0.064689212
0.23865734 0.28530324 -0.055356719
0.23732488 0.29578239 -0.054721631
0.23598269 0.30602998 -0.054555923
0.23481718 0.31474414 -0.053742141
0.2336044 0.32377043 -0.054389879
0.23864721 0.28539026 -0.044352159
0.23739545 0.29523373 -0.045199212
0.23604067 0.30577803 -0.045282867
0.23490421 0.31426999 -0.046453413
0.23411822 0.3201645 -0.045013625
0.23883204 0.28394288 -0.034197215
0.23718905 0.29686275 -0.035805065
0.23624788 0.30426213 -0.034954276
0.23500593 0.31378704 -0.034873445
0.23391193 0.32191563 -0.036135897
0.23867069 0.28521797 -0.024715038
0.23733684 0.29570755 -0.024306051
0.23615988 0.30496299 -0.025544461
0.23493695 0.31446338 -0.025930732
0.23396996 0.32170668 -0.026825532
0.23878634 0.28431544 -0.013685362
0.23731831 0.29585865 -0.016263438
0.23603015 0.30599064 -0.013523308
0.23484467 0.31530231 -0.014226997
0.23392151 0.32237044 -0.014214646
0.23862685 0.28557548 -0.0043794555
0.23735926 0.2955443 -0.0042145704
0.23623244 0.30440453 -0.0060797497
0.23488553 0.31499785 -0.0044350461
0.23377554 0.32358769 -0.008843841
0.23864718 0.28512925 0.0054996014
0.23716873 0.29678738 0.0045968001
0.23601143 0.30578682 0.0064047687
0.23487379 0.31481653 0.0049297195
0.2340104 0.32150224 0.0067830076
0.23862602 0.28504184 0.014348087
0.23736678 0.29465371 0.014857937
0.2360277 0.30523258 0.014001271
0.23453793 0.31683055 0.016101269
0.2338247 0.32248655 0.015265649
0.23865458 0.28459594 0.026355039
0.23723456 0.29510921 0.025267068
0.23601978 0.30470651 0.02448443
0.23481046 0.31417945 0.025152544
0.23375861 0.32259253 0.022632038
0.23872401 0.28397503 0.034624387
0.23737741 0.29367843 0.036054205
0.23602588 0.30401483 0.035947949
0.23453367 0.31584889 0.034187194
0.23360184 0.32310829 0.035408966
0.2385972 0.28474537 0.044600908
0.2372214 0.29465905 0.04562794
0.23578075 0.3054533 0.044729255
0.23446259 0.31582552 0.044558987
0.23381945 0.32077825 0.04643213
0.23877655 0.28330812 0.054439884
0.23704349 0.29581243 0.054619197
0.23557615 0.30653626 0.055407718
0.23451361 0.31481737 0.055367775
0.23366085 0.32163432 0.053399161
0.23846397 0.28542534 0.063995466
0.23703502 0.29571992 0.065197647
0.23576874 0.30487111 0.06461671
0.2342297 0.31656507 0.064011797
0.23341483 0.32285836 0.066059947
0.23845612 0.28532571 0.074763574
0.23695004 0.29620966 0.073717393
0.23578013 0.30461374 0.076393463
0.23424748 0.31587601 0.074598335
0.23348477 0.32170549 0.076798581
0.23842005 0.28543109 0.085415795
0.23718303 0.2943489 0.086075433
0.23572978 0.30486289 0.084266126
0.23428527 0.31529427 0.084260434
0.23313281 0.3239696 0.085801981
0.23823769 0.28659999 0.095550045
0.23697948 0.29567915 0.095524497
0.23538652 0.30695063 0.095508307
0.23418605 0.3158468 0.095049225
0.23330665 0.32220271 0.096293002
0.23538312 0.31815132 0.12800786
0.23436089 0.32520556 0.12816598
0.23516531 0.31825316 0.1343551
0.2343304 0.32347766 0.13690458
0.23344667 0.33007511 0.13479531
0.23479876 0.31878865 0.14339681
0.23372899 0.32556647 0.14628704
0.23438768 0.3185364 0.15737888
0.23363142 0.3240836 0.15601677
0.23426233 0.318014 0.16364942
0.23357715 0.32267091 0.16407692
0.23388141 0.31815743 0.17490608
0.23290387 0.32525453 0.17348275
0.23196167 0.33045459 0.17950854
0.23363066 0.31804162 0.18326366
0.23221797 0.3273221 0.18561012
0.23328215 0.31880251 0.19072694
0.23249078 0.3232933 0.19523297
