# .PCD v0.7 - Point Cloud Data file format
VERSION 0.7
FIELDS x y z
SIZE 4 4 4
TYPE F F F
COUNT 1 1 1
WIDTH 975
HEIGHT 1
VIEWPOINT 0 0 0 1 0 0 0
POINTS 975
DATA ascii
-0.042147137 -0.26524407 -0.224594
-0.027550632 -0.26324129 -0.224594
-0.0056446791 -0.268944 -0.22297156
0.038012303 -0.268944 -0.22191297
0.099989131 -0.26095852 -0.224594
0.11730544 -0.26457524 -0.224594
0.12919204 -0.268944 -0.22018731
0.20324177 -0.26350388 -0.224594
0.21267599 -0.2620002 -0.224594
0.30762726 -0.26249909 -0.224594
-0.063958317 -0.25871867 -0.224594
0.024611603 -0.25129145 -0.224594
0.094540738 -0.25489751 -0.224594
0.21319668 -0.25266987 -0.224594
0.24100347 -0.2539039 -0.224594
0.091787174 -0.24879313 -0.224594
0.19096197 -0.24774803 -0.224594
-0.13928331 -0.23020628 -0.224594
-0.099375226 -0.23574094 -0.224594
-0.088167042 -0.23839013 -0.224594
-0.051698606 -0.23983023 -0.224594
0.012717658 -0.23979522 -0.224594
-0.1321514 -0.22653541 -0.224594
0.25939834 -0.2277711 -0.224594
-0.054456331 -0.21357527 -0.22459398
0.0027349731 -0.21969134 -0.224594
0.096007444 -0.20380753 -0.224594
0.14937097 -0.20700833 -0.224594
0.19029003 -0.20277478 -0.224594
0.22091211 -0.20238441 -0.224594
0.24769802 -0.20832986 -0.224594
0.029334677 -0.19758362 -0.224594
0.22562648 -0.19688599 -0.224594
0.030978205 -0.18888098 -0.224594
0.059596192 -0.17871213 -0.224594
0.2970638 -0.17617276 -0.224594
-0.004763009 -0.16862972 -0.224594
0.016887128 -0.16360754 -0.224594
0.23464258 -0.16639237 -0.224594
-0.10740323 -0.15170294 -0.224594
-0.030171175 -0.15961944 -0.224594
0.21120292 -0.15804951 -0.224594
0.28515047 -0.15822887 -0.224594
-0.082609981 -0.1313397 -0.224594
0.056853019 -0.13454852 -0.224594
0.24704894 -0.13577262 -0.224594
0.056475628 -0.12405106 -0.224594
0.066464365 -0.1045918 -0.224594
-0.025871586 -0.097509235 -0.224594
-0.012657911 -0.099377297 -0.224594
-0.064230941 -0.081571341 -0.224594
0.067055061 -0.089236438 -0.224594
0.15884756 -0.088671312 -0.224594
-0.13865268 -0.077232428 -0.224594
-0.11060265 -0.07860107 -0.224594
-0.09275455 -0.0708692 -0.224594
-0.082628101 -0.07201606 -0.224594
0.11705339 -0.075613879 -0.224594
0.15095118 -0.073510885 -0.224594
0.26247773 -0.079182804 -0.224594
-0.059030332 -0.063085116 -0.224594
-0.040919058 -0.064024158 -0.224594
-0.022011841 -0.069525599 -0.224594
0.27786821 -0.068800688 -0.224594
0.049918983 -0.059866622 -0.224594
0.13096321 -0.058622435 -0.224594
0.16862676 -0.056614369 -0.224594
0.17108151 -0.027253702 -0.224594
0.18228264 -0.028528646 -0.224594
0.065505393 -0.01242117 -0.224594
-0.12363028 -0.0094683021 -0.224594
-0.10959017 -0.0079252943 -0.22459401
0.23154667 -0.0085680485 -0.224594
-0.093672842 0.004176639 -0.224594
-0.018896952 0.0025130585 -0.224594
-0.082304664 0.010407664 -0.224594
0.016670309 0.01417011 -0.224594
-0.047006276 0.02709388 -0.224594
0.1065176 0.024736319 -0.224594
0.25404343 0.022109389 -0.224594
0.27058578 0.022366188 -0.224594
-0.077422991 0.030901887 -0.224594
0.20249827 0.043726809 -0.224594
-0.082787864 0.056809433 -0.224594
0.085141815 0.051000059 -0.224594
0.1669808 0.067470282 -0.224594
-0.077243112 0.072544456 -0.224594
0.21848255 0.076591745 -0.224594
-0.046942428 0.086800508 -0.224594
-0.077342808 0.096710466 -0.224594
0.17615569 0.095932372 -0.224594
-0.12065015 0.10531435 -0.224594
-0.024198577 0.10492735 -0.224594
-0.1295158 0.11658478 -0.224594
0.26563767 0.11125313 -0.224594
-0.039999396 0.12037041 -0.224594
0.039961327 0.14020571 -0.224594
0.15502277 0.14205903 -0.224594
-0.035660218 0.16358534 -0.224594
0.11995739 0.16543569 -0.224594
0.19657516 0.16472004 -0.224594
0.1873142 0.17201212 -0.224594
0.2059305 0.1754708 -0.224594
-0.10588244 0.180244 -0.22146919
-0.028486423 0.180244 -0.22282276
-0.13999601 0.026208296 -0.21939984
-0.13999601 0.033294961 -0.21780153
0.30919299 0.031078778 -0.2131888
-0.0068734512 0.18024401 -0.21564877
0.0067784861 0.180244 -0.2139055
0.03053733 0.180244 -0.21149349
0.054498717 0.180244 -0.21007533
0.16719645 0.180244 -0.21962517
-0.048422437 -0.26894403 -0.20905159
-0.13999601 -0.12792085 -0.20304723
-0.13999601 -0.017610185 -0.20609677
0.30919299 0.047931649 -0.20045726
0.30919299 0.1731545 -0.20524719
-0.13423395 0.180244 -0.20366916
0.010864235 0.180244 -0.20992601
0.030188046 0.180244 -0.20312986
0.052285291 0.180244 -0.20483963
0.15089229 0.180244 -0.20262006
0.165894 0.180244 -0.20685607
0.29848346 -0.268944 -0.19237047
0.30919299 0.014225706 -0.19544357
-0.13999601 0.089826763 -0.19891877
0.30919299 0.084561184 -0.19085544
0.0034568831 0.180244 -0.19918473
0.19624774 0.180244 -0.19760224
0.30919299 -0.22329658 -0.18250597
0.30919299 -0.1708871 -0.18942989
0.30919299 -0.08924517 -0.18565822
0.30919299 0.093029231 -0.18157181
0.0012645125 0.180244 -0.18540013
-0.13999601 -0.24514922 -0.17931445
0.30919299 -0.021276612 -0.17105706
0.30919299 0.022844624 -0.17781566
0.30919299 0.075640701 -0.17176108
0.30919299 0.1754294 -0.17476143
0.030121692 0.180244 -0.17749712
0.076555893 0.180244 -0.17779052
0.23541604 0.180244 -0.17723034
-0.13999601 -0.067641228 -0.16696668
0.11271134 0.180244 -0.16955517
0.30919299 -0.26083499 -0.15184465
0.30830467 -0.090218998 -0.15212458
0.29797006 -0.086952128 -0.15347782
0.0062501058 -0.074811444 -0.15545204
0.22439422 -0.07234098 -0.15577726
-0.041058924 -0.06655708 -0.15653867
-0.010088186 -0.068050571 -0.15634206
0.050204784 -0.055093296 -0.15804777
0.17438495 -0.055106923 -0.15804598
0.065001532 -0.040504575 -0.15895577
0.24598803 -0.045744725 -0.15927842
0.34122279 -0.045260143 -0.15934223
-0.010179173 -0.034948181 -0.15822433
0.11111452 -0.038752194 -0.15872508
-0.0019751787 -0.023740651 -0.15674898
0.25476378 -0.023395281 -0.15670352
0.048002377 -0.015539257 -0.15566936
0.18023059 -0.019563071 -0.15619905
0.21305567 -0.018638993 -0.1560774
-0.037098311 -0.0066177133 -0.15449493
0.051936686 -0.0098871104 -0.15492532
0.21625453 -0.0086144125 -0.15475777
0.12922037 0.0028539062 -0.15157172
0.34147316 0.0035859332 -0.1512685
-0.067473724 0.12305257 -0.152724
-0.034059688 0.12357749 -0.152724
-0.013233885 0.12350114 -0.152724
0.049825873 0.12037183 -0.152724
0.33527672 0.13138632 -0.1559765
-0.037780855 0.14169039 -0.152724
-0.0045740828 0.1491507 -0.152724
-0.056348935 0.15702187 -0.152724
0.011175357 0.15784083 -0.152724
-0.013436538 0.16604839 -0.152724
0.079346165 0.1621007 -0.152724
-0.060544312 0.18024863 -0.15952753
0.20199268 0.180244 -0.15455733
0.22360414 0.180244 -0.15725386
-0.017273711 0.21390119 -0.15199441
0.15548471 -0.10780626 -0.14483947
0.18442121 -0.10347669 -0.14663288
0.28517044 -0.1076051 -0.14492278
0.2601518 -0.08118321 -0.14012262
-0.036628496 -0.071255647 -0.14142993
-0.0072065284 -0.062866569 -0.14253466
0.020766402 -0.065765008 -0.14215297
0.2854507 -0.062840909 -0.14253804
0.35003206 -0.067084223 -0.14197925
0.22997366 -0.05183335 -0.14398757
0.23066525 -0.05900985 -0.14304253
0.06390439 -0.041914623 -0.14465226
0.11966874 -0.041515343 -0.14459968
0.16005053 -0.045907743 -0.1447679
0.11407006 -0.030865416 -0.14319725
0.22166222 -0.036266018 -0.14390843
0.23423712 -0.034379829 -0.14366004
0.33682564 -0.032989595 -0.14347696
0.023469402 -0.021149013 -0.14191774
0.2632553 -0.028940506 -0.14294377
0.042645484 -0.013429327 -0.14090116
0.28476682 -0.014238967 -0.14100778
0.052712861 -0.007843473 -0.1401656
0.14612785 0.0096032862 -0.14877592
-0.13999601 0.010436218 -0.14931819
-0.038407005 0.012947673 -0.14739057
0.039714038 0.016939826 -0.1457369
0.13500288 0.018126218 -0.14524546
0.015915761 0.030500412 -0.14011969
-0.13999599 0.040232453 -0.14339393
-0.068125799 0.11740168 -0.14421415
0.336144 0.12439428 -0.14847563
0.084598497 0.16258086 -0.14160943
-0.022200819 0.21107537 -0.14526448
0.0095807984 0.22930309 -0.14132878
0.30653781 -0.268944 -0.13560459
-0.01648703 -0.1319682 -0.13204594
0.10741866 -0.13330346 -0.13102135
0.31654114 -0.13255909 -0.13159251
0.0044745938 -0.12501954 -0.13737783
0.091015853 -0.12559886 -0.1369333
0.10317124 -0.12959541 -0.13386662
0.13630138 -0.1235335 -0.1383248
0.14999536 -0.12489001 -0.13747722
0.15887524 -0.1266824 -0.13610187
0.16410752 -0.12050363 -0.13957985
0.19749944 -0.12781161 -0.13523541
0.26830935 -0.12894531 -0.13436548
0.32555443 -0.12224059 -0.13886034
-0.028829696 -0.11962052 -0.13994566
0.0035130316 -0.10186805 -0.131749
0.33487174 -0.10523206 -0.13035557
0.1207613 -0.092659548 -0.13556334
0.32425499 -0.095299415 -0.13446985
0.33949932 -0.095279634 -0.13447805
-0.050157901 -0.06295485 -0.13281137
0.172034 0.012857138 -0.13187769
0.1918876 0.013520977 -0.1316027
0.26040384 0.016095374 -0.13053635
-0.028275065 0.035982072 -0.1376368
0.10046065 0.039088234 -0.1352534
0.26662147 0.038234588 -0.13590841
0.092888981 0.043605991 -0.13178688
-0.13999601 0.076656163 -0.13517766
0.016802453 0.112866 -0.13854867
0.33602825 0.12012666 -0.13604411
-0.10044631 0.180244 -0.13753362
-0.054066449 0.18830746 -0.13807876
0.15564257 0.180244 -0.13290487
0.30919299 -0.21533437 -0.12960649
0.30919299 -0.15466353 -0.12267911
0.021528013 -0.14384507 -0.12293248
0.034086321 -0.14606699 -0.12122753
0.18221469 -0.14730313 -0.12027901
0.21726029 -0.14654095 -0.12086384
0.028229529 -0.13602246 -0.12893498
0.10594879 -0.13806666 -0.12736641
0.06143371 -0.12336979 -0.12053567
-0.028165706 -0.11070051 -0.12809044
0.34549478 -0.11366449 -0.1268627
0.064517811 -0.081871398 -0.12510681
-0.13999601 -0.034215666 -0.12687697
-0.13999601 -0.016863042 -0.12709345
0.18686971 0.019601004 -0.12908426
0.094264515 0.034844235 -0.12040158
0.20365694 0.034825366 -0.12041606
-0.050157901 0.044888027 -0.12748662
-0.042806499 0.05206912 -0.12529302
0.11325856 0.051762216 -0.1255285
0.30919299 0.058854587 -0.12476635
-0.013315313 0.1186454 -0.12577298
0.0044434201 0.12376545 -0.125773
0.026233787 0.14811514 -0.125773
0.080630794 0.15325941 -0.125773
0.00035943836 0.16288419 -0.125773
0.072364569 0.16272745 -0.125773
0.0057499129 0.17603397 -0.125773
0.13000499 0.180244 -0.12355071
-0.040384509 0.19873326 -0.125773
0.02389688 -0.15883808 -0.11049973
0.32045448 -0.15788829 -0.1117375
0.07358399 -0.13294601 -0.11318789
0.21300861 -0.13449666 -0.11199808
-0.13999601 -0.12618749 -0.11750016
0.21563262 -0.12778819 -0.11714545
0.25041887 -0.12562647 -0.11880412
0.081508517 -0.081871398 -0.11273324
0.16627483 -0.081871398 -0.11708625
0.17413765 -0.081871398 -0.11973856
-0.13999601 -0.070918001 -0.11784776
-0.050157901 -0.076500073 -0.11211
0.072919831 0.039020523 -0.11719708
-0.046761662 0.042771932 -0.11431859
-0.019721232 0.041936401 -0.11495971
0.1330422 0.065109208 -0.1152872
0.14098763 0.068091244 -0.11299905
0.28795001 0.060597096 -0.1187494
-0.13999601 0.12011641 -0.11033946
0.30919299 0.15372595 -0.11936569
-0.13162044 0.180244 -0.11978697
-0.076317728 0.180244 -0.11320107
0.022850512 0.18024644 -0.11049848
0.30919299 -0.26344365 -0.10418692
0.30919299 -0.18165573 -0.1056604
0.046208728 -0.16662666 -0.10034962
0.23349647 -0.15985902 -0.10916926
0.086418889 -0.14765415 -0.10147737
0.19101724 -0.14656219 -0.10274029
-0.029314654 -0.081871398 -0.10216773
0.19885476 -0.081871405 -0.10737109
0.26610926 -0.081871398 -0.10267303
-0.042564474 0.059706412 -0.10049613
0.039675932 0.051475454 -0.10764033
0.2561295 0.056016173 -0.10415621
0.2884309 0.059455883 -0.10082261
0.29375309 0.057569966 -0.10296397
0.3338477 0.058219925 -0.10243331
0.071653992 0.078167453 -0.10003634
0.13756235 0.073862165 -0.10564719
0.27150252 0.072661035 -0.10721254
0.30919299 0.093472786 -0.10329733
0.30919299 0.16282316 -0.10881427
-0.071147621 0.180244 -0.10403129
0.30919302 -0.25771415 -0.090556353
0.16690964 -0.17117456 -0.09442278
0.27365291 -0.17413381 -0.090566285
0.24505022 -0.15336813 -0.094030961
-0.13999601 -0.12062039 -0.093975678
-0.050157901 -0.098993868 -0.096216798
0.12587383 -0.081871398 -0.091609128
-0.050157897 -0.068201289 -0.095953755
0.33165199 0.014239108 -0.090521649
-0.0044695213 0.060714751 -0.099182062
0.14966576 0.061146252 -0.098619714
0.19971398 0.065924287 -0.092393026
0.31608999 0.06474416 -0.093930952
0.35026419 0.063131891 -0.096032053
0.088879004 0.083885491 -0.092584349
-0.039176673 0.18024898 -0.097173154
-0.0043129642 0.18024726 -0.094182253
0.14839706 0.180244 -0.094530597
0.16451538 -0.18217269 -0.080090001
0.028594013 -0.17577162 -0.088431902
0.17248024 -0.17684674 -0.087030798
0.24926461 -0.17977116 -0.083219677
-0.024277356 -0.162838 -0.081689864
0.078020796 -0.16026221 -0.085046597
0.11409326 -0.16009113 -0.085269555
0.24724984 -0.16392639 -0.080271475
0.35411099 -0.16664338 -0.08383777
0.10568947 -0.15676439 -0.089604951
0.1666483 -0.15988676 -0.085535914
0.074534953 -0.081871398 -0.080516383
0.15323077 0.085989341 -0.089842506
0.22422479 0.091585964 -0.082548738
-0.13999601 -0.26564056 -0.076453932
-0.026182907 -0.16952769 -0.07297188
0.19037412 -0.16810863 -0.074821196
0.20606913 -0.16546655 -0.078264341
-0.050157905 -0.068543479 -0.072373122
0.1760447 0.077270076 -0.077607252
0.352097 0.081937507 -0.073685646
0.30919299 0.12362695 -0.070235871
-0.049090348 0.18024871 -0.070688695
0.10987794 0.180244 -0.07047043
0.18472554 0.180244 -0.079988346
0.25496551 0.180244 -0.077859588
0.30919299 -0.23096246 -0.066607989
0.32096395 -0.19030751 -0.060756274
0.32865149 -0.17152382 -0.068566501
-0.050157897 -0.16676222 -0.062446985
0.33165199 -0.15998212 -0.063597381
-0.13999601 -0.10625537 -0.064463101
-0.050157901 -0.04082159 -0.061424468
-0.050157897 0.016400699 -0.067001119
0.021104403 0.10023963 -0.064059533
-0.13999601 0.11842012 -0.063891925
-0.0044175219 0.18024635 -0.060906343
0.12819311 0.180244 -0.066683933
0.15872228 0.180244 -0.066426426
0.17982578 0.180244 -0.065617509
0.30919299 -0.24571705 -0.0589731
0.0018660612 -0.19157486 -0.057696544
0.043041915 -0.19423708 -0.051269226
0.2110897 -0.19331691 -0.05349081
0.23116691 -0.19393159 -0.0520068
0.27047151 -0.19316414 -0.053859614
0.30897206 -0.19233292 -0.055866405
0.060028803 -0.17753433 -0.054055922
-0.13999601 -0.13023041 -0.053544294
-0.050157901 -0.11916231 -0.058974192
0.26542279 -0.081871405 -0.055981807
-0.13999601 0.071903408 -0.051271621
0.12920037 0.089332819 -0.052850656
0.18732397 0.0867856 -0.05900019
0.3308605 0.087445088 -0.057408046
0.016099045 0.09029676 -0.05052349
0.045743063 0.1046658 -0.053374343
0.073544502 0.1057856 -0.050671034
0.3024348 0.10304517 -0.057286702
-0.13999601 0.11519346 -0.054765325
0.30919299 -0.24993752 -0.046624862
0.11681922 -0.19738723 -0.043663979
0.21449345 -0.19819969 -0.041702464
0.2280685 -0.19838698 -0.04120376
-0.050157901 -0.18375427 -0.047737405
-0.050157901 -0.16869673 -0.049315684
0.018519897 -0.081871398 -0.040614188
0.25309357 -0.081871398 -0.043130793
0.29842782 -0.08187139 -0.049691938
0.33165199 0.068267308 -0.047520015
0.0011058726 0.093797438 -0.042072102
0.060568407 0.094155557 -0.041207518
0.33165199 0.090752713 -0.048596937
0.2382548 0.10982305 -0.040177714
0.26349133 0.10780507 -0.045795828
0.30919299 0.16468054 -0.047401927
-0.08757598 0.180244 -0.049625028
0.10062263 0.180244 -0.043426268
-0.33145863 -0.26074791 -0.032406576
-0.13999601 -0.23869301 -0.034998842
-0.29579639 -0.21403749 -0.03019882
0.30919299 -0.21529737 -0.035804119
0.031576741 -0.19886559 -0.037568603
0.046717159 -0.19878027 -0.038216762
0.13937446 -0.19953537 -0.032481581
0.1409228 -0.19857445 -0.039779842
0.24456921 -0.19921136 -0.03494247
-0.013732678 -0.1849394 -0.033294853
0.20633593 -0.18465224 -0.035476476
0.25577167 -0.18534936 -0.030180464
-0.2847845 -0.15178311 -0.035315823
-0.25756022 -0.13058802 -0.034112461
-0.26541358 -0.10813658 -0.033946641
-0.25092235 -0.10567513 -0.035314299
-0.1071336 -0.096786693 -0.032385379
-0.12416275 -0.08156763 -0.035895031
-0.087483421 -0.081674375 -0.035909075
-0.20293395 -0.077702083 -0.034472719
-0.14965999 -0.070806421 -0.034108628
-0.13097912 -0.070931494 -0.034032129
-0.11103218 -0.074479885 -0.034962423
-0.13999601 0.032719817 -0.03257107
-0.050157901 0.071068659 -0.038419619
-0.13999601 0.092820279 -0.033194587
-0.0019570328 0.11079092 -0.032825306
-0.33818293 -0.20035297 -0.025586057
-0.28741664 -0.20091219 -0.026243366
-0.025586283 -0.2002914 -0.026739461
0.13979226 -0.20093811 -0.021827552
-0.33203194 -0.18073121 -0.026038989
0.095174477 -0.18634747 -0.022597697
-0.32626274 -0.17260836 -0.027924173
0.095627621 -0.08187139 -0.029187936
0.13646422 -0.081871398 -0.020674139
-0.13999601 0.054856233 -0.026293799
0.070143148 0.097896658 -0.020701256
0.2659862 0.097115695 -0.026633272
-0.014827699 0.11229754 -0.021380117
0.30919299 0.11392909 -0.028808014
-0.13999601 0.17089428 -0.025875665
-0.040071104 0.18024714 -0.028871194
-0.34840894 -0.26775089 -0.014861561
0.27039981 -0.20157844 -0.016964199
0.34166747 -0.20156935 -0.01703338
-0.050157901 -0.19636865 -0.014300854
0.32070273 -0.18672858 -0.019702336
-0.2427173 -0.14678448 -0.014091966
0.33165199 -0.13984029 -0.014790457
-0.17296198 -0.11515738 -0.013818893
-0.053607918 -0.081871398 -0.018909847
0.27433917 -0.081871398 -0.013549224
-0.25530404 -0.077529937 -0.018628906
0.33165199 -0.060232572 -0.017357193
-0.17870373 -0.051803913 -0.018418968
0.33165199 0.042384449 -0.014194695
-0.050157901 0.095279843 -0.011182284
0.065954447 0.098452628 -0.016478129
0.098967463 0.098062217 -0.019443681
0.14823323 0.098816656 -0.013713136
0.21417204 0.098295666 -0.017670415
0.28634685 0.098543473 -0.015788144
0.056337304 0.11249355 -0.019891145
0.2046385 0.1126854 -0.0184338
0.24054608 0.11379242 -0.010024187
-0.1207812 0.180244 -0.019599847
0.10839888 0.180244 -0.019240364
0.30919299 -0.2374177 -0.0015898421
0.082624875 -0.20352119 -0.0022087949
0.13521677 -0.2028683 -0.0071675288
0.14632569 -0.20279419 -0.0077303788
0.2000894 -0.20287301 -0.0071318131
-0.32058242 -0.13312776 -0.004787799
-0.31376433 -0.12474623 -0.0083141699
-0.050157901 -0.12988439 -0.0015502832
-0.18445468 -0.11942743 -0.0045787599
-0.1418893 -0.11765024 -0.00072314631
-0.29008052 -0.098177344 -0.0060478225
-0.10873683 -0.081871398 -0.0098424628
-0.066449121 -0.08187139 -0.0090962239
0.11792215 -0.081871398 -0.0057106353
0.32701343 -0.081871398 -0.0052208006
0.025654882 0.099448562 -0.0089132329
0.21641889 0.09962824 -0.0075484384
0.32989025 0.11501081 -0.00076865684
-0.13999601 -0.22326277 0.003984374
0.30919299 -0.22191037 0.0015662555
0.16682926 -0.20334038 0.0035820014
0.24079883 -0.20278133 0.0078279572
0.27921584 -0.20324044 0.0043410161
0.16856137 -0.18840122 0.0069949892
-0.25947267 -0.16827402 0.0087680304
0.33165199 -0.16217217 0.0019512828
0.33165199 -0.13855657 0.007662585
-0.16187899 -0.11630791 0.0060553416
-0.049705319 -0.081871398 0.0086531267
0.19092162 -0.081871398 0.0058292672
0.33165199 -0.080562629 0.0015299623
0.33165199 -0.063089564 0.0035404265
-0.22543421 -0.057136897 0.00090128143
-0.050157901 -0.033906847 0.0045192228
-0.13999601 -0.012237454 0.0030040983
-0.13999601 0.04577544 0.0043416061
-0.13999601 0.068406172 0.0082548186
0.20770808 0.099878758 0.0056454143
0.069364086 0.11476506 0.0026354073
0.10960676 0.11406047 0.0079878932
0.030923177 0.180244 0.0065718964
0.08447504 0.180244 0.00018935651
0.060613699 -0.202297 0.011506505
0.33230716 -0.20146124 0.017854081
0.35405761 -0.20162538 0.01660743
0.35411099 -0.19721001 0.018567873
-0.0087635741 -0.18758674 0.013182621
-0.33309114 -0.16907863 0.019715987
0.33165199 -0.16886102 0.018215721
-0.31936431 -0.13704148 0.015135734
-0.098173574 -0.11324295 0.017361397
-0.29086921 -0.10385478 0.017113764
0.26566964 -0.081871398 0.01093325
0.31719196 -0.081871398 0.01590302
-0.076799348 -0.047793813 0.010828818
-0.050157901 0.030871762 0.01061265
-0.13999601 0.086801171 0.019213699
-0.049542718 0.098925337 0.01288733
0.28386334 0.11363147 0.011246735
0.30919299 0.16068727 0.019584596
0.14130864 0.180244 0.014702259
0.2062014 0.180244 0.015181627
-0.13999601 -0.2228048 0.025927968
-0.035943814 -0.20051105 0.025070634
0.13393714 -0.2003997 0.025916453
0.21357611 -0.20074862 0.023266431
0.046994518 -0.18582577 0.026560672
0.061804131 -0.18579604 0.026786476
-0.2773205 -0.17523468 0.027080461
0.33165199 -0.16886771 0.026658367
-0.30932322 -0.13644928 0.026459578
-0.240071 -0.13601004 0.023930401
-0.2396813 -0.13764697 0.022010965
-0.22298837 -0.12469453 0.023881534
-0.14275178 -0.10736834 0.025180813
-0.13421398 -0.1067915 0.025528409
-0.091345459 -0.060178906 0.028262109
-0.15782057 -0.057602275 0.026723344
-0.13999601 0.059273928 0.023338929
-0.050157901 0.093139865 0.025333451
0.20289135 0.097841121 0.021122646
0.3047621 0.097556062 0.023287874
-0.017677952 0.11220126 0.022111205
0.10806607 0.11200736 0.023584098
-0.011736028 0.18024437 0.024235114
0.26356199 0.180244 0.024242148
-0.29657975 -0.26704064 0.030109979
-0.31065974 -0.25042912 0.035036366
-0.32545269 -0.22654426 0.034827307
-0.32599998 -0.20623015 0.033584137
0.016480505 -0.19875516 0.038406625
-0.310615 -0.18847185 0.03569657
-0.13999601 -0.13623041 0.031529021
-0.26923981 -0.11003838 0.033459965
-0.25870344 -0.11223575 0.035462134
-0.24372227 -0.10042908 0.03526172
-0.080912203 -0.10011093 0.03091234
-0.079325028 -0.098572336 0.031645566
-0.1777087 -0.083020091 0.03588948
-0.068356045 -0.066790834 0.032316476
-0.041446976 0.095039286 0.039073315
0.1471418 0.0962542 0.033176448
0.16988204 0.096414916 0.031955685
0.26370421 0.095858932 0.036178775
0.30785808 0.10990797 0.03953189
0.095184252 0.11082467 0.032568298
0.13871245 0.11056045 0.034575462
-0.10023887 0.180244 0.030251469
0.082982004 0.180244 0.033668999
0.16147579 -0.19613382 0.046689354
0.18943278 -0.19569157 0.047757056
0.21676414 -0.19595003 0.047133092
0.12286257 -0.18270098 0.041581959
0.33165199 -0.10301086 0.044623002
0.24775052 -0.081871398 0.049117237
0.33165199 -0.029933043 0.044523865
-0.13999601 -0.0090669431 0.043676648
-0.050157905 -0.0045183101 0.049949117
0.027053818 0.093423776 0.042973503
0.13336271 0.091567926 0.047453914
0.21927013 0.094195656 0.04111002
0.043733701 0.10653565 0.048859641
-0.13999601 0.11477213 0.041132595
-0.10686096 0.180244 0.044300169
-0.068480223 0.18024632 0.049241465
0.019627355 0.180244 0.04829124
-0.13999601 -0.2131629 0.052030813
0.18322234 -0.1931686 0.053848233
-0.050157901 -0.17979296 0.050851449
0.092399232 -0.17896439 0.050602764
-0.031336397 -0.081871398 0.052291702
-0.13999601 -0.034029029 0.057284348
0.32437596 0.089798965 0.051724568
0.33165199 0.082125612 0.055605359
0.35229421 0.086400665 0.059928801
0.066138797 0.1048593 0.052906543
0.30919299 0.1793562 0.058023665
0.30919299 -0.21519905 0.069781967
-0.13999601 -0.17145377 0.068956733
0.13327041 -0.17289306 0.065260164
0.14223807 -0.17263395 0.06588573
0.34867215 -0.17372316 0.063256122
-0.13999601 -0.15617594 0.068616755
0.078716382 -0.081871398 0.061409414
0.3066498 -0.081871398 0.068059355
0.33111092 -0.081871398 0.063927084
-0.050157901 0.0050075352 0.069927156
0.33165199 0.013450853 0.066864125
0.16782789 0.082931623 0.068303823
-0.13999601 0.11280583 0.061841764
-0.13999601 -0.23186025 0.072097063
-0.037602693 -0.18293971 0.078543447
-0.0016349126 -0.18329187 0.077693276
0.029321179 -0.18511967 0.073280498
0.20641097 -0.18345529 0.077298768
0.22266421 -0.17069989 0.070554912
0.036268722 -0.16740799 0.075733647
-0.13999601 -0.067746632 0.071938097
-0.13999601 -0.037524953 0.073976547
-0.13999601 0.050093152 0.070569031
-0.010473898 0.078864172 0.075529195
0.056797668 0.079848893 0.074245885
0.33699256 0.076708928 0.078337967
-0.017049082 0.095866978 0.074614905
0.079063751 0.095346525 0.075871363
0.019517213 -0.18071987 0.08198268
0.05644108 -0.18087873 0.081775673
0.073583499 -0.18008733 0.082807012
0.17882125 -0.18008749 0.082806796
0.023901541 -0.17995828 0.082975164
0.041874751 -0.17676222 0.08714024
0.12603475 -0.17771704 0.085895918
0.32993045 -0.17654279 0.087426193
0.17558795 -0.16407762 0.080073871
0.33165199 -0.1500774 0.084271766
-0.050157901 -0.13196397 0.084488675
0.33165199 -0.10651849 0.081157088
0.14086723 -0.081871398 0.081856087
-0.13999601 -0.024804743 0.08007542
-0.04664617 0.072879478 0.083328605
0.032999925 0.086502299 0.089173272
0.070201911 0.092938453 0.080785498
-0.13999601 0.17902125 0.083074823
0.10857962 0.180244 0.086822726
0.1542218 0.180244 0.083124802
0.2352984 0.180244 0.082053758
0.2693007 0.180244 0.084821664
-0.13999601 -0.21708378 0.098080762
0.075140812 -0.15054825 0.0977057
0.26875332 -0.15326035 0.094171211
0.33165199 -0.10359069 0.099638134
-0.13999601 -0.091413468 0.090800062
-0.050157901 -0.071414612 0.094067372
0.29177678 0.062408648 0.09697444
0.20910478 0.180244 0.099185579
-0.13999601 -0.23596452 0.10845068
-0.13999601 -0.19840983 0.10118765
-0.02151807 -0.16651571 0.10049336
-0.014982983 -0.16065264 0.10813406
0.20312601 -0.16079745 0.10794535
0.34751505 -0.16191207 0.1064928
-0.050157901 -0.15920304 0.10813202
-0.049082614 -0.14051831 0.10737771
0.081448786 -0.14135733 0.10673393
-0.050157901 -0.13924006 0.10963647
0.10583002 -0.13899079 0.10854976
-0.039559029 -0.081871398 0.10361429
0.038943596 -0.081871398 0.10805186
0.29329982 -0.081871398 0.10086741
-0.050157897 -0.042500816 0.10185468
0.077799477 0.050720748 0.10821943
0.085285656 0.057357021 0.10312736
0.18909448 0.056869373 0.10350154
0.27403557 0.055685956 0.10440958
-0.036846589 0.060040433 0.10006076
-0.050157897 0.070875496 0.10383743
0.17705554 0.072877117 0.10693002
0.33076742 0.071477257 0.10875436
0.34955892 0.074483767 0.10483618
-0.08021906 0.1802454 0.10333239
0.051895536 0.180244 0.10639719
0.30919299 -0.25991842 0.11057757
0.30919299 -0.1767306 0.11026691
0.21086691 -0.15406686 0.11508811
0.31982958 -0.15370248 0.1153677
0.34286654 -0.15430537 0.11490507
-0.040294036 -0.14894097 0.11902151
-0.022960018 -0.14878151 0.11914387
0.24649043 -0.13508466 0.11154692
-0.032279935 -0.12442192 0.11972836
0.09463793 -0.12632692 0.11826669
0.1233947 -0.12487011 0.11938448
0.23940879 -0.12946402 0.11585961
0.28871539 -0.12943184 0.11588428
-0.13999601 -0.10207734 0.1123471
0.33165199 -0.10079718 0.11781401
-0.050157897 0.030125286 0.11254855
0.24602066 0.037285611 0.11852828
0.31996092 0.037107699 0.11866481
0.0017829612 0.041420572 0.11535551
0.29638612 0.041816901 0.1150514
0.32375184 0.047970973 0.11032934
0.0096098259 0.061852813 0.11778507
0.10681455 0.069373593 0.11149593
0.30919299 0.069204129 0.11339998
0.30919299 0.12846658 0.1139441
-0.13999601 0.14887339 0.11187072
0.24561635 0.180244 0.11318389
-0.12511756 -0.268944 0.12938502
0.30302796 -0.14176373 0.12452903
0.033736639 -0.1348604 0.12982634
0.17133231 -0.13801867 0.12740281
0.27232689 -0.1371008 0.12810713
0.22108662 -0.10884181 0.12886035
0.086890556 -0.081871398 0.12619969
0.16991748 -0.081871398 0.1262252
0.26831359 -0.081871398 0.12245893
0.33165199 -0.054222751 0.12520385
0.33165199 -0.020439275 0.12498844
0.17136154 0.018870313 0.12938693
0.27002025 0.029205373 0.12472832
0.13156049 0.03304965 0.12177858
0.026002005 0.046216026 0.12978384
0.095187843 0.04758795 0.12873112
0.29757372 0.049292363 0.12742323
0.11567552 0.0548249 0.12317789
0.12495229 0.058198988 0.12058881
0.24899861 0.0581511 0.12062555
0.30919299 0.11161877 0.12054548
0.014778581 0.180244 0.12582758
0.15688582 0.180244 0.12554501
0.31861931 -0.13043243 0.13322417
-0.014931478 -0.12156004 0.1391422
0.20571582 -0.09983626 0.13259062
0.27070874 -0.099175349 0.13286437
0.074694067 -0.084619135 0.13602647
0.33165199 -0.021143362 0.13427541
0.25082588 -0.0039126906 0.13882402
-0.13999601 0.00043985993 0.13899435
0.26862311 0.0040703663 0.1355173
-0.023863571 0.012295964 0.13211012
0.19828737 0.01140975 0.13247721
0.038682118 0.035187442 0.13817817
0.26969704 0.036543556 0.13720593
0.32357767 0.034370083 0.13851672
0.35411096 0.037618652 0.13071199
-0.13999601 0.13054071 0.13979664
0.065894179 0.180244 0.13759315
-0.13999601 -0.24338235 0.14692801
0.30919296 -0.24747497 0.14044233
-0.030069638 -0.11462471 0.14201482
-0.13999601 -0.090447456 0.14192311
0.243267 -0.098003745 0.14889924
-1.6234815e-05 -0.073891014 0.14108269
0.0028324192 -0.072657779 0.14124505
0.31009734 -0.07079567 0.14149021
0.077794537 -0.061797239 0.14267494
0.30111161 -0.062606871 0.14256835
0.34316298 -0.067790568 0.14188586
0.29513288 -0.053683974 0.14374313
0.072086006 -0.044162862 0.14494734
0.17553861 -0.046711769 0.14466108
0.28427976 -0.049997836 0.14422843
-0.13999601 -0.025677182 0.14693761
0.34089947 -0.024931075 0.1424153
0.245975 -0.013793793 0.14094898
0.30467293 -0.010313386 0.14049076
0.11542377 0.02498514 0.14240402
0.23672013 0.020931449 0.14408308
-0.13999601 0.063688636 0.14687024
-0.13999601 0.12821372 0.14440386
0.13696061 0.180244 0.14354214
0.15244199 0.180244 0.1401082
0.29230005 -0.268944 0.15240346
-0.13999601 -0.1626233 0.15718883
-0.13999601 -0.11877824 0.15702526
-0.043888967 -0.089887708 0.15226091
0.012119809 -0.080989324 0.1546379
0.088887669 -0.086507268 0.1536611
0.11016805 -0.086733811 0.15356727
0.26169214 -0.086352177 0.15372537
-0.015109815 -0.073785566 0.15558638
0.24509181 -0.07541465 0.1553719
-0.038640734 -0.069290072 0.1561783
0.32425192 -0.065896243 0.15662514
0.012415962 -0.053433158 0.1582661
0.20877934 -0.052607231 0.15837483
0.30896455 -0.058445312 0.15760617
-0.021259652 -0.047080606 0.1591025
0.014797267 -0.048244126 0.1589493
-0.13999601 -0.037833363 0.15540363
0.0075570391 -0.034350026 0.15814534
0.13644376 -0.033651169 0.15805334
0.2288897 -0.020467935 0.15631758
0.047249198 -0.017720323 0.15595582
0.22724156 -0.015776699 0.15569992
0.0015029181 -0.0004598177 0.15294343
0.15268271 -0.0068932874 0.1545303
0.0043424829 0.0031610669 0.15144365
0.1042655 0.0030671633 0.15148254
0.14503141 0.000620723 0.15249586
0.30919299 0.15316632 0.15264875
-0.068982385 0.180244 0.15872031
0.061426125 0.180244 0.15333965
-0.13999601 -0.2138841 0.16009396
-0.13999601 -0.1880257 0.16377689
0.30919302 -0.029057115 0.16629581
0.33507937 0.11953266 0.16868222
0.28228 0.180244 0.16432744
-0.13999601 -0.26659125 0.17673777
0.30919296 -0.23422089 0.17597395
0.30919299 -0.13941884 0.17918953
-0.13999601 -0.077718742 0.17173725
0.30919299 -0.049287297 0.1713627
0.30919299 -0.0056096949 0.17355141
-0.13999602 0.064984187 0.17507514
-0.13999602 0.1394071 0.17868215
0.29555339 -0.268944 0.18965343
0.30919299 -0.23791164 0.18926214
0.30919299 -0.11892168 0.18556844
-0.13999601 -0.10247982 0.18135144
-0.13999601 -0.077608161 0.18937352
0.30919299 -0.052255306 0.18268323
-0.13999601 0.10395602 0.18467355
0.30919299 0.17196915 0.18015949
-0.066540129 0.180244 0.1868474
0.047448386 0.180244 0.18307526
0.16198194 0.180244 0.18581738
0.21040916 0.180244 0.18344888
-0.13999602 -0.12682819 0.19423926
0.30919299 -0.087658219 0.19980074
-0.13999601 -0.0098509938 0.19061254
0.30919299 -0.005124487 0.19851318
-0.13999601 0.083539397 0.19429792
0.30919299 0.12265728 0.19325182
0.30919299 -0.14364605 0.20346594
0.30919299 -0.094479762 0.20359027
0.30919299 0.041822657 0.20819755
0.30919299 0.074567631 0.20994246
0.18405372 0.180244 0.20929679
0.21015866 -0.268944 0.21643105
-0.13999601 -0.18247573 0.21103951
0.30919299 0.048528686 0.21162307
-0.13999602 0.072437987 0.2112397
-0.13999601 0.17567517 0.21930715
-0.035337076 0.180244 0.21360147
0.14404646 -0.2643714 0.224594
0.11018496 -0.24002391 0.224594
-0.075767271 -0.23070167 0.224594
0.033115868 -0.2305707 0.224594
0.24133644 -0.23090954 0.224594
0.069388613 -0.22210087 0.224594
-0.10177345 -0.21941942 0.224594
0.061575361 -0.21098627 0.224594
0.11748008 -0.21966144 0.224594
0.14422336 -0.21838066 0.224594
0.17195578 -0.21293397 0.224594
0.28432488 -0.21769737 0.224594
-0.11851706 -0.20085187 0.224594
0.30797687 -0.20575534 0.224594
-0.06930469 -0.19821022 0.224594
0.075884975 -0.19403654 0.224594
0.14352944 -0.19799244 0.224594
0.24818698 -0.19462878 0.224594
-0.08586742 -0.16840312 0.224594
-0.058209207 -0.16648288 0.224594
0.080182806 -0.16887003 0.224594
0.12957472 -0.16093662 0.224594
0.30919299 -0.15152359 0.22346018
-0.12547182 -0.14278848 0.22459401
0.0094298199 -0.1408312 0.224594
0.10542261 -0.14097664 0.224594
0.013142601 -0.13424695 0.224594
0.16093597 -0.13464379 0.224594
-0.13105506 -0.12011214 0.224594
-0.072054736 -0.12632263 0.224594
0.07347139 -0.12219456 0.224594
0.095874004 -0.12383343 0.224594
-0.13999601 -0.11765388 0.2215682
0.041541182 -0.11068515 0.224594
-0.13999601 -0.098059334 0.22104651
-0.042552512 -0.093462601 0.224594
0.027964726 -0.092927352 0.224594
0.13425349 -0.093882225 0.224594
0.30401531 -0.094954766 0.224594
-0.11172703 -0.085999422 0.224594
0.10043891 -0.081215687 0.224594
0.30263817 -0.087219171 0.224594
0.25496647 -0.079494603 0.224594
-0.063186333 -0.069012366 0.224594
0.029572822 -0.06542933 0.224594
0.068663247 -0.066065758 0.224594
-0.042250011 -0.054145947 0.224594
-0.037751909 -0.051521856 0.224594
0.038909078 -0.058105916 0.224594
-0.13999601 -0.047004633 0.22189903
0.26796532 -0.041757703 0.224594
0.2826739 -0.039898135 0.224594
0.1154699 -0.025015153 0.224594
0.18073104 -0.025368296 0.224594
0.10422732 -0.010121197 0.224594
0.12327878 -0.019383825 0.224594
0.097984664 -0.0089805275 0.224594
0.16833511 -0.004709743 0.224594
0.30905834 -0.0067076753 0.224594
-0.10057063 0.0039411783 0.224594
-0.065839551 0.0083123446 0.224594
0.13894106 0.0059577893 0.224594
0.068541348 0.018715784 0.224594
0.089630477 0.017659143 0.224594
0.13567795 0.022473989 0.224594
0.17607711 0.025718581 0.224594
-0.11233091 0.039702766 0.224594
0.17666043 0.030555278 0.224594
0.014262963 0.049110331 0.224594
-0.12026043 0.054718114 0.224594
-0.004537534 0.058770005 0.224594
0.24235983 0.050106324 0.224594
-0.023899686 0.065421984 0.224594
0.10868731 0.067746341 0.224594
-0.093702413 0.073748335 0.224594
0.10948265 0.071604699 0.224594
0.24971835 0.085708439 0.224594
0.064414769 0.099214211 0.224594
0.12290797 0.099713445 0.224594
0.10629232 0.10471393 0.224594
-0.093552575 0.1185652 0.22459398
-0.03881583 0.1233896 0.224594
0.094742775 0.12232079 0.224594
0.30333963 0.13606887 0.224594
0.11261807 0.14918795 0.224594
0.12479621 0.14544362 0.224594
0.13361658 0.14810282 0.224594
0.17969784 0.14289977 0.224594
0.20982063 0.14566715 0.224594
0.23388268 0.14507149 0.224594
0.27803022 0.14755177 0.224594
0.047048055 0.15450484 0.224594
0.17344649 0.15962192 0.224594
0.28450462 0.15620866 0.224594
0.13916279 0.16800487 0.224594
0.23622744 0.16843103 0.224594
0.049349297 0.17518169 0.224594
0.074227832 0.180244 0.22053164
