# .PCD v0.7 - Point Cloud Data file format
VERSION 0.7
FIELDS x y z
SIZE 4 4 4
TYPE F F F
COUNT 1 1 1
WIDTH 967
HEIGHT 1
VIEWPOINT 0 0 0 1 0 0 0
POINTS 967
DATA ascii
-0.18416944 -0.336409 -0.28493235
-0.16790922 -0.33806574 -0.28622299
-0.13623239 -0.338624 -0.28461081
-0.089555793 -0.338624 -0.28336483
0.024327226 -0.33745542 -0.28622299
0.047378778 -0.33623672 -0.28622299
-0.14700243 -0.32828471 -0.28622299
-0.034211658 -0.32095015 -0.28622299
0.016157903 -0.31522366 -0.28622299
0.089665748 -0.31564787 -0.28622299
0.2041468 -0.31924602 -0.28622299
0.1906608 -0.29545575 -0.28622299
0.21075237 -0.29901302 -0.28622299
-0.22994477 -0.2835122 -0.28622299
0.02240333 -0.28651607 -0.28622299
-0.231107 -0.27231616 -0.28075522
-0.042131372 -0.27173433 -0.28622299
0.087678976 -0.2719883 -0.28622299
0.21800999 -0.27200946 -0.28455681
0.048128162 -0.25134677 -0.28622299
0.21800999 -0.25142479 -0.28573591
-0.231107 -0.23170401 -0.28584728
-0.21503861 -0.23830415 -0.28622299
-0.12194383 -0.23946124 -0.28622299
0.098407373 -0.22619805 -0.28622299
0.13885665 -0.22340931 -0.28622299
0.16922034 -0.22783247 -0.28622299
0.17592812 -0.21531007 -0.28622299
-0.1435727 -0.20457713 -0.28622299
-0.030057421 -0.2011905 -0.28622299
0.18738358 -0.20600066 -0.28622299
-0.16797471 -0.17654559 -0.28622299
0.20366427 -0.17343906 -0.28622299
-0.14354193 -0.16693547 -0.28622299
-0.13829237 -0.16222559 -0.28622299
-0.019601554 -0.16517358 -0.28622299
0.12703417 -0.16103962 -0.28622299
-0.20662439 -0.15360415 -0.28622299
-0.1592288 -0.15362975 -0.28622299
-0.12625554 -0.15462708 -0.28622299
0.18308944 -0.15282494 -0.28622299
-0.03482141 -0.14851846 -0.28622299
-0.021281376 -0.14299834 -0.28622299
0.13878173 -0.14625517 -0.28622299
-0.027044445 -0.13859406 -0.28622299
-0.10936753 -0.1277018 -0.28622299
0.035570066 -0.1203751 -0.28622299
0.15473944 -0.12796578 -0.28622299
0.19078474 -0.12491821 -0.28622299
-0.18058398 -0.11651232 -0.28622299
0.15258926 -0.11313607 -0.28622299
-0.15451151 -0.10888137 -0.28622299
0.20109364 -0.10578404 -0.28622299
-0.16448954 -0.099782676 -0.28622299
-0.14593978 -0.098295197 -0.28622299
-0.1773876 -0.084210604 -0.28622299
-0.080548421 -0.08948265 -0.28622299
0.067441672 -0.080326706 -0.28622299
0.072198242 -0.084599011 -0.28622299
0.10568798 -0.08620955 -0.28622299
0.11724535 -0.087744452 -0.28622299
0.15391618 -0.082915694 -0.28622299
0.20882221 -0.081640512 -0.28622299
0.11441767 -0.070059285 -0.28622299
-0.17910168 -0.0662084 -0.28622299
-0.066968068 -0.067819804 -0.28622299
0.012105894 -0.060272545 -0.28622299
-0.17676112 -0.052712291 -0.28622299
-0.017816409 -0.058789723 -0.28622299
0.0030165187 -0.056727178 -0.28622299
0.20332372 -0.052737579 -0.28622299
0.029766835 -0.047822028 -0.28622299
-0.17894721 -0.030361891 -0.28622299
0.12841688 -0.031122267 -0.28622299
0.13644308 -0.030150793 -0.28622299
-0.060738519 -0.028450727 -0.28622299
0.02679828 -0.028646493 -0.28622299
-0.14767985 -0.016890526 -0.28622299
0.17617339 -0.012879655 -0.28622299
0.21772447 -0.01841253 -0.28622299
-0.050383896 -0.0011695623 -0.28622299
-0.22240606 0.0085977912 -0.28622299
-0.14323398 0.0027635247 -0.28622299
-0.11231788 0.0048451871 -0.28622299
-0.044509947 0.0011705309 -0.28622299
-0.014645919 0.0011536032 -0.28622299
0.039229885 0.0067481548 -0.28622299
0.049282335 0.0034184232 -0.28622299
0.1127215 0.0030342564 -0.28622299
0.19019878 0.0078575313 -0.28622299
0.20585191 0.00064583123 -0.28622299
0.030133415 0.016666707 -0.28622299
0.1896117 0.013118975 -0.28622299
-0.027308099 0.029540457 -0.28622299
0.1761764 0.0234029 -0.28622299
0.0015568882 0.04074616 -0.28622299
0.13789628 0.040900145 -0.28622299
-0.11010173 0.05796732 -0.28622299
-0.072409436 0.053354934 -0.28622299
-0.064345762 0.054491293 -0.28622299
0.17388675 0.054674115 -0.28622299
-0.21519257 0.065600172 -0.28622299
-0.20630255 0.06417761 -0.28622299
-0.1837658 0.061610803 -0.28622299
-0.14829062 0.062269345 -0.28622299
0.0056332089 0.06812495 -0.28622299
0.18007639 0.068217024 -0.28622299
-0.21877913 0.085718393 -0.28622299
-0.19711506 0.082996503 -0.28622299
-0.15897483 0.088502422 -0.28622299
-0.12007467 0.082889549 -0.28622299
0.14227109 0.08030349 -0.28622299
0.12004133 0.094448641 -0.28622299
0.13158536 0.095830493 -0.28622299
0.14955765 0.10810241 -0.28622299
-0.10474671 0.11898409 -0.28622299
-0.0061770901 0.11111797 -0.28622299
0.19421875 0.11139464 -0.28622299
-0.20523793 0.12617107 -0.28622299
-0.15807554 0.12206709 -0.28622299
0.08034496 0.13809593 -0.28622299
0.14268747 0.13423024 -0.28622299
-0.17266035 0.14940284 -0.28622299
-0.13919106 0.14397855 -0.28622299
-0.086311594 0.14306355 -0.28622299
-0.15327226 0.15705888 -0.28622299
0.00030709058 0.15255907 -0.28622299
0.013771989 0.1586649 -0.28622299
0.21148285 0.15168908 -0.2805838
0.071140073 0.16118947 -0.28622299
-0.17790109 0.17388242 -0.28622299
-0.10269468 0.17631921 -0.28622299
-0.14852808 0.18308289 -0.28622299
-0.11278648 0.18303043 -0.28622299
-0.077360645 0.18066941 -0.28622299
-0.038052432 0.18104798 -0.28622299
-0.16825263 0.19374481 -0.28622299
-0.0035429131 0.19647223 -0.28622299
-0.16215703 0.22184131 -0.28622299
-0.13697572 0.22509 -0.28400508
-0.024515796 0.22090018 -0.28622299
0.046674162 -0.338624 -0.27090776
0.12579298 -0.338624 -0.2750285
-0.231107 -0.25217205 -0.27106839
-0.231107 -0.08889056 -0.27219978
-0.231107 -0.046125188 -0.27807385
-0.231107 -0.01979468 -0.27996862
-0.231107 0.16579725 -0.27376539
0.15991922 0.18775925 -0.27786249
-0.22958235 0.22509 -0.27406687
-0.041462883 0.22509 -0.27350566
0.082700387 0.22509 -0.27719375
-0.15861055 -0.338624 -0.26583058
-0.082728997 -0.338624 -0.26161021
-0.231107 -0.1846399 -0.26975685
0.21800999 -0.14249969 -0.26871523
-0.231107 -0.095937736 -0.26283371
-0.231107 -0.063388035 -0.26315236
0.21800998 -0.036198586 -0.26897985
-0.231107 0.055588376 -0.26780182
0.18933783 0.16718036 -0.26194358
0.16560112 0.18378481 -0.26708701
-0.231107 0.20133187 -0.26422334
0.12628195 0.21128967 -0.26044413
-0.15451911 0.22509 -0.26199055
-0.13866547 -0.338624 -0.25941864
0.085436963 -0.338624 -0.25390619
0.21800999 -0.017963499 -0.25522017
-0.231107 0.0057965219 -0.25984555
-0.16559514 -0.33862403 -0.24244262
-0.053423516 -0.338624 -0.24620754
-0.036440834 -0.338624 -0.2404339
0.21800998 -0.25116423 -0.24238104
-0.231107 -0.1850078 -0.24587286
-0.231107 -0.14013122 -0.24708039
0.21800999 -0.09370359 -0.24703377
-0.231107 -0.070986941 -0.24014661
0.21801001 -0.015103869 -0.24595508
0.21314725 0.1505248 -0.24757633
0.17127141 0.1798183 -0.24051476
0.14396326 0.19892114 -0.24907605
-0.13784999 0.22509 -0.24528706
0.092204303 0.22509001 -0.24911198
-0.20034587 -0.338624 -0.2390472
8.585304e-05 -0.338624 -0.23690334
0.063330799 -0.338624 -0.23147002
0.085476235 -0.338624 -0.2384773
0.13023868 -0.338624 -0.2353743
-0.231107 -0.15797329 -0.23288377
-0.231107 -0.076921225 -0.23448244
0.21800998 -0.040189043 -0.23725826
-0.231107 -0.002505742 -0.23297602
0.18600646 0.16951072 -0.23027498
-0.231107 0.22334668 -0.23461746
-0.042696968 -0.338624 -0.22184834
0.1163477 -0.338624 -0.22430436
0.12237234 -0.338624 -0.22209264
0.16934922 -0.338624 -0.22052367
-0.231107 -0.06229613 -0.22906646
0.21800999 0.03575898 -0.22559468
0.21801001 0.10879312 -0.22158697
0.1848451 0.1703231 -0.22256649
0.12063383 0.21524073 -0.22895755
-0.20319952 0.22509 -0.22066458
-0.015592627 0.22509 -0.22934052
-0.231107 -0.3372305 -0.21779205
-0.13558432 -0.338624 -0.21104582
0.094686329 -0.338624 -0.21519801
0.12931484 -0.338624 -0.21592829
0.21800998 -0.3042261 -0.21772106
0.21800998 -0.26458716 -0.21823245
0.21801001 -0.0092473142 -0.21047933
-0.231107 0.064934134 -0.218026
-0.231107 0.13938794 -0.21546175
0.18496062 0.17024228 -0.21091606
-0.086650938 0.22509 -0.21934244
-0.075270779 0.22509 -0.21664453
0.014195949 0.22509 -0.2150194
-0.20537971 -0.338624 -0.20064861
0.045394219 -0.338624 -0.20677483
0.159537 -0.338624 -0.20157614
0.21801001 -0.24668562 -0.20593315
-0.231107 -0.19283137 -0.20943576
0.21801001 -0.17423181 -0.20202419
-0.231107 -0.015652005 -0.20334882
0.13586539 0.20458582 -0.20981312
-0.13204761 0.22509 -0.20428801
-0.01577232 0.22509 -0.20894213
-0.090857603 -0.338624 -0.19253571
-0.07594417 -0.338624 -0.19485106
-0.231107 -0.29053184 -0.19970576
-0.231107 -0.27907959 -0.1907571
0.21800999 -0.2301098 -0.19939241
0.21800998 -0.20760842 -0.19147201
-0.231107 -0.087854907 -0.19508791
-0.231107 -0.024394367 -0.19608156
-0.231107 -0.015437536 -0.19063754
0.20474376 0.15640354 -0.19005322
-0.231107 0.16447163 -0.19077459
0.097850353 0.22509 -0.19654539
-0.046893053 -0.338624 -0.18367612
0.21800999 -0.15577114 -0.18692914
-0.231107 -0.12309118 -0.18216321
0.21801001 -0.12929603 -0.18834189
0.21800999 0.020867938 -0.18667795
0.19927505 0.160229 -0.1802827
0.096999042 0.22509 -0.18135312
-0.22612831 -0.338624 -0.17244127
-0.21369308 -0.33862403 -0.17996369
-0.16025774 -0.338624 -0.17940092
-0.15294553 -0.338624 -0.17077371
-0.231107 -0.32367766 -0.17321846
0.21800999 -0.20005623 -0.17053315
0.21800998 -0.16557536 -0.1751928
0.21800999 -0.047564566 -0.17140587
-0.231107 -0.0046167597 -0.17270213
0.21801001 0.029373679 -0.17084023
0.21800998 0.049803089 -0.1738831
0.21800998 0.073779896 -0.17170957
-0.231107 0.0881745 -0.17686847
-0.231107 0.13667414 -0.17085147
0.0261393 0.22509 -0.17164661
-0.19517142 -0.338624 -0.1644305
0.21800999 -0.2961154 -0.16721295
0.21800999 -0.27990994 -0.16809131
-0.231107 -0.18127915 -0.16192746
0.21800999 -0.0074414192 -0.16492605
0.21800998 0.065125987 -0.16421022
-0.231107 0.15468079 -0.16912839
0.11786232 0.21717936 -0.16055723
-0.012570031 0.22509 -0.1635693
0.03107379 0.22509 -0.16104649
0.057800233 0.22509 -0.16710837
0.062897302 0.22509 -0.16425021
0.041858289 -0.338624 -0.15854064
0.1569003 -0.338624 -0.15417948
-0.231107 -0.28804109 -0.15601972
-0.231107 -0.27590936 -0.15581614
0.21800999 1.0211952e-05 -0.15760857
0.21800999 0.10344755 -0.15881218
0.21800999 0.12938474 -0.15257522
-0.231107 0.17136818 -0.15730157
0.17783192 0.17522907 -0.15943418
-0.16165598 0.22509 -0.15254843
-0.14183746 0.22509 -0.15611547
0.0052817054 0.22509 -0.15719393
0.015333708 0.22509 -0.15939288
0.025455613 0.22509 -0.15207329
-0.080592744 -0.338624 -0.14438072
-0.04487364 -0.338624 -0.14473926
-0.015919715 -0.338624 -0.14016931
0.15582158 -0.338624 -0.14894475
0.1767107 -0.338624 -0.14148055
0.21800999 -0.30537781 -0.14024514
-0.231107 -0.22951952 -0.14251243
0.21800999 -0.08303535 -0.14888546
-0.231107 -0.060499806 -0.14622146
0.21800999 -0.028388735 -0.14201576
0.21800998 0.06636332 -0.14857793
-0.231107 0.11777119 -0.14522344
0.21800999 0.11184239 -0.14640214
0.20334703 0.15738058 -0.1429681
0.12039423 0.21540821 -0.14276385
-0.2228511 0.22509 -0.1454092
-0.19468941 0.22509 -0.14546141
-0.231107 -0.33231452 -0.13536665
-0.18346378 -0.338624 -0.13061133
0.029462855 -0.338624 -0.13452771
-0.231107 -0.30262771 -0.13237832
0.21800999 -0.30063021 -0.13414291
-0.231107 -0.29689401 -0.13190103
-0.231107 -0.21855998 -0.13762593
0.21800999 -0.21441899 -0.1391495
-0.231107 -0.12715055 -0.13702384
0.20382202 -0.045033056 -0.13752843
-0.231107 0.067650981 -0.13721281
-0.231107 0.078556098 -0.13775569
0.18447559 0.17058167 -0.13459176
0.12134586 0.21474244 -0.13280283
-0.10754628 0.22509 -0.13869503
-0.079704076 0.22509 -0.13669865
0.084018655 0.22509 -0.13807797
-0.15659255 -0.338624 -0.12807328
-0.13434196 -0.338624 -0.12131581
-0.231107 -0.13241971 -0.12479698
0.20382199 -0.12006893 -0.1292391
-0.231107 -0.10597339 -0.12763962
-0.231107 0.076542862 -0.12291437
0.21800999 0.12487038 -0.12677737
-0.231107 0.14525767 -0.12283111
-0.231107 0.16907392 -0.12778971
-0.22833812 0.22509 -0.12746415
0.089121237 0.22509 -0.12665828
-0.21735497 -0.338624 -0.11516517
-0.13038021 -0.338624 -0.11177306
0.054185897 -0.338624 -0.11227564
0.21801001 -0.30790111 -0.11544985
-0.231107 -0.24121401 -0.11242095
0.21801001 -0.22992373 -0.11430386
0.21800999 -0.1674515 -0.11362892
-0.231107 -0.092700161 -0.11582795
0.22268152 0.05389867 -0.11589912
-0.231107 0.17418608 -0.11293816
-0.17352833 0.22509 -0.11508017
-0.046160072 -0.338624 -0.10834147
0.078209132 -0.338624 -0.10126655
0.18459934 -0.338624 -0.1026509
-0.231107 -0.24716729 -0.10752088
-0.231107 -0.18145967 -0.10976384
0.203822 -0.094670273 -0.10436098
0.20382202 -0.00099788792 -0.10900936
-0.231107 0.071609899 -0.10431243
0.21800999 0.083755881 -0.10769236
0.19953519 0.16004704 -0.10734589
-0.070858814 0.22509 -0.1036148
0.020842057 0.22509 -0.10564802
-0.17277987 -0.338624 -0.094384447
-0.16088365 -0.338624 -0.097407416
0.14283174 -0.338624 -0.098764539
0.21800999 -0.26682392 -0.099810228
-0.231107 -0.24072619 -0.090335399
0.20405799 -0.18435533 -0.099265091
0.21800999 -0.18837151 -0.098828875
0.22164607 -0.18749976 -0.094899327
0.203822 -0.11719041 -0.099703439
-0.231107 0.060377911 -0.091117077
-0.231107 0.17156006 -0.099216223
-0.093290471 0.22509 -0.091556042
-0.015399807 -0.338624 -0.088194281
-0.231107 -0.28205761 -0.0803729
0.21801001 -0.24038392 -0.088814273
-0.231107 -0.23303849 -0.080445655
-0.231107 -0.18781333 -0.082752869
0.203822 -0.073790625 -0.0839407
-0.231107 0.0038092844 -0.084157661
0.203822 0.00010288134 -0.084913999
0.23094743 0.067800693 -0.086717442
0.16414407 0.18480423 -0.080864266
0.12814978 0.20998347 -0.089069724
-0.10557923 0.22509 -0.082204364
-0.082682043 0.22509 -0.081819013
-0.021953844 0.22509 -0.080714896
0.064128786 0.22509 -0.085976601
-0.22663717 -0.338624 -0.075369909
-0.033401456 -0.338624 -0.07497035
0.030284934 -0.338624 -0.076674841
-0.231107 -0.3009398 -0.079257339
0.21800999 -0.218943 -0.071257487
-0.231107 -0.032300524 -0.077543169
0.203822 0.052459173 -0.075559303
0.2062889 0.15532264 -0.076727524
0.21283577 0.15074268 -0.078975089
0.16550806 0.18385005 -0.079707578
-0.231107 0.1954152 -0.079167739
-0.11765584 0.22509 -0.075732172
0.21800999 -0.24450828 -0.065876789
-0.231107 -0.21402797 -0.068439566
0.203822 -0.17738533 -0.065834805
-0.231107 -0.11923497 -0.064737186
-0.231107 0.012822525 -0.065419994
-0.231107 0.051476702 -0.063642263
0.23022635 0.077330366 -0.064677544
-0.21057525 0.22509 -0.063726023
-0.0091951843 0.22509 -0.061286859
-0.1890552 -0.338624 -0.056488313
-0.11338361 -0.338624 -0.052350938
0.0061090318 -0.338624 -0.052162848
-0.231107 -0.22276114 -0.056828283
-0.231107 -0.20085815 -0.050734803
0.20382199 -0.20731965 -0.0592888
-0.231107 -0.15952735 -0.051926434
-0.231107 -0.13632059 -0.057576835
-0.231107 -0.0096448064 -0.05861789
-0.231107 0.077312388 -0.05014674
0.21800999 0.086197294 -0.054563075
-0.231107 0.14097303 -0.055952698
-0.22261117 -0.338624 -0.046908394
0.21531871 -0.338624 -0.045883499
-0.231107 -0.21674274 -0.048556536
-0.231107 -0.16123447 -0.046684556
-0.231107 -0.085635841 -0.048328839
-0.231107 -0.016032299 -0.043983355
0.12065681 0.21522447 -0.049592495
-0.21669841 0.22509 -0.040584907
-0.084153607 0.22509 -0.040019635
0.203822 0.064168125 -0.030965641
0.21800999 0.140659 -0.035966504
0.21156293 0.15163313 -0.036128044
-0.1494244 0.22509 -0.035141416
-0.037351921 0.22509 -0.032349937
-0.2001774 -0.338624 -0.026892006
-0.15621178 -0.338624 -0.023082301
-0.03035479 -0.338624 -0.024713576
-0.231107 -0.32623783 -0.022122607
0.21800999 -0.32958597 -0.027526841
0.21800999 -0.29394728 -0.028188504
-0.231107 -0.27576661 -0.02132237
-0.231107 -0.1428944 -0.020459473
0.20382202 -0.14003605 -0.029605201
-0.231107 -0.0026128432 -0.025191434
-0.231107 0.046902277 -0.020436019
0.21800999 -0.26458433 -0.012014754
-0.231107 -0.21726732 -0.012815356
0.20382202 -0.21248883 -0.017345129
-0.231107 -0.10691831 -0.010869384
0.203822 -0.055450786 -0.013330378
0.16217835 0.18617892 -0.017122332
0.062277488 0.22509 -0.01225777
0.21800999 -0.29583782 -0.0071049556
-0.231107 -0.26303974 -0.00036662817
-0.231107 -0.25324085 -0.0044236928
-0.231107 -0.12889612 -0.0070404261
0.23092233 0.097771794 -0.0090779746
-0.231107 0.17804731 -0.0033704191
0.039351705 0.22509 -0.0067698136
-0.062563851 -0.338624 0.0071750805
-0.05195681 -0.338624 0.005729042
0.13315177 -0.338624 0.0099794865
-0.231107 -0.10282044 0.001674816
0.203822 -0.05702202 0.0023451711
-0.231107 -0.024432972 0.0072114468
-0.231107 0.082172684 0.0023834109
0.21800999 0.10103245 0.0050327107
-0.074232288 -0.338624 0.01238285
0.090979941 -0.338624 0.019241188
0.21800999 -0.32267082 0.011793166
-0.231107 -0.31824332 0.018168598
-0.231107 -0.074760154 0.012803965
0.203822 0.038059965 0.017462354
0.22987482 0.096352488 0.013254772
-0.11093193 -0.338624 0.026016295
-0.054656669 -0.338624 0.023295842
-0.231107 -0.30356368 0.020228431
0.203822 -0.15468676 0.022353027
-0.231107 -0.076824516 0.02639851
-0.231107 -0.065972626 0.029711157
-0.231107 0.031514108 0.026158389
0.22668888 0.093123376 0.024439588
0.22417036 0.11107814 0.02050841
0.1501808 0.19457164 0.029694546
-0.18667892 0.22509 0.021615751
-0.039934881 0.22509 0.023544218
-0.19933677 -0.338624 0.039996676
-0.17000978 -0.338624 0.032936074
-0.06527485 -0.338624 0.031602614
0.15576093 -0.338624 0.038708329
0.16052881 -0.338624 0.036434818
0.17632413 -0.338624 0.031258248
0.19429184 -0.338624 0.038581245
-0.231107 -0.16603519 0.037775189
-0.231107 -0.15412164 0.037179373
0.203822 -0.14211747 0.03079932
0.203822 -0.075778611 0.036492594
0.203822 0.035551067 0.032634102
-0.231107 0.057378065 0.036212385
0.22763425 0.092437238 0.034844954
0.13602325 0.20447543 0.031351138
-0.14868002 0.22509 0.035708822
-0.040247619 0.22509001 0.039415382
0.1064943 0.22509 0.038506202
-0.23110701 -0.33249968 0.049532369
-0.10987294 -0.338624 0.040226497
0.17938998 -0.338624 0.044185869
0.21800999 -0.28115335 0.040994164
-0.231107 -0.25013673 0.046426147
-0.231107 -0.16341025 0.04362997
-0.231107 -0.15368104 0.04179994
0.203822 -0.070407279 0.04880118
-0.231107 -0.036482204 0.047941066
0.203822 -0.026677717 0.040018477
-0.231107 0.029942237 0.043086536
0.21542893 0.14892861 0.043829903
-0.231107 0.16140139 0.045702972
0.17716435 0.17569634 0.041528672
0.13681023 0.20392461 0.044408616
0.052869529 0.22509 0.046190627
-0.13272947 0.25939685 0.042203967
-0.1456628 0.27079713 0.046285689
-0.14259198 0.28955168 0.044599362
-0.010965435 -0.338624 0.053764779
0.21800999 -0.29182822 0.05923859
-0.231107 -0.28969842 0.059437573
0.21800999 -0.24676459 0.058012571
-0.23110701 -0.13329038 0.050315283
0.203822 0.054345194 0.057025798
0.14691617 0.19685559 0.055453014
-0.231107 0.22244841 0.05574806
-0.18874782 0.22509 0.057508089
-0.15352184 0.22813329 0.052134857
-0.052405838 0.22509 0.055341002
-0.031159801 0.22509 0.059100736
0.066864908 0.22509 0.055042632
-0.15431985 0.26373875 0.053034067
-0.11345057 0.32386619 0.057907816
-0.22587793 -0.338624 0.065142237
-0.17042994 -0.338624 0.069151536
-0.089140899 -0.338624 0.069131196
-0.014942676 -0.338624 0.067068607
0.027838446 -0.338624 0.060449932
0.10425642 -0.338624 0.065046713
0.18526852 -0.338624 0.060293019
0.22601113 -0.22396274 0.066989511
-0.231107 -0.12470715 0.068640642
-0.231107 -0.079373293 0.064250499
0.203822 0.049200088 0.068940029
-0.231107 0.086830512 0.062445827
-0.231107 0.14742501 0.069229811
0.21560079 0.14880839 0.060051292
-0.231107 0.20988485 0.06080047
-0.051919237 0.22509 0.066181459
-0.099274375 0.23774371 0.061636269
-0.15529299 0.322772 0.064295292
0.056651346 -0.338624 0.076239154
0.11154553 -0.338624 0.072730526
-0.231107 -0.30845511 0.07470002
0.21800998 -0.26042321 0.072136223
0.21800999 -0.23760152 0.073223338
0.22251464 -0.22037786 0.07333868
0.23080242 -0.22892609 0.07279475
0.21895702 -0.21977937 0.075293519
-0.231107 -0.092648081 0.070982285
0.203822 -0.071456745 0.077976458
-0.231107 -0.030920289 0.073284566
-0.231107 -0.024749756 0.078983605
-0.0014258698 0.22509 0.074126922
-0.14581613 0.32277197 0.07663165
-0.10249938 0.32528985 0.079739422
-0.11229359 -0.338624 0.086791128
0.14726652 -0.338624 0.08427871
-0.231107 -0.1266405 0.081031568
-0.231107 -0.069757476 0.082675368
-0.231107 0.067776784 0.088191442
0.22709572 0.077101506 0.084491089
0.20485343 0.15632682 0.088451184
-0.050255056 0.22509 0.089110143
-0.046268351 0.22509 0.083041914
0.067786135 0.22509 0.08252155
-0.22181416 -0.338624 0.09195365
-0.030464284 -0.338624 0.090414353
0.21800998 -0.28085399 0.093608826
0.21801001 -0.27172029 0.090946607
0.21801001 -0.26610038 0.094256118
0.203822 -0.17725782 0.092712902
-0.231107 -0.11953814 0.099699996
-0.231107 -0.072208054 0.092070937
0.20382199 -0.040723458 0.096302658
0.2307995 0.083047122 0.095162377
-0.21705952 0.22509 0.090830624
-0.0319148 0.22509 0.096062765
-0.10318477 0.23812024 0.096697167
-0.15379183 0.24205437 0.099219441
-0.10116841 0.31434965 0.093371272
-0.16035248 -0.338624 0.10606612
-0.075475208 -0.338624 0.10290119
0.038220607 -0.338624 0.10600003
0.21406589 -0.338624 0.10956263
-0.231107 -0.20560013 0.10201797
-0.231107 -0.1944091 0.10309179
-0.231107 -0.16808139 0.10096234
-0.231107 -0.071016066 0.10123032
-0.231107 -0.042327914 0.10336152
0.20382199 -0.034241688 0.10888445
0.2095736 0.067891538 0.10061715
0.21532385 0.06555976 0.10432331
0.22889769 0.081428669 0.10865769
0.18205681 0.17227335 0.10342619
-0.231107 0.21822494 0.10533392
-0.021910019 0.22509 0.10817193
0.060355093 0.22509 0.10969876
-0.14629352 0.24709988 0.10502101
-0.13222598 0.26597822 0.10931899
-0.14469665 0.29909003 0.10598911
-0.13215336 0.31298688 0.10932055
-0.1509234 0.32277203 0.10025279
-0.20195393 -0.338624 0.11520988
-0.076642089 -0.338624 0.11936429
-0.018522672 -0.338624 0.11906168
0.11233422 -0.338624 0.11246318
-0.231107 -0.30530015 0.11701635
0.22407645 -0.22344106 0.11076025
0.23034504 -0.20758548 0.11051112
-0.231107 -0.14827137 0.11690335
0.203822 0.032710232 0.11668838
0.23025255 0.067877524 0.11044465
-0.089083724 0.22509 0.11071697
-0.20373538 -0.338624 0.12045283
-0.15712029 -0.338624 0.1272195
-0.092341021 -0.338624 0.12197265
0.10499896 -0.338624 0.12515397
0.20726536 -0.338624 0.12778071
-0.231107 -0.28204501 0.12049774
0.21800999 -0.21263412 0.12582763
0.22522023 -0.21455887 0.12248665
-0.231107 -0.084547505 0.12059057
-0.231107 -0.030100241 0.12565465
-0.231107 0.089852072 0.12076205
0.21800998 0.10246991 0.12055921
0.17101595 0.17999658 0.12471706
-0.2196454 0.22509 0.1205337
-0.06450887 0.22509 0.12188599
-0.025466135 0.22509 0.12315959
-0.00041814148 0.22509 0.12941323
0.10764856 0.22432368 0.12665926
0.10594443 -0.338624 0.13321781
-0.231107 -0.27448979 0.13677895
-0.231107 -0.24519616 0.13467234
-0.23110698 -0.2273985 0.13665366
-0.231107 -0.17054318 0.13651553
0.203822 -0.17915525 0.13417464
0.22419217 -0.17747957 0.13584317
-0.231107 0.099911451 0.13644457
-0.10350797 -0.338624 0.14043036
-0.080591723 -0.338624 0.14292091
0.17376718 -0.338624 0.14993361
0.21800999 -0.19502819 0.14312598
0.2293608 -0.17156126 0.1459552
0.203822 -0.14409988 0.14687644
0.20382199 -0.11269614 0.14433566
-0.231107 -0.10582504 0.14870036
-0.14562863 0.22509 0.14040002
-0.231107 -0.3376919 0.15699169
0.0078639165 -0.338624 0.15331776
0.080892101 -0.338624 0.15283133
-0.231107 -0.26364118 0.15733631
0.22078918 -0.18893737 0.15159009
0.22857653 -0.17798035 0.15626606
0.21800998 -0.16418025 0.15710741
0.20970571 -0.15561415 0.1534584
0.203822 -0.044110809 0.15888485
0.2148937 0.016690077 0.15133114
0.22807965 0.01119488 0.15826911
0.21800999 0.080122694 0.15970217
-0.12561306 0.22509 0.1535928
0.052985262 0.22509 0.15364224
-0.063583791 0.25203821 0.15610591
-0.068971813 0.2650668 0.15307039
-0.050481893 -0.338624 0.16609162
0.21800999 -0.23128805 0.16857077
-0.231107 -0.19297302 0.16003788
0.21800999 -0.18398315 0.1607485
-0.231107 -0.17854854 0.16639054
0.21800999 -0.15399902 0.16868676
0.21800998 0.057853747 0.16235617
0.21800999 0.066844776 0.16992645
-0.047603838 0.23709741 0.16969073
-0.097820163 0.28001112 0.16443588
-0.084845074 0.330957 0.16907388
-0.079982616 -0.338624 0.17765974
0.091027714 -0.338624 0.17698355
0.21800998 -0.14889835 0.17503309
0.2309601 -0.13577266 0.17419812
0.21551876 -0.10970066 0.17213599
0.21688408 -0.093520366 0.17497844
0.21500437 -0.088321388 0.17589174
0.21800999 0.067483544 0.17194706
0.033078089 0.22509 0.17286709
-0.098592862 0.29283273 0.17417717
-0.076123193 0.33569795 0.17408939
-0.21455167 -0.338624 0.18098946
-0.084263548 -0.338624 0.18397449
-0.076505989 -0.338624 0.18771121
-0.231107 -0.30516642 0.18585579
-0.231107 -0.29949614 0.180068
-0.231107 -0.18665098 0.18353298
0.21801001 -0.091515198 0.18265007
0.21800999 -0.052457891 0.18410121
-0.231107 0.14383867 0.1891084
0.18238862 0.17337391 0.18783869
-0.036364395 0.30821472 0.18795116
0.14235403 -0.338624 0.19229262
0.21800999 -0.27190283 0.19822598
0.21800998 -0.18829241 0.19499592
0.21800999 -0.11103015 0.19724426
-0.231107 -0.067925289 0.19465418
-0.231107 0.018698283 0.19979846
-0.231107 0.15271975 0.19542432
-0.19064963 0.22509 0.19449845
-0.034546286 0.25334042 0.19351949
-0.20052975 -0.338624 0.20392729
-0.064877018 -0.338624 0.20127939
0.21800999 -0.33570066 0.20936251
0.21800999 -0.26041734 0.2058624
0.21801001 -0.1928881 0.2094864
0.21800999 -0.1362139 0.20007357
-0.231107 -0.10823798 0.20724505
0.097133964 0.22509 0.20909464
-0.032413721 0.23261273 0.20280707
-0.032842364 0.25071228 0.2002999
-0.062049478 0.326592 0.20542043
-0.050807748 -0.338624 0.21313359
0.039026007 -0.338624 0.2168605
0.070765845 -0.338624 0.2112726
0.093179174 -0.338624 0.21504524
0.21800998 -0.33123329 0.21405225
-0.231107 -0.25705475 0.21710706
0.21801001 -0.1576646 0.21470085
-0.231107 -0.086249769 0.21669574
0.21801001 0.082459554 0.21719432
-0.231107 0.15022269 0.21053737
0.16092247 0.18705741 0.21577242
-0.231107 0.21742168 0.2170673
-0.083145149 0.28473416 0.21738827
-0.037830759 0.28682703 0.2143801
-0.065133393 0.32659197 0.21829498
-0.045079917 0.326592 0.21461168
-0.015512951 -0.338624 0.2250713
0.21801001 -0.20815727 0.22056803
-0.231107 -0.18779266 0.2200193
0.21800998 -0.16502117 0.22348207
0.21800999 -0.13622899 0.22055274
-0.231107 -0.012357401 0.22094691
0.20218378 0.15819438 0.22814475
0.15127574 0.1938059 0.22249389
-0.21640483 0.22509 0.22040707
-0.010965368 0.22509 0.22737148
-0.0022334475 0.22509 0.22688514
0.0012570042 0.22509 0.22092323
-0.080245174 0.32621434 0.22058855
-0.043915126 0.326592 0.22269642
-0.19937193 -0.338624 0.23306282
-0.12479796 -0.338624 0.23123154
-0.016787276 -0.338624 0.23507816
-0.231107 -0.31813741 0.23713017
-0.231107 -0.24793611 0.2340288
0.21800999 -0.10221925 0.23700973
-0.231107 -0.076244347 0.23114923
-0.087037608 0.22509 0.23816293
-0.067999057 0.23606798 0.23073593
-0.050157756 0.26519603 0.23718682
-0.040456943 0.28481644 0.2376613
-0.050386921 0.29299307 0.23048612
-0.063299336 0.3155407 0.23362514
0.13285469 -0.338624 0.24406251
-0.231107 -0.32101858 0.24853927
-0.231107 -0.27541965 0.241961
0.21801001 -0.26911372 0.24121834
0.21801001 -0.19698317 0.24948554
-0.231107 -0.094378106 0.24771298
0.21800999 0.00052820332 0.24015889
0.21800998 0.047911037 0.24010721
0.21800999 0.089249931 0.24822614
0.21800999 0.1087124 0.24147877
-0.231107 0.14542033 0.24501096
-0.231107 0.19139138 0.24682131
0.1165503 0.21809708 0.24459873
-0.10303183 0.22509 0.24119765
0.044157211 0.22509 0.24989218
-0.16128421 -0.338624 0.25795805
0.15797423 -0.338624 0.2565293
-0.231107 -0.20285107 0.25907791
0.21800999 -0.13761154 0.25830916
0.21801001 -0.11782254 0.25504783
-0.231107 -0.073908955 0.25763637
0.21801001 -0.032945741 0.2592082
-0.231107 -0.024001703 0.25445652
0.21800999 0.026967281 0.2541796
-0.231107 0.15061043 0.25906873
0.1354939 0.2048457 0.25659633
0.014412781 0.22509 0.25724387
-0.12376101 -0.338624 0.26361051
-0.1046437 -0.338624 0.26855174
0.12286596 -0.338624 0.2618936
0.21800999 -0.17816454 0.26874781
-0.231107 -0.12217787 0.26574928
0.21800999 -0.040739261 0.26141062
0.21800999 0.13935374 0.26250252
-0.231107 0.18647943 0.26534706
-0.13592073 0.22509 0.26623976
-0.085387416 0.22509 0.26880413
-0.077708825 0.22509 0.26412171
0.023604035 0.22508998 0.26982999
-0.096488908 -0.338624 0.273085
0.10208348 -0.338624 0.27919847
0.21800999 0.039259598 0.27453777
0.21800999 0.080391452 0.2720232
0.21273413 0.15081379 0.27844936
-0.231107 0.18189558 0.27152574
-0.21573488 0.22509 0.2713986
0.047674637 0.22509 0.27391231
-0.21797854 -0.33862397 0.28235009
-0.18051155 -0.33024296 0.28622299
-0.062192224 -0.338624 0.28376475
0.055825237 -0.3341563 0.28622299
0.063752748 -0.33784133 0.28622299
-0.18680404 -0.32596028 0.28622299
-0.1146588 -0.32005656 0.28622299
-0.049453788 -0.32169673 0.28622299
0.017634513 -0.32457536 0.28622299
0.044230737 -0.3274366 0.28622299
0.1878705 -0.32896349 0.28622299
-0.231107 -0.31276113 0.28537512
-0.19445609 -0.31591877 0.28622299
-0.1556693 -0.31712562 0.28622299
-0.12442034 -0.31968668 0.28622299
-0.074389622 -0.31186879 0.28622299
0.045711637 -0.31997335 0.28622299
-0.17174041 -0.28364396 0.28622299
-0.073315196 -0.28596121 0.28622299
0.12282529 -0.28220883 0.28622299
0.17248957 -0.28813714 0.28622299
-0.14227106 -0.27723116 0.28622299
0.0016234592 -0.27663264 0.28622299
0.072454341 -0.27093339 0.28622299
0.13561565 -0.27134952 0.28622299
0.14277904 -0.26914984 0.28622299
0.21800999 -0.26065409 0.28259805
-0.17001447 -0.25459519 0.28622299
-0.1633358 -0.25769579 0.28622299
-0.13419195 -0.25542447 0.28622299
-0.064103752 -0.25433043 0.28622299
-0.10560997 -0.24144199 0.28622299
0.1176469 -0.24250609 0.28622299
0.14564413 -0.24131101 0.28622299
0.15362364 -0.24705352 0.28622299
0.17191216 -0.2455069 0.28622299
-0.17939113 -0.23751041 0.28622299
0.086746529 -0.23291987 0.28622299
0.13980514 -0.23172118 0.28622299
-0.20900689 -0.22125009 0.28622299
0.079402633 -0.22689453 0.28622299
-0.19024004 -0.21600549 0.28622299
0.0021078922 -0.21270262 0.28622299
-0.14366373 -0.20242518 0.28622299
-0.1391632 -0.20660797 0.28622299
0.19168541 -0.20255275 0.28622299
-0.14233744 -0.19392546 0.28622299
-0.033872601 -0.19090331 0.28622299
0.0045356937 -0.19769639 0.28622299
0.016675957 -0.18557435 0.28622299
-0.14847791 -0.17318429 0.28622299
-0.0062213689 -0.17927846 0.28622299
-0.20087379 -0.16587865 0.28622299
-0.093750343 -0.16370219 0.28622299
-0.21839915 -0.1577228 0.28622299
0.18220782 -0.15407519 0.28622299
-0.1994068 -0.14768025 0.28622299
0.01075126 -0.13886078 0.28622299
0.089518718 -0.13428861 0.28622299
-0.16803709 -0.12700674 0.28622299
-0.069925554 -0.11594356 0.28622299
-0.058843944 -0.11911196 0.28622299
0.086815901 -0.11837076 0.28622299
-0.19647473 -0.10688049 0.28622299
0.090793766 -0.1026964 0.28622299
-0.17337611 -0.080027841 0.28622299
-0.10857923 -0.088674515 0.28622299
-0.051436789 -0.086859018 0.28622299
0.045709968 -0.083290152 0.28622299
0.13882464 -0.08256878 0.28622299
0.1598025 -0.084403932 0.28622299
0.21215999 -0.088268653 0.28622299
-0.045017011 -0.076781981 0.28622299
-0.011644758 -0.071742982 0.28622299
0.11233985 -0.075315431 0.28622299
0.20348823 -0.073193647 0.28622299
-0.077285565 -0.0657897 0.28622299
-0.030611344 -0.065747365 0.28622299
-0.15617134 -0.057320714 0.28622299
0.011926599 -0.054412164 0.28622299
0.21800999 -0.05307563 0.2823447
-0.017222956 -0.049025126 0.28622299
0.17193474 -0.044378422 0.28622299
0.20361581 -0.045091502 0.28622299
-0.11316279 -0.033335969 0.28622299
-0.071522407 -0.03082516 0.28622299
0.095122017 -0.030488789 0.28622299
-0.22170995 -0.020046741 0.28622299
0.066660695 -0.020731457 0.28622299
0.073235579 -0.02897395 0.28622299
0.038471043 -0.018869631 0.28622299
0.15043622 -0.010561232 0.28622299
-0.04045685 -0.0088504255 0.28622299
-0.028779034 -8.1092119e-05 0.28622299
0.11558705 -0.0023304895 0.28622299
-0.20419851 0.0091263726 0.28622299
0.17420687 0.0078186914 0.28622299
-0.023491867 0.0118725 0.28622299
0.13682897 0.013490826 0.28622299
-0.15919286 0.027752213 0.28622299
-0.14885136 0.025885694 0.28622299
0.065396592 0.022411453 0.28622299
0.19290367 0.027689151 0.28622299
-0.18856142 0.030385286 0.28622299
-0.14505534 0.030277513 0.28622299
0.16821416 0.035140019 0.28622299
-0.099789642 0.047287825 0.28622299
0.090493083 0.049073316 0.28622299
0.21800999 0.041483857 0.28226039
-0.12704273 0.056335788 0.28622299
-0.10225388 0.05435212 0.28622299
-0.05268538 0.06723275 0.28622299
0.056589123 0.061514832 0.28622299
0.16864793 0.076635897 0.28622299
0.18189293 0.075924382 0.28622299
0.21017508 0.08476644 0.28622299
-0.12260449 0.096269697 0.28622299
0.077260733 0.094271645 0.28622299
0.19275418 0.092136152 0.28622299
-0.16287936 0.10721903 0.28622299
-0.15390313 0.10211045 0.28622299
0.045703374 0.10166858 0.28622299
-0.16033165 0.11695774 0.28622299
-0.059473645 0.11581182 0.28622299
0.13021138 0.11595873 0.28622299
0.19807331 0.11447804 0.28622299
0.11783163 0.12839116 0.28622299
0.073644713 0.13308318 0.28622299
-0.22918946 0.14193863 0.28622299
-0.16818017 0.14230371 0.28622299
0.11036739 0.15981707 0.28622299
0.12524037 0.15187116 0.28622299
0.16052862 0.15721908 0.28622299
0.21210887 0.15125106 0.28361741
-0.13640897 0.16563781 0.28622299
0.13369066 0.1633298 0.28622299
0.14918613 0.16196328 0.28622299
0.04564891 0.17555448 0.28622299
0.071233325 0.17117369 0.28622299
-0.14470977 0.18161476 0.28622299
-0.052521124 0.18176422 0.28622299
0.0062574595 0.20567243 0.28622299
0.034201458 0.20498881 0.28622299
-0.13718945 0.21477111 0.28622299
-0.12652375 0.21575317 0.28622299
-0.029552288 0.21572487 0.28622299
0.088048652 0.21073522 0.28622299
-0.15166953 0.22509 0.28384089
