# .PCD v0.7 - Point Cloud Data file format
VERSION 0.7
FIELDS x y z
SIZE 4 4 4
TYPE F F F
COUNT 1 1 1
WIDTH 979
HEIGHT 1
VIEWPOINT 0 0 0 1 0 0 0
POINTS 979
DATA ascii
-0.052244671 -0.37204033 -0.22265014
-0.234955 -0.3614344 -0.22253421
-0.13758588 -0.3620882 -0.223977
-0.056383535 -0.3632679 -0.223977
0.016533734 -0.36082959 -0.223977
0.17594942 -0.3649556 -0.223977
0.18029137 -0.36622164 -0.223977
-0.22527891 -0.35509089 -0.223977
-0.1120453 -0.35081095 -0.223977
-0.10801166 -0.35552073 -0.223977
-0.029380806 -0.3499912 -0.223977
0.014206022 -0.34077293 -0.223977
0.074139602 -0.34314644 -0.223977
0.14440623 -0.34623981 -0.223977
0.17715892 -0.34750727 -0.223977
-0.1600917 -0.33368343 -0.22397698
-0.094914317 -0.33899963 -0.223977
-0.04387733 -0.33689541 -0.223977
0.20335457 -0.33607566 -0.223977
-0.2269565 -0.31537807 -0.223977
-0.17132133 -0.31993258 -0.223977
0.1052359 -0.31344277 -0.223977
-0.20581724 -0.30367494 -0.223977
-0.10421097 -0.30368057 -0.223977
-0.072138995 -0.30453441 -0.223977
-0.053512096 -0.30836004 -0.223977
0.23766173 -0.30714434 -0.22123371
-0.016435351 -0.295288 -0.223977
-0.22243869 -0.28989315 -0.223977
-0.16368647 -0.28048438 -0.223977
-0.1934379 -0.27921844 -0.223977
-0.1467879 -0.27769649 -0.223977
-0.10863513 -0.27652478 -0.223977
-0.083995968 -0.2777819 -0.223977
0.011545017 -0.27571818 -0.223977
0.19072881 -0.27612257 -0.223977
-0.22663531 -0.26008213 -0.22397701
0.17925417 -0.2663869 -0.223977
0.23046499 -0.26265061 -0.22370133
-0.13772123 -0.24485043 -0.223977
-0.071528018 -0.24452062 -0.223977
-0.01169898 -0.24213912 -0.223977
0.21209849 -0.24775393 -0.223977
-0.18712513 -0.23830673 -0.223977
0.18484198 -0.23043495 -0.223977
-0.1602149 -0.21332638 -0.223977
-0.015351981 -0.21472165 -0.223977
0.081902146 -0.21747607 -0.223977
0.14141607 -0.21746235 -0.22397701
-0.1530188 -0.2055591 -0.223977
-0.060828999 -0.20049831 -0.223977
-0.021606218 -0.20485835 -0.223977
0.17170024 -0.20007421 -0.223977
-0.21788657 -0.19872315 -0.223977
-0.084574334 -0.19376506 -0.223977
0.041220047 -0.19325961 -0.223977
0.1829831 -0.1987375 -0.223977
0.14427738 -0.18464348 -0.22397698
0.0090407804 -0.17200446 -0.223977
0.10401481 -0.17352155 -0.223977
0.023887821 -0.16831698 -0.223977
0.091886945 -0.16635154 -0.223977
0.18499744 -0.16804795 -0.223977
-0.033685543 -0.15309031 -0.223977
0.14313877 -0.15717849 -0.223977
0.1846832 -0.15714857 -0.223977
-0.11634702 -0.1452125 -0.223977
-0.051898871 -0.14734843 -0.223977
0.015781127 -0.14188023 -0.223977
0.20432559 -0.14651471 -0.223977
-0.18756202 -0.13043337 -0.223977
-0.17957784 -0.13943675 -0.223977
0.13625538 -0.13790198 -0.223977
0.16497961 -0.13259345 -0.223977
0.20873119 -0.13933937 -0.223977
0.087702297 -0.12983945 -0.223977
0.12649497 -0.12775278 -0.223977
-0.19025359 -0.11641323 -0.223977
0.10733575 -0.11078343 -0.223977
-0.030884249 -0.10512781 -0.223977
0.037426844 -0.10023556 -0.223977
-0.059816673 -0.098245613 -0.223977
-0.17676657 -0.081861228 -0.223977
-0.099856712 -0.081773207 -0.223977
-0.085046336 -0.08767084 -0.223977
-0.012579057 -0.08814498 -0.223977
0.23577982 -0.083958521 -0.22219279
-0.061144236 -0.071999319 -0.223977
0.041619226 -0.07881213 -0.223977
0.15361863 -0.076277383 -0.223977
-0.23379533 -0.061290465 -0.22301444
-0.1180229 -0.061778124 -0.223977
0.045070387 -0.064586908 -0.223977
0.23821628 -0.0675596 -0.22080827
-0.18901828 -0.052401572 -0.223977
-0.026547417 -0.059866093 -0.223977
0.026198007 -0.053738475 -0.223977
0.096794344 -0.05931307 -0.223977
0.1125731 -0.058924071 -0.223977
-0.16699666 -0.041030474 -0.223977
-0.14121002 -0.045231856 -0.223977
0.08918047 -0.043640014 -0.223977
-0.16856825 -0.03614191 -0.223977
-0.045405649 -0.035495512 -0.223977
-0.015968673 -0.035108298 -0.223977
-0.050309289 -0.022147581 -0.223977
-0.0074586645 -0.029572487 -0.223977
0.092483759 -0.022589803 -0.223977
0.19183522 -0.020561472 -0.223977
-0.10949069 -0.016741071 -0.223977
0.070254423 -0.015206575 -0.223977
0.11519717 -0.01050359 -0.223977
0.17700633 -0.011996843 -0.223977
-0.22622868 -0.0044885278 -0.223977
0.14654985 -0.0065743104 -0.223977
0.21604934 0.0038192272 -0.223977
-0.029071942 0.01475507 -0.223977
0.11461906 0.017392144 -0.223977
-0.056613594 0.025548592 -0.223977
-0.031912189 0.024968119 -0.223977
-0.010525264 0.027314112 -0.223977
0.025941335 0.023348942 -0.223977
0.21614942 0.027827136 -0.223977
-0.23596326 0.038405862 -0.22211668
-0.11962766 0.038985062 -0.223977
-0.012510791 0.037405506 -0.223977
0.10090911 0.033238694 -0.223977
0.11802355 0.038229384 -0.223977
0.15546599 0.033518486 -0.223977
-0.050859071 0.04559955 -0.223977
-0.087416828 0.050793149 -0.223977
-0.073367134 0.050001387 -0.223977
-0.055157769 0.051584806 -0.223977
-0.026278729 0.057533182 -0.223977
-0.16973245 0.06947913 -0.223977
-0.22276433 0.079688169 -0.223977
-0.20895727 0.089552864 -0.223977
-0.19473039 0.084075823 -0.223977
-0.092184857 0.085141569 -0.223977
0.111837 0.082556933 -0.223977
0.12694559 0.085065342 -0.223977
-0.091922611 0.10216853 -0.223977
-0.16262461 0.11058471 -0.223977
-0.11035822 0.11040589 -0.223977
-0.098671064 0.11722904 -0.223977
0.16838731 0.11516573 -0.223977
-0.20467725 0.13185446 -0.223977
-0.020757649 0.13097835 -0.223977
0.07093522 0.13323414 -0.223977
-0.084627055 0.14907326 -0.223977
-0.032095563 0.14769071 -0.223977
0.077718548 0.14980043 -0.223977
0.16253673 0.14162934 -0.223977
0.17367297 0.1534353 -0.223977
-0.23155069 0.16806681 -0.22355847
-0.20106536 0.16686144 -0.22397698
0.075306602 0.16608633 -0.223977
0.16770925 0.16464528 -0.223977
-0.16227913 0.17170152 -0.223977
-0.10616091 0.17482942 -0.223977
0.035981998 0.17582572 -0.223977
0.22215587 0.17165881 -0.223977
-0.15489094 0.18987642 -0.223977
-0.0045710281 0.18992546 -0.223977
0.019718252 0.18680143 -0.223977
-0.16270766 0.19940589 -0.223977
-0.025214806 0.1994828 -0.223977
-0.096105792 0.20846432 -0.223977
0.021456353 0.20359345 -0.223977
0.17228289 0.20001313 -0.223977
0.061176628 0.21400769 -0.223977
0.16802341 0.21677078 -0.223977
-0.05299785 0.22394606 -0.223977
-0.20741414 0.24502532 -0.223977
0.19967131 0.24833907 -0.22322941
0.023613088 0.25007412 -0.2209726
-0.15101939 0.26353455 -0.22249283
-0.21606988 0.27635503 -0.223977
-0.16096713 0.28939891 -0.22361901
-0.24593601 0.30420092 -0.22276554
-0.17685032 0.31385532 -0.223977
-0.18109542 0.32016096 -0.223977
-0.23041829 0.33925831 -0.223977
-0.2222041 0.33625531 -0.223977
-0.18456246 -0.37329602 -0.21200855
0.017321095 -0.37329599 -0.21307167
-0.23980239 -0.36803269 -0.21959144
-0.24198318 -0.25428089 -0.2172786
0.24358629 -0.10168123 -0.21518357
-0.092489995 0.25032699 -0.2116079
-0.027742578 0.25030687 -0.21973944
0.0015628054 0.25032699 -0.21488543
-0.19818023 -0.37329599 -0.20532198
-0.13753946 -0.37329599 -0.20272064
-0.025585525 -0.37329599 -0.206357
-0.001596753 -0.37329599 -0.20869552
0.00025086198 -0.37329599 -0.2015862
0.035565186 -0.37329599 -0.20272362
0.23361796 -0.37329599 -0.20701975
-0.24593601 -0.27644256 -0.20637119
-0.24593601 -0.2452089 -0.20604442
0.24593601 -0.041858952 -0.2024678
0.24593601 -0.016444877 -0.2046846
-0.24593601 0.20717709 -0.20572516
-0.24571083 0.21402229 -0.2081199
0.24572098 0.21556918 -0.20804277
0.24472716 0.24858928 -0.20838857
-0.12205311 0.25032699 -0.20539732
0.077501103 0.25032699 -0.20315912
-0.24593601 0.3615649 -0.2059615
-0.19854507 0.36252993 -0.20677751
0.19206576 -0.37329599 -0.19200908
-0.24593601 -0.26076195 -0.19246206
-0.24593601 -0.20095432 -0.19453636
-0.24593601 -0.15636018 -0.1975877
-0.24593599 -0.14058509 -0.19885619
-0.24593601 -0.034068167 -0.19271967
0.24593601 0.044871461 -0.19669679
-0.24593601 0.061061442 -0.1931265
-0.24593601 0.13549159 -0.19561841
-0.24593601 0.16866519 -0.19198896
-0.020886637 0.25032699 -0.19506541
-0.24593601 0.29415819 -0.19352293
0.2121775 -0.37329599 -0.18374668
-0.24593601 -0.26094535 -0.18702272
0.24593601 -0.21957095 -0.18500584
0.24593601 -0.20692353 -0.1881226
0.24593601 -0.12162269 -0.1845807
-0.24593601 -0.068705522 -0.1897735
0.24593601 -0.033961467 -0.18426031
0.24593601 0.14281967 -0.18434089
-0.025761887 0.25032699 -0.18000139
0.23323075 0.25032699 -0.18203071
-0.11726931 -0.37329596 -0.17197269
0.0032811016 -0.37329599 -0.17869548
0.021090932 -0.37329599 -0.1739074
0.24593601 -0.33146304 -0.17375863
0.24593601 -0.16441017 -0.17455545
-0.24593601 -0.13833907 -0.17457676
-0.24593601 -0.12529901 -0.17646438
0.24593601 -0.12363376 -0.17615704
0.24593601 0.21336585 -0.1725364
-0.10450447 0.25032699 -0.17538781
0.16571198 0.25032699 -0.1711601
-0.2347015 0.37329599 -0.17951256
-0.12089519 -0.37329599 -0.16606405
-0.017573364 -0.37329599 -0.16582966
0.076144151 -0.37329602 -0.16226944
0.17644958 -0.37329599 -0.161534
0.18142751 -0.37329599 -0.16247892
-0.24593602 -0.3451781 -0.16269739
-0.24593601 -0.29957592 -0.1628858
-0.24593601 -0.1718692 -0.16794518
0.24593601 -0.087874934 -0.16055992
0.24593601 0.15222493 -0.16314924
0.24593601 0.16415262 -0.16837561
-0.24593601 0.20368475 -0.16146381
-0.073782384 0.24533696 -0.16249301
-0.053500794 0.24559578 -0.16304201
0.0043418962 0.2426172 -0.16304201
0.090179771 0.24208504 -0.163591
0.015147664 0.25032699 -0.16011587
-0.076407276 -0.37329596 -0.15447593
-0.031844229 -0.37329599 -0.15631945
0.013298992 -0.37329599 -0.15538664
0.081217155 -0.37329599 -0.15876202
-0.24593601 -0.36738414 -0.15706173
0.24593601 -0.21098575 -0.15821321
-0.24593601 -0.20603742 -0.15330097
-0.24593601 -0.054455765 -0.15297857
0.24593601 0.057694279 -0.15363288
-0.081161529 0.25032699 -0.1589366
0.048224781 0.25032699 -0.15254
-0.17786773 -0.37329599 -0.14157049
-0.24593601 -0.24529807 -0.14999194
0.24593601 -0.13277611 -0.14300616
-0.24593601 -0.085987143 -0.14786412
0.24593601 -0.064774483 -0.14725465
0.24593601 0.098625764 -0.14722028
-0.24593601 0.11341538 -0.14564702
-0.24593601 0.15029807 -0.14906335
-0.24593601 0.21747638 -0.1434561
-0.14952283 0.25032699 -0.14497077
0.082551003 0.25032699 -0.14467213
-0.24593601 0.26289546 -0.14425805
-0.19187841 -0.37329599 -0.13172211
-0.1404544 -0.37329599 -0.13994668
0.076691404 -0.37329599 -0.13679558
0.22808121 -0.37329599 -0.13595976
-0.24593601 -0.23907746 -0.13322744
-0.24593601 -0.08391124 -0.13221037
0.24593601 0.14224964 -0.13844872
-0.13189191 0.25032699 -0.13939793
0.0058058128 0.25032699 -0.13883114
-0.23499219 0.37329599 -0.13537112
-0.18388027 -0.37329599 -0.126109
0.048257604 -0.37329599 -0.12293337
0.20777786 -0.37329602 -0.12481698
-0.24593601 -0.28778148 -0.12503846
0.24593601 -0.26054329 -0.12017158
0.24593601 -0.11836398 -0.12005702
0.24593601 -0.074771568 -0.12728885
-0.24593601 -0.0272834 -0.12244222
-0.24593601 0.11740347 -0.12240969
-0.24593601 0.12931891 -0.12783983
0.24593601 0.1842256 -0.12833172
0.24593601 0.20391248 -0.12133694
-0.24593601 0.21515325 -0.12825339
0.24593601 0.21473536 -0.12417975
-0.23816347 0.25032699 -0.12457006
0.017473482 0.25032699 -0.12262258
0.11202618 0.25032699 -0.12648042
0.15638655 0.25032699 -0.12751459
0.22450826 0.25032699 -0.12220366
-0.19268024 0.34657574 -0.1233155
-0.23525533 -0.37329599 -0.11684353
-0.15443078 -0.37329599 -0.11966401
-0.14522238 -0.37329602 -0.11230797
-0.0749413 -0.37329599 -0.11156629
0.032934323 -0.37329599 -0.1189672
0.10524736 -0.37329596 -0.11643088
0.21814919 -0.37329599 -0.11440955
-0.24593601 -0.30050147 -0.11236751
-0.24593601 -0.19728875 -0.11677471
0.24593601 0.0066494979 -0.11397862
-0.24593601 0.028984565 -0.11461369
-0.24593601 0.10422658 -0.11215219
-0.24593602 0.2449194 -0.11321526
0.18554901 0.24492608 -0.11433417
-0.13346894 0.25032699 -0.11426643
-0.063297413 0.25032699 -0.11761316
0.10975143 0.25032699 -0.11867391
-0.24593601 -0.3548919 -0.10172372
0.24593601 -0.31129402 -0.10781881
-0.24593601 -0.29459977 -0.10124105
0.24593601 -0.14926283 -0.10630313
-0.24593601 -0.12882376 -0.10980605
-0.24593601 -0.10076357 -0.1052938
0.24593601 -0.0867441 -0.10844454
-0.24593601 -0.065555334 -0.10544828
0.24593601 0.094134472 -0.10499575
0.24593601 0.18491435 -0.10164211
0.24593601 0.20958987 -0.10879076
-0.078593209 0.25032699 -0.10106658
0.20164384 0.25032699 -0.10128619
0.23395661 0.25032699 -0.10587835
-0.22607742 0.37329599 -0.10885891
-0.11514573 -0.37329599 -0.091818996
-0.059912294 -0.37329599 -0.099593304
0.059291258 -0.37329596 -0.091230221
-0.24593601 -0.36202228 -0.097620249
-0.24593601 -0.26789695 -0.090947852
-0.24593601 -0.23865494 -0.096640177
-0.24593601 -0.13825098 -0.098815352
-0.24593601 -0.10023647 -0.095803246
0.24593601 0.026353225 -0.096336134
0.24593601 0.052458152 -0.096240044
-0.24593601 0.074218072 -0.098951638
0.24593601 0.085591182 -0.09897387
-0.11418401 0.24212572 -0.099487111
-0.082881264 0.25032699 -0.09271884
0.1315598 0.25032699 -0.096339479
0.14415318 0.25032699 -0.092658177
0.15067276 0.25032699 -0.098311886
-0.21143076 -0.37329596 -0.085274205
-0.048576042 -0.37329599 -0.081711359
0.10765829 -0.37329599 -0.081999294
0.24593601 -0.30849937 -0.080774099
-0.24593601 -0.2626594 -0.081072867
0.24593601 -0.094290704 -0.086298883
0.24593601 0.11233065 -0.080199674
0.24593601 0.20705882 -0.088335127
0.24593601 0.22644211 -0.08377406
-0.23715299 0.25674433 -0.087598108
-0.13245468 0.25032699 -0.088895269
-0.12164554 0.25032699 -0.080183618
-0.038446769 0.25032699 -0.084157385
0.099265896 0.25032699 -0.088330939
0.22614944 0.25032699 -0.082541436
-0.24593601 0.32272542 -0.08159595
-0.19032145 0.36563826 -0.086418964
-0.24593601 -0.36269006 -0.075222015
-0.13043115 0.25032699 -0.074074626
0.0094923787 0.25032699 -0.079820037
0.019063234 0.25032699 -0.078174375
0.2246637 0.25032699 -0.079195239
-0.24593601 0.26925683 -0.078413017
-0.24593601 0.30534062 -0.072910078
-0.19361061 0.34840971 -0.073385902
-0.19451812 0.35019857 -0.076712549
-0.19031847 0.36563152 -0.079482675
-0.15428963 -0.37329599 -0.060136072
-0.096251033 -0.37329599 -0.066776097
0.24593602 -0.36851311 -0.065422669
0.24593601 -0.34926474 -0.068141751
-0.24593601 -0.33569437 -0.061357003
-0.24593601 -0.26212734 -0.065145783
0.24593601 -0.13208404 -0.066473603
0.24593601 -0.06246822 -0.069695547
0.24593601 -0.057368163 -0.066649616
-0.24593601 -0.0053393152 -0.066121213
0.24593601 -0.004524067 -0.069794402
-0.24593601 0.078387596 -0.064815298
0.24593601 0.073060825 -0.065248065
-0.24593601 0.090731159 -0.066655993
0.24593601 0.095675476 -0.064301789
-0.24593599 0.20667502 -0.069104254
-0.24355525 0.25911099 -0.062675275
0.01035032 0.25032699 -0.061091423
0.073133551 0.25032699 -0.063309833
0.15219595 0.25032699 -0.066140145
-0.15479583 0.27189174 -0.069467738
-0.22027802 -0.37329599 -0.052419268
0.03182967 -0.37329599 -0.057266541
0.24079861 -0.37329602 -0.053146493
-0.24593601 -0.33270982 -0.058460318
0.24593601 -0.33083051 -0.058386505
-0.24593601 -0.32780203 -0.057156794
0.24593601 -0.31163391 -0.056640059
-0.24593601 -0.25374243 -0.058013745
-0.24593601 -0.15972254 -0.052804548
0.24593601 -0.056663882 -0.050199598
-0.24593601 -0.03479851 -0.055920601
0.24593601 0.012682285 -0.055653755
-0.24593601 0.021547746 -0.055674408
0.24593601 0.11300074 -0.054239959
0.18539426 0.24154399 -0.055131219
-0.157291 0.25032699 -0.051068515
0.19414997 0.25032699 -0.05176755
0.22424397 0.25032699 -0.058033098
-0.24593601 0.32191935 -0.050546028
-0.21819456 -0.37329599 -0.040324531
-0.17482159 -0.37329599 -0.047892667
0.21218471 -0.37329599 -0.041955218
0.24593601 -0.26516464 -0.045855261
0.24593601 -0.2438993 -0.041175928
0.24593601 -0.12149454 -0.040783226
-0.24593601 -0.010088041 -0.042272553
-0.24593601 0.086920731 -0.044267923
0.24593601 0.11956497 -0.043867327
-0.24593601 0.13754421 -0.043820146
-0.24593601 0.24497828 -0.046814322
-0.10256837 0.25032699 -0.042499475
0.06589368 0.25032699 -0.04950558
-0.18164602 0.32482225 -0.045897495
-0.131974 -0.37329599 -0.030205183
-0.094315931 -0.37329599 -0.034842953
-0.0027123839 -0.37329599 -0.039145574
0.060852122 -0.37329599 -0.030450627
0.24593601 -0.30246753 -0.032695882
-0.24593601 -0.26935598 -0.031933066
0.24593601 -0.25922856 -0.030676134
-0.24593601 -0.17356417 -0.037446976
-0.24593601 -0.092971079 -0.034852564
0.24593601 -0.055453405 -0.037169576
-0.24593599 0.044219673 -0.030144207
-0.24593601 0.060529016 -0.033609852
-0.24593601 0.23925623 -0.03572049
-0.23928781 0.25911099 -0.032738894
-0.16555801 0.29310846 -0.035458934
-0.17565174 0.31300682 -0.035500869
-0.24593601 0.32892177 -0.037376888
-0.11200951 -0.37329599 -0.020451352
-0.052903339 -0.37329596 -0.022772916
0.012945965 -0.37329602 -0.028790802
0.24593601 -0.31162983 -0.025801376
0.24593601 -0.28501952 -0.020852417
0.24593601 -0.2337355 -0.026822183
0.24593601 -0.15886888 -0.028384127
-0.24593601 -0.13637614 -0.020585282
0.24593601 -0.045974351 -0.022814557
0.24593601 -0.039501891 -0.022553489
0.24593601 0.010855444 -0.026472315
-0.24593601 0.096757546 -0.023687489
0.24593601 0.10194209 -0.021236051
-0.24593601 0.12693629 -0.022873491
0.24593601 0.21517046 -0.02483137
0.19747773 0.24364048 -0.02339625
-0.24593601 0.27176309 -0.021807998
-0.10671387 -0.37329599 -0.011945512
0.22754028 -0.37329599 -0.013569079
-0.24593601 -0.35333589 -0.015716493
0.24593601 -0.34780371 -0.012237959
-0.24593601 -0.30034575 -0.015376732
-0.24593601 -0.27160275 -0.015944958
-0.24593601 -0.15542273 -0.014754444
-0.24593601 -0.13867168 -0.010882718
0.24593601 -0.13596042 -0.01138703
-0.24593599 -0.026446983 -0.013412006
-0.24593601 0.02179482 -0.012710424
-0.24593601 0.22370693 -0.01310236
0.19775517 0.24382544 -0.010330556
-0.017395139 0.25032699 -0.018484866
-0.19245042 0.34612203 -0.01114361
-0.20766862 -0.37329599 -0.00062089972
-0.079044484 -0.37329599 -0.00056435913
-0.06459292 -0.37329599 -0.0067599267
0.24421428 -0.3723428 -0.0092508579
-0.24593601 -0.28646463 -0.0002643913
-0.24593601 -0.23654087 -0.0092418641
0.24593601 -0.2395356 -0.0036795214
0.24593601 -0.21513546 -0.0084632039
-0.24593601 -0.18629637 -0.0060588941
-0.24593601 -0.11618377 -0.0078385025
0.24593601 0.015642719 -0.0064438581
0.24593601 0.084475599 -0.0093725771
-0.24593601 0.19292343 -0.0088231638
-0.17624325 0.31417182 -0.00090627262
-0.24593601 0.32636568 -0.0049626678
-0.21588793 0.37329602 -0.0081508011
-0.016163871 -0.37329602 0.0080273896
0.10982899 -0.37329599 0.0084647089
0.14930816 -0.37329599 0.00031988695
-0.24593601 -0.33412394 0.0087685734
0.24593601 0.079269402 0.0085023567
0.24593601 0.23448505 0.0085026175
0.078076959 0.25032699 0.003686931
0.10822012 0.25032699 0.0093438774
0.13691884 0.25032699 0.0054347813
-0.17717057 0.31600061 0.0088681197
-0.24593601 0.32622966 0.0087830797
-0.24109766 -0.37329596 0.017227821
-0.18670422 -0.37329602 0.011265606
-0.10167806 -0.37329602 0.01236948
0.1210862 -0.37329602 0.010838754
0.17002527 -0.37329599 0.016916689
0.24593601 -0.35632592 0.010636121
-0.24593602 -0.33066392 0.014587827
-0.24593601 -0.32011211 0.012526423
0.24593601 -0.24675688 0.015396729
0.24593601 -0.18115036 0.014668137
0.24593601 -0.11119959 0.012959957
-0.24593601 -0.073090971 0.013670072
-0.24593601 -0.017043471 0.012657216
0.24593601 0.14618464 0.010563113
0.24593601 0.18423933 0.016536288
0.24593601 0.20036772 0.013634801
0.0050342754 0.25032699 0.013136022
0.18387854 0.25032699 0.012797209
-0.15922637 0.28062585 0.017688062
-0.24294804 0.37129378 0.018381692
-0.24593601 -0.16766819 0.026812077
0.24593601 -0.070869282 0.021197945
-0.10595808 0.25032699 0.022152521
-0.065616883 0.25032699 0.028230399
0.22088338 0.25032699 0.023023911
-0.24593601 0.29923657 0.022501452
0.0051168511 -0.37329599 0.032419395
0.24593601 -0.34879851 0.034388632
-0.24593601 -0.29502624 0.031975217
-0.24593601 -0.27239138 0.033480421
0.24593601 -0.2572391 0.031258121
-0.24593601 -0.17582384 0.034794871
-0.24593601 -0.14494768 0.036285095
-0.24593601 -0.110717 0.032520741
-0.24593601 -0.10180951 0.031586155
-0.24593601 0.074517667 0.035938725
0.24593601 0.15931877 0.036713615
-0.24286839 0.25911099 0.03274234
-0.23715299 0.25741711 0.032059241
-0.15810101 0.25452062 0.031444862
-0.067401335 0.25032699 0.038993061
-0.24593601 0.26730853 0.033174366
-0.1928065 0.36427125 0.039359547
-0.095041193 -0.37329596 0.046446353
-0.062193513 -0.37329599 0.045801647
0.053905804 -0.37329596 0.045769986
0.24593601 -0.24625126 0.041707233
0.24593601 -0.18113782 0.043996669
0.24593601 -0.15747651 0.047813818
-0.24593601 -0.13558598 0.049500503
0.24593601 -0.050398655 0.048030339
0.24593601 -0.0095148981 0.043638647
-0.24593601 0.074811377 0.040654391
-0.24593601 0.11003974 0.049355507
-0.058577329 0.25032699 0.04677986
0.016385768 0.25032699 0.043251574
0.029055601 0.25032699 0.048645794
0.031611949 0.25032699 0.040259428
0.048017964 0.25032699 0.041323587
-0.19658282 0.36312535 0.048976548
-0.19716057 -0.37329599 0.055200562
-0.18610251 -0.37329596 0.05900421
0.24593601 -0.36196572 0.051725186
-0.24593601 -0.33599892 0.053870253
0.24593601 -0.30687428 0.059063423
0.24593601 -0.28115973 0.057462476
-0.24593601 0.0013348721 0.054897718
-0.24593601 0.045137554 0.050144576
-0.24593601 0.081447572 0.050764859
-0.24593601 0.15280904 0.05933807
-0.115283 0.24498467 0.05887096
-0.15503961 0.25911099 0.057442121
0.17423001 0.25032699 0.059659109
0.18140286 0.25032699 0.05381896
0.19824247 0.25032699 0.052820463
-0.070669033 -0.37329602 0.06874454
0.14602917 -0.37329599 0.063687637
0.22388542 -0.37329599 0.060992569
-0.24593601 -0.12735939 0.063204505
0.24593601 -0.12415449 0.060733706
0.24593601 -0.069152631 0.065060198
0.18554902 0.24751873 0.069826618
0.24593601 0.24364835 0.06559436
0.021286082 0.25032699 0.067998439
0.18833134 0.25032699 0.066440895
-0.18295726 0.3274098 0.066938199
-0.17305334 0.32112172 0.067475423
-0.19960462 0.36220843 0.065253086
-0.21245384 0.37329599 0.067665428
-0.17726503 -0.37329596 0.070671
-0.16582295 -0.37329596 0.075135909
-0.10949059 -0.37329599 0.070232801
0.22417335 -0.37329599 0.071588092
-0.24593601 -0.3476131 0.078609765
-0.24593601 -0.2238155 0.073570721
-0.24593601 -0.18289404 0.072809458
-0.24593601 -0.12066647 0.078136176
0.24593601 -0.033064172 0.070287324
-0.24593601 -0.0078148395 0.078328043
0.24593601 0.15478081 0.070758842
-0.24593601 0.19257315 0.078693092
0.24569607 0.24729165 0.077220254
-0.23715299 0.2519432 0.07002525
-0.062491208 0.25032699 0.079821497
-0.059073903 0.25032699 0.071736336
0.19425233 0.25032699 0.074190959
-0.15957557 0.28131351 0.072870702
-0.24530816 0.36806917 0.079161376
-0.20043091 0.36185509 0.078592338
-0.23610143 0.37329599 0.079577483
0.24593601 -0.35225961 0.080130607
0.24593601 -0.27934319 0.084561348
0.24593601 -0.22708637 0.088670202
-0.24593601 -0.13339044 0.080053866
0.24593601 -0.072580263 0.084069401
0.24593601 -0.0091651827 0.087221019
-0.24593601 0.021030027 0.089997895
0.24593601 0.12456013 0.086262189
-0.24593599 0.17320198 0.084571511
0.24593601 0.17476627 0.08377783
0.01067974 0.25032699 0.083848938
0.22346659 0.25032699 0.088126674
0.24180187 0.2502932 0.089705467
-0.16742754 0.29679245 0.088094406
-0.24593601 0.31507379 0.086145028
-0.24593601 0.34360838 0.088781111
-0.18504229 -0.37329596 0.098766916
-0.14175142 -0.37329596 0.093638644
0.0088223219 -0.37329599 0.094827056
-0.24593601 -0.2475909 0.098548412
-0.24593601 -0.20908019 0.099343121
0.24593601 -0.15349165 0.093563199
-0.24593601 -0.10656185 0.09919849
-0.24593601 -0.099294603 0.091127485
-0.24593601 -0.067651458 0.093777306
-0.24593601 -0.047962308 0.096809097
0.24593601 -0.031884648 0.098886713
-0.24593601 -0.022291891 0.096566409
0.24593601 0.012326699 0.093856312
0.24593601 0.031986259 0.094860159
-0.24593601 0.05903114 0.090296313
-0.24593601 0.11498278 0.099249549
-0.24593601 0.2004213 0.095121026
0.24593601 0.2054882 0.092763722
-0.097844049 0.25032699 0.094297446
-0.065745123 0.25032699 0.099954933
0.24242964 0.25021094 0.099287517
-0.14779668 -0.37329599 0.10519828
-0.10103451 -0.37329602 0.10121607
0.24593601 -0.23095745 0.10068396
0.24593601 -0.13430053 0.10001789
-0.24593601 0.025284693 0.10663012
-0.24593602 0.16628975 0.10467704
0.24593601 0.17701462 0.10852517
0.24593602 0.19348215 0.1087996
0.046464466 0.25032699 0.10756621
0.098001637 0.25032699 0.10783987
-0.087730154 -0.37329602 0.11943106
0.23805548 -0.37329599 0.11014554
-0.24593601 -0.18202217 0.11419731
-0.24593601 0.0078697652 0.11339328
-0.24593601 0.13697545 0.11962332
0.24593601 0.17914309 0.1194509
-0.24593601 0.19076547 0.11251432
0.24593601 0.22963414 0.11397171
-0.069540299 0.25032699 0.1195963
0.0094769485 0.25032699 0.11686103
-0.17833152 0.318288 0.11528858
-0.23935214 0.37307885 0.11939706
-0.20906973 0.37329599 0.1175666
-0.078424051 -0.37329602 0.12650901
0.079105966 -0.37329599 0.12625879
0.13781725 -0.37329599 0.1214453
0.24593601 -0.3393172 0.12114872
0.24593601 -0.32697654 0.12636828
-0.24593601 -0.11535366 0.12114857
0.24593601 0.062769443 0.12548795
-0.081950329 0.25032699 0.12817585
-0.23156767 -0.37329599 0.13590781
-0.057566635 -0.37329599 0.13517049
-0.24593601 -0.26897523 0.13393912
-0.24593601 -0.19422282 0.1383054
-0.24593601 0.072785549 0.13405888
-0.24593601 0.1809912 0.13756534
-0.24578363 0.25911099 0.13429615
-0.079270132 0.25032699 0.13858631
0.023865297 0.25032699 0.13811018
0.13665392 0.25032699 0.1395136
0.17436591 0.25032699 0.13011569
-0.24593601 0.28310248 0.13475749
-0.24593601 0.31726646 0.1313701
-0.17137963 0.31500581 0.13297696
-0.19072591 -0.37329599 0.14947602
-0.061687097 -0.37329596 0.14654231
0.017769568 -0.37329599 0.14365347
0.093046278 -0.37329599 0.14331523
0.16283825 -0.37329599 0.14602092
0.19767235 -0.37329599 0.14238948
-0.24593601 -0.31844246 0.14560454
0.24593601 -0.2928783 0.1445529
0.24593601 -0.23478514 0.14719051
0.24593601 -0.16277635 0.14750662
-0.24593601 -0.10632792 0.1466459
0.24593601 -0.098126814 0.14840402
0.24593601 -0.061992466 0.14273527
-0.24593601 -0.027576581 0.14068854
-0.24593601 0.017186869 0.1485118
-0.24593601 0.17598516 0.14560583
-0.037685435 0.25032699 0.14608847
0.026589144 0.25032699 0.14527561
0.12347322 0.25032699 0.14887926
-0.24593601 0.27631152 0.14211009
-0.17985125 0.32128438 0.1483276
-0.19790243 -0.37329599 0.15521415
-0.17480581 -0.37329599 0.15478882
0.13583338 -0.37329599 0.15110283
0.14863449 -0.37329599 0.15350853
0.236982 -0.37329599 0.15428182
0.24593601 0.047711466 0.15806198
-0.24593601 0.054831252 0.1597774
0.24593601 0.12010333 0.15103787
0.24593601 0.13288569 0.15402269
0.24593599 0.17361438 0.153909
-0.24593601 0.20635173 0.15852188
0.15410163 0.25032699 0.15310754
-0.1666165 0.29519376 0.15526867
-0.14977475 -0.37329599 0.16100289
-0.053938035 -0.37329596 0.16589433
0.069776043 -0.37329599 0.16266742
0.24593601 -0.21858218 0.16160092
-0.24593601 -0.15446386 0.1617621
-0.24593601 0.055471994 0.16505721
0.24593601 0.072949082 0.16179574
-0.24593601 0.14535418 0.16796604
0.24593601 0.15988854 0.16600209
-0.042292424 0.24220607 0.16249299
-0.15619551 0.25911099 0.16074201
-0.23744485 -0.37329599 0.17227231
-0.161887 -0.37329599 0.17131698
-0.13443463 -0.37329599 0.17507356
0.070774391 -0.37329599 0.1767785
0.1406353 -0.37329602 0.17450893
0.17349544 -0.37329596 0.1708928
-0.24593601 -0.34813058 0.17512135
-0.24593601 -0.30423373 0.17197329
-0.24593601 -0.011253726 0.17389271
0.24593601 0.017640296 0.1735096
-0.24593601 0.02944093 0.17818314
-0.24593601 0.088641547 0.17995733
0.24593601 0.17309724 0.17074111
-0.060904399 0.25032699 0.17183311
-0.059757002 0.25032699 0.17238748
-0.028914839 0.25032699 0.17351645
-0.24593601 0.28980684 0.17102511
-0.24593601 0.32038009 0.17082328
-0.19457752 0.35031766 0.17662859
-0.035195976 -0.37329599 0.18568404
-0.24593601 -0.16647306 0.18642376
0.24593601 -0.089302681 0.18608725
-0.24593601 -0.018760655 0.18954372
0.24593601 0.022477791 0.18123358
0.24593601 0.13938046 0.18120047
-0.053748932 0.25032699 0.1873478
0.18986984 0.25032699 0.18875615
-0.17178659 0.30538586 0.18990463
-0.18350068 0.32847843 0.18859009
-0.24593601 0.36461431 0.18018253
-0.18839659 -0.37329599 0.1901139
-0.073559806 -0.37329602 0.19384433
0.091073811 -0.37329596 0.19618163
0.14953658 -0.37329602 0.19928941
0.2020952 -0.37329599 0.19488943
-0.24593601 -0.27542922 0.19467902
-0.24593601 -0.25758514 0.1980806
-0.24593601 -0.12755424 0.19008186
-0.24593599 -0.018365487 0.1955916
-0.24593601 -0.0074587464 0.19354951
-0.24593601 0.067100108 0.19032112
0.24593601 0.14658877 0.19231829
-0.24593601 0.15164334 0.19548216
0.24593601 0.22695734 0.1919876
-0.095766671 0.25032699 0.19804072
0.073655024 0.25032699 0.1959531
0.20572501 0.25032699 0.19841132
-0.15923749 0.28064713 0.19457349
-0.18553825 0.33249521 0.19056624
-0.19742434 -0.37329599 0.20009078
-0.021182999 -0.37329599 0.20538579
-0.24593601 -0.34299111 0.20487747
-0.24560843 -0.29749739 0.20889693
-0.24593601 -0.10591312 0.20452324
-0.24593601 0.21019207 0.20285468
0.24593601 0.24572995 0.20560439
0.027147556 0.25032699 0.20753658
0.031845726 0.25032699 0.20784687
-0.16952236 -0.37329599 0.21192458
-0.2396175 -0.31540209 0.2197333
0.24357986 -0.13887067 0.21519679
-0.24148953 0.10017242 0.21792221
0.24479763 0.12987334 0.21225914
0.24378653 0.14805374 0.21470022
-0.24483603 0.21197879 0.21216646
-0.20191112 0.25911099 0.21600588
-0.15166011 0.25911099 0.21782815
-0.062369686 0.25032699 0.21602519
-0.15916112 0.28059503 0.21023206
-0.16958332 0.3010428 0.21107261
-0.1922777 0.36443174 0.2139819
-0.22053418 0.37329599 0.2199924
-0.19853507 0.37279963 0.21168107
0.15522826 -0.37171072 0.22292006
0.16201451 -0.35644072 0.223977
0.16623981 -0.34932214 0.223977
0.0051827314 -0.33670729 0.223977
0.053182833 -0.33269382 0.223977
-0.1269388 -0.32511702 0.223977
-0.098688275 -0.32542071 0.223977
-0.073165908 -0.3248955 0.223977
0.15567936 -0.32979435 0.22397701
-0.1128832 -0.31236535 0.223977
-0.047773808 -0.31676051 0.223977
0.13809313 -0.31579924 0.223977
0.17577557 -0.31962669 0.223977
-0.10966104 -0.29525009 0.223977
0.21295726 -0.29126802 0.223977
0.23042253 -0.27661142 0.22370693
-0.15688103 -0.26849031 0.223977
-0.085231394 -0.26051354 0.223977
0.1685517 -0.26969919 0.223977
0.018815205 -0.25943464 0.223977
-0.064208977 -0.24496731 0.223977
0.10376208 -0.24082549 0.223977
0.14985506 -0.24938902 0.223977
0.2080842 -0.24784726 0.22397701
-0.20589389 -0.23670034 0.223977
0.00056374073 -0.23496918 0.223977
-0.21032716 -0.22194761 0.223977
-0.18449292 -0.22336721 0.223977
0.047900043 -0.22457764 0.223977
0.066076435 -0.22144364 0.223977
0.23339981 -0.22542115 0.2231786
-0.081553988 -0.21391632 0.223977
-0.053138532 -0.21521902 0.223977
0.10135292 -0.21037009 0.223977
0.19762276 -0.21615617 0.223977
-0.13715348 -0.20565064 0.223977
-0.21426962 -0.19577606 0.223977
0.013700273 -0.19542728 0.223977
0.1961309 -0.1980378 0.223977
0.0013650432 -0.18624589 0.223977
0.18496677 -0.1876872 0.223977
0.21544552 -0.1865868 0.223977
-0.14433779 -0.17281428 0.22397701
-0.097318426 -0.17893375 0.223977
0.16606912 -0.17869957 0.223977
-0.15342468 -0.16444455 0.223977
-0.14174953 -0.16201511 0.223977
-0.11403242 -0.16284898 0.223977
-0.079101704 -0.16952664 0.223977
-0.011164092 -0.16387042 0.223977
0.23300275 -0.1602971 0.22334307
-0.0952373 -0.15744191 0.223977
-0.0853917 -0.15397714 0.223977
0.16965848 -0.15495682 0.223977
0.034483738 -0.14984508 0.223977
0.14902316 -0.14212748 0.223977
-0.22640763 -0.13766009 0.223977
-0.053083137 -0.1345678 0.223977
0.20052844 -0.13311298 0.223977
-0.17005308 -0.12207479 0.223977
-0.16422886 -0.12615214 0.223977
-0.13251968 -0.12162869 0.223977
0.15246718 -0.11368316 0.223977
-0.19314906 -0.10958508 0.223977
0.094823338 -0.10290071 0.223977
0.085476384 -0.097659431 0.223977
0.097329393 -0.09228877 0.223977
-0.042976178 -0.086296074 0.223977
-0.010315647 -0.088715352 0.223977
0.071937382 -0.080768362 0.223977
0.18401399 -0.084152311 0.223977
-0.044273667 -0.063908122 0.223977
0.12218844 -0.062592536 0.223977
0.14278737 -0.068212077 0.223977
0.23888868 -0.064842805 0.22029242
-0.067243524 -0.055156521 0.223977
0.082197011 -0.051592402 0.223977
-0.12232779 -0.041753426 0.223977
-0.039121285 -0.048078954 0.223977
-0.024471156 -0.033315912 0.223977
-0.029070277 -0.021925494 0.223977
0.036686882 -0.026508097 0.223977
0.064452499 -0.027459368 0.223977
0.11802533 -0.022562847 0.223977
0.20100392 -0.021357045 0.223977
0.23814842 -0.023378789 0.22086033
-0.2188125 -0.019654125 0.223977
-0.1084234 -0.013595685 0.223977
-0.010855585 -0.012542024 0.223977
0.018788598 -0.012898296 0.223977
0.13891239 -0.01298622 0.223977
-0.17302668 0.00090741366 0.223977
0.062239844 0.0039189784 0.223977
0.074580498 0.004474448 0.223977
0.23202634 0.00344567 0.22349602
-0.02260777 0.038652897 0.223977
0.04578349 0.030893818 0.223977
0.15898362 0.036889866 0.223977
-0.18510148 0.041628376 0.223977
-0.15523455 0.044317298 0.223977
0.15639266 0.044506393 0.223977
0.19921282 0.049209207 0.223977
-0.12193967 0.058221962 0.223977
-0.01723088 0.05269172 0.223977
0.080797635 0.054548986 0.223977
0.13206406 0.069381095 0.223977
-0.18714808 0.075991318 0.223977
-0.17157836 0.075042933 0.22397698
0.027281012 0.084658548 0.223977
-0.10629062 0.092518538 0.223977
0.11636118 0.09346512 0.223977
-0.16059497 0.10960192 0.223977
-0.08973109 0.10126614 0.223977
-0.05802957 0.10018642 0.223977
-0.046919767 0.1075452 0.223977
0.1258889 0.10758783 0.223977
0.18732354 0.1028733 0.223977
0.00942019 0.11681357 0.223977
-0.0079623386 0.12976532 0.223977
0.18094096 0.12738158 0.223977
-0.14961143 0.13673723 0.223977
-0.04823124 0.13393365 0.223977
-0.024109505 0.13173771 0.223977
-0.14992718 0.1434527 0.223977
-0.2264189 0.1556063 0.223977
-0.053823218 0.15924482 0.223977
0.14138532 0.15446132 0.223977
-0.16437435 0.16755635 0.223977
0.1188387 0.16080022 0.223977
0.1202133 0.16370609 0.223977
0.16083173 0.16588663 0.223977
-0.024940044 0.18886817 0.223977
-0.035254613 0.19306533 0.223977
0.13908052 0.19532104 0.223977
-0.048106045 0.20111302 0.223977
-0.1405057 0.2148767 0.223977
-0.030782849 0.21346593 0.223977
-0.10195249 0.23122662 0.223977
-0.046752721 0.2324952 0.223977
0.11889982 0.23939973 0.223977
0.13402519 0.23354931 0.223977
-0.092852481 0.2498164 0.22159429
0.036609113 0.24225163 0.223977
0.15158904 0.24892843 0.22277734
0.2288788 0.2411042 0.22390996
-0.23802753 0.30416155 0.223977
-0.17346856 0.32190281 0.22247908
-0.19612409 0.33448517 0.223977
