# .PCD v0.7 - Point Cloud Data file format
VERSION 0.7
FIELDS x y z
SIZE 4 4 4
TYPE F F F
COUNT 1 1 1
WIDTH 881
HEIGHT 1
VIEWPOINT 0 0 0 1 0 0 0
POINTS 881
DATA ascii
0.096577875 0.0350601 -0.14015973
0.1930224 0.037366495 -0.14046334
0.16761267 0.040385593 -0.14038925
0.22869834 0.040888995 -0.14032298
0.15455344 -0.010525049 -0.13056362
-0.054085851 -0.0059303953 -0.13246678
-0.016898612 -0.0032088978 -0.13359408
-0.006868239 -0.0033137568 -0.13355064
0.03499892 -0.0058049532 -0.13251875
0.063846543 -0.0018766744 -0.1341459
0.090224259 -0.0078746658 -0.13166144
0.14960925 -0.00019525457 -0.13484237
0.17273988 -0.0022763247 -0.13398035
0.19234072 -0.0067856675 -0.13211252
0.21950004 -0.0037668338 -0.13336296
0.2230548 -0.0095260711 -0.13097741
0.038007438 0.0056465692 -0.13628785
0.079941005 0.00028011762 -0.13503927
0.1265661 0.00020210783 -0.13500696
0.14855607 0.0033222595 -0.13598189
0.160743 0.0036364216 -0.13602325
-0.057637222 0.010370715 -0.13646507
-0.042009629 0.017943688 -0.13790661
-0.016761288 0.016107678 -0.13766491
0.039392978 0.018595131 -0.13799235
0.076342881 0.017862935 -0.13789597
0.085464157 0.016758977 -0.13775066
0.098702684 0.019574646 -0.13812129
0.13220231 0.016157286 -0.13767144
0.14071335 0.012641696 -0.13720867
0.15700318 0.013897911 -0.13737403
0.19487669 0.011658156 -0.13707918
0.20868123 0.014566327 -0.13746202
-0.017485574 0.029866511 -0.13947606
0.055308349 0.026339725 -0.13901183
0.061891049 0.027165089 -0.13912047
0.16502094 0.027163586 -0.13912027
0.213247 0.02272214 -0.13853562
0.089082532 0.031621084 -0.13970704
0.10816872 0.03270179 -0.13984929
0.12357433 0.032271802 -0.1397927
0.13474292 0.030774377 -0.13959557
0.22448769 0.032458059 -0.13981721
-0.042666573 0.045596242 -0.13970333
-0.020631583 0.043694198 -0.13995372
0.010236785 0.049642369 -0.13917074
0.03675532 0.044422533 -0.13985784
0.078265518 0.0458561 -0.13966915
0.093655556 0.049222827 -0.13922597
0.11613533 0.043705795 -0.1399522
0.12822264 0.049726002 -0.13915974
0.18703251 0.046439383 -0.13959236
-0.050870713 0.053067222 -0.1387199
0.0073129088 0.053053908 -0.13872166
0.044876445 0.054044914 -0.13859123
0.077042386 0.051060304 -0.13898408
0.13187915 0.05346927 -0.13866699
0.17771381 0.05812047 -0.13805474
0.21967869 0.055169925 -0.13844314
-0.051361572 0.067473039 -0.13682362
-0.034381833 0.066845603 -0.13690621
0.00058227405 0.061909527 -0.13755597
0.062802657 0.069277868 -0.13658604
0.0966677 0.065792449 -0.13704485
0.22914639 0.069517687 -0.13655448
-0.035429262 0.073761381 -0.13599586
-0.026812902 0.076299869 -0.13529186
0.0080922693 0.078764334 -0.13427101
0.015474048 0.075764045 -0.13551383
0.032678954 0.074532315 -0.13584596
0.086205617 0.070110962 -0.1364764
0.09610606 0.074228249 -0.13568087
0.12566207 0.072558001 -0.13615428
0.1969685 0.072894111 -0.13611004
0.21227278 0.079593554 -0.13392752
0.22811045 0.076420508 -0.13524188
-0.051890031 0.087585658 -0.13061693
-0.046288643 0.082600951 -0.13268176
-0.032751977 0.086784765 -0.13094869
0.018999606 0.082175925 -0.13285783
0.02294739 0.08056286 -0.133526
0.049400829 0.08653 -0.13105424
0.13651763 0.085251808 -0.13158369
0.15436831 0.081682988 -0.13306201
0.19574749 0.083702214 -0.13222559
0.21467319 0.08739464 -0.13069606
-0.015066992 -0.031573586 -0.12184498
0.048661742 -0.033277038 -0.12058897
0.075905196 -0.033529747 -0.12039506
0.12149406 -0.031572748 -0.12184533
0.15372461 -0.03204437 -0.12153487
-0.050280001 -0.022330776 -0.1256735
0.03028054 -0.023815012 -0.12505871
0.056969374 -0.027608709 -0.12348729
0.063722812 -0.022811301 -0.12547445
0.10842077 -0.029102983 -0.12286834
0.11402895 -0.024600677 -0.12473327
0.12996171 -0.020856677 -0.12628408
0.13464077 -0.024664065 -0.12470701
0.15464796 -0.022245724 -0.12570873
0.17091677 -0.02462801 -0.12472194
0.21996082 -0.02151995 -0.12600935
0.22168902 -0.025625829 -0.12430865
-0.03438371 -0.017854996 -0.12752743
0.010739569 -0.019069081 -0.12702455
0.063232161 -0.015565964 -0.12847558
0.15575546 -0.012607548 -0.129701
0.16551003 -0.019750457 -0.1267423
0.18857011 -0.013408139 -0.12936939
-0.066128954 -0.0039148354 -0.1230253
-0.069898337 0.0085405651 -0.12173534
-0.0715499 0.031368818 -0.12144464
-0.06750486 0.043431677 -0.12845719
-0.066605315 0.06139167 -0.12737109
-0.06417229 0.08834815 -0.12300882
0.10857628 0.089233249 -0.12993447
-0.020072626 0.092336737 -0.12864891
0.041071039 0.099664666 -0.12561345
0.06185104 0.090212151 -0.12952897
0.12079891 0.097830519 -0.1263732
0.18814743 0.091767535 -0.12888469
0.22167045 0.094327554 -0.12782425
-0.013468526 0.10733711 -0.12243529
0.02168804 0.1066758 -0.12270922
0.038096532 0.10674128 -0.1226821
0.055321231 0.10013538 -0.12541847
0.072356373 0.1039232 -0.12384944
0.10324351 0.10720991 -0.12248799
0.12717484 0.10376991 -0.12391294
0.14164296 0.10153704 -0.12483786
0.15651387 0.10554092 -0.12317934
0.20279543 0.10439564 -0.12365374
0.17496954 0.11036518 -0.1206661
-0.055820283 -0.044175692 -0.11222585
0.017225347 -0.044144966 -0.11224943
0.03116766 -0.043175507 -0.11299334
0.042188179 -0.043159828 -0.11300538
0.051692281 -0.042770155 -0.1133044
0.064142436 -0.0417886 -0.11405759
0.076541677 -0.045730405 -0.11103284
0.092514098 -0.04315659 -0.11300786
0.10029872 -0.042732723 -0.11333312
0.11199278 -0.040971212 -0.11468482
0.15915355 -0.046087347 -0.11075894
0.1621758 -0.043090466 -0.11305861
0.2084052 -0.043257423 -0.11293048
0.21763544 -0.04593813 -0.11087343
-0.0098963752 -0.03999266 -0.11543571
0.12625639 -0.037173346 -0.11759913
0.13120265 -0.03677617 -0.1179039
0.14224853 -0.036750969 -0.11792324
0.15623572 -0.035238024 -0.11908419
0.16700876 -0.03984743 -0.11554716
0.17841917 -0.037867993 -0.11706609
0.19004583 -0.037573334 -0.1172922
-0.068120405 -0.020285029 -0.11320698
-0.071526594 0.0013809218 -0.11599299
-0.075310618 0.059290558 -0.110561
-0.064579777 0.10572509 -0.11501118
-0.0093831308 0.11198344 -0.1194244
0.023502737 0.11866075 -0.11430079
0.051792849 0.11534441 -0.11684547
0.079612777 0.11517704 -0.11697388
0.10245018 0.11597359 -0.11636268
0.13223283 0.11530411 -0.11687639
0.15107985 0.11379657 -0.11803315
0.21432891 0.11598092 -0.11635707
0.096625037 0.12098507 -0.1125173
0.10184479 0.12420419 -0.11004721
0.12083706 0.12369783 -0.11043575
0.14587294 0.12191544 -0.1118034
0.1743006 0.12284008 -0.11109393
0.197375 0.12221937 -0.1115702
0.20819205 0.12052546 -0.11286996
-0.06157824 -0.050868288 -0.10222173
-0.054663084 -0.059148889 -0.10073611
-0.045970716 -0.052370943 -0.1059372
-0.02392447 -0.059113454 -0.10076331
-0.0069512967 -0.052640248 -0.10573055
0.012071319 -0.050390236 -0.10745709
0.050815411 -0.053050548 -0.1054157
0.16380291 -0.054129537 -0.10458774
0.21917191 -0.057181854 -0.10224552
0.047949161 -0.049255788 -0.10832762
0.078276798 -0.048455618 -0.10894164
0.095323846 -0.047939822 -0.10933743
0.12480474 -0.04754423 -0.10964099
0.16994324 -0.047926515 -0.10934764
0.17193541 -0.047873896 -0.10938802
-0.063991308 -0.039427206 -0.10769939
-0.075531736 -0.0045422269 -0.10312778
-0.075500362 0.013844157 -0.10956761
-0.0764964 0.034573413 -0.10966494
-0.0764964 0.057211034 -0.10564534
-0.0764964 0.061102174 -0.10119718
-0.0764964 0.077237971 -0.10083769
-0.076104887 0.081815615 -0.10160317
-0.073060513 0.090511039 -0.10591535
-0.06703227 0.1096724 -0.10762607
-0.064655989 0.11899587 -0.10410926
0.09049125 0.127123 -0.10780756
0.10302263 0.12570351 -0.10889675
0.1328501 0.1280053 -0.10713056
0.15276739 0.12886694 -0.1064694
-0.020717908 0.13460612 -0.10206563
-0.017357312 0.13350162 -0.10291313
0.0069797188 0.13725978 -0.10002944
0.11644547 0.13204581 -0.10403021
0.12363917 0.13173485 -0.1042688
0.14412189 0.13710856 -0.10014546
-0.041963033 -0.062675841 -0.097047068
-0.039026134 -0.067234173 -0.091106728
-0.021727722 -0.06419076 -0.095072851
-0.013492439 -0.063184023 -0.096384816
-0.0091128321 -0.06203679 -0.097879872
0.0053236494 -0.06404797 -0.095258936
0.036497269 -0.061367892 -0.098751575
0.11848927 -0.060796633 -0.099471718
0.12800735 -0.067475773 -0.090791881
0.20691353 -0.064409763 -0.094787456
0.22036907 -0.064139403 -0.095139787
-0.058637414 -0.058042128 -0.099935189
-0.075076737 -0.016904879 -0.099189796
-0.0764964 0.073696345 -0.095254637
-0.07324332 0.10890628 -0.093877614
-0.070284635 0.11606476 -0.096944034
-0.068597242 0.11919215 -0.097541451
-0.067364395 0.12271614 -0.097027279
-0.03969492 0.13979962 -0.097133294
0.043727875 0.1386593 -0.098590352
0.080125451 0.13748957 -0.099853113
-0.0066707581 0.14270055 -0.093352765
0.0014651585 0.14102961 -0.095530376
0.028162986 0.14241277 -0.093727842
0.061659724 0.14448433 -0.091028132
0.086259022 0.14147907 -0.094944626
0.091189288 0.14465493 -0.090805784
0.10308518 0.1411722 -0.095344543
0.1285948 0.14428055 -0.091293693
0.040674478 -0.073552907 -0.082872272
0.056746684 -0.074683815 -0.081398495
0.088227734 -0.074453458 -0.081698671
0.18112394 -0.07317517 -0.083364531
-1.5607104e-05 -0.06975843 -0.087817162
0.0099899024 -0.068312295 -0.089701749
-0.067125089 -0.056598574 -0.087066844
-0.076496407 -0.019632654 -0.084230907
-0.0764964 0.022464084 -0.087877035
-0.076496392 0.057190746 -0.089943856
-0.0764964 0.10477054 -0.084007286
-0.051272459 0.14978179 -0.084124371
-0.047304049 0.14854351 -0.08573813
0.0034460071 0.14736548 -0.087273359
0.062871926 0.14990759 -0.083960429
0.07278841 0.14540102 -0.089833468
0.080860302 0.14660589 -0.088263258
0.14174552 0.14841194 -0.085909583
0.16893291 0.1494052 -0.084615164
0.20028955 0.14600863 -0.089041635
-0.053898651 0.15200613 -0.081225574
-0.00025104359 0.15003949 -0.083788522
0.04132282 0.1517944 -0.081501514
0.05683941 0.1524938 -0.080590025
0.082451314 0.15272802 -0.080284797
0.11022195 0.15156837 -0.08179608
0.22002888 0.15289484 -0.080067396
-0.048291981 -0.082409769 -0.07133016
-0.024875864 -0.082805 -0.070815101
0.043459766 -0.080767654 -0.073470138
0.10114039 -0.082859099 -0.070744604
0.11473878 -0.081109762 -0.07302431
-0.030303106 -0.077853188 -0.077268206
-0.00061017973 -0.076686203 -0.078789011
0.093787864 -0.076741003 -0.078717589
0.10030438 -0.076636568 -0.078853697
-0.0764964 0.05833821 -0.073040821
-0.076496407 0.091128685 -0.075874224
-0.059158511 0.15337929 -0.076541729
-0.04937895 0.15354386 -0.079221584
0.073068328 0.15927979 -0.071746424
0.12954716 0.15434124 -0.078182429
0.1368697 0.15776263 -0.073723584
0.18291242 0.15961711 -0.071306825
0.19525625 0.15844902 -0.072829083
-0.016023846 -0.086685792 -0.061874174
0.010233194 -0.086318314 -0.062761366
0.035161417 -0.083754972 -0.068950042
0.080063105 -0.085329056 -0.06514971
0.12599114 -0.086647645 -0.061966274
0.13011394 -0.085160732 -0.065556109
0.16088551 -0.08473821 -0.06657619
0.17359972 -0.085029259 -0.065873533
0.20075518 -0.084308803 -0.067612924
0.22131522 -0.086663783 -0.061927319
-0.074140094 -0.055038307 -0.067092784
-0.0764964 -0.044103254 -0.06864924
-0.0764964 -0.028274318 -0.069250144
-0.0764964 0.031502802 -0.066361867
-0.0764964 0.066676103 -0.067641042
-0.0764964 0.098910213 -0.062091269
-0.073798396 0.13193686 -0.068819411
-0.071979702 0.14008968 -0.065370046
-0.067939259 0.15053144 -0.062613711
-0.05213489 0.16218337 -0.065958738
-0.041124698 0.16383407 -0.061973494
-0.034105565 0.16243911 -0.065341368
-0.029205844 0.16440874 -0.060586102
-0.018421659 0.16304617 -0.063875742
-0.0053781569 0.1642447 -0.060982138
0.027575351 0.16307132 -0.06381502
0.033198353 0.16347308 -0.062845036
0.045035977 0.16209203 -0.066179276
0.054236792 0.16357625 -0.062595956
0.064811841 0.16381156 -0.062027872
0.11933708 0.1609194 -0.069010369
0.1266444 0.16421828 -0.06104596
0.18812893 0.16302827 -0.063918971
-0.034306295 -0.09078145 -0.051986016
0.069764927 -0.090480216 -0.052713312
-0.065346658 -0.080595791 -0.05464774
-0.054582797 -0.089913614 -0.05408125
0.19592315 -0.08955653 -0.05494336
-0.0764964 -0.055118319 -0.054634571
-0.0764964 -0.013013529 -0.050429571
-0.0764964 0.033024915 -0.057169043
-0.0764964 0.041013747 -0.057001963
-0.076496407 0.091373913 -0.053124741
-0.0764964 0.10164575 -0.050065264
-0.064861432 0.1582204 -0.055384103
-0.057766393 0.16803351 -0.050389625
-0.047953494 0.16593891 -0.05689181
0.098429024 0.16738415 -0.053402647
0.11933602 0.16776437 -0.052484691
0.14607351 0.16594319 -0.056881528
0.15440911 0.1670219 -0.054277211
0.17630802 0.16759281 -0.052898861
0.18422627 0.16718778 -0.053876746
0.20195197 0.16615184 -0.056377783
0.22426218 0.16766079 -0.05273477
-0.025163081 -0.093294494 -0.045918819
-0.0115501 -0.095601343 -0.040349402
-0.0020976281 -0.091987371 -0.049074598
0.074273847 -0.092118643 -0.048757657
0.16233321 -0.092653252 -0.047466956
0.18335301 -0.092628397 -0.047526963
0.21631847 -0.091822103 -0.049473591
-0.076329619 -0.060646124 -0.047512252
-0.0764964 -0.056064468 -0.048121825
-0.0764964 -0.033570997 -0.040452003
-0.0764964 0.006870118 -0.046055906
-0.0764964 0.027532734 -0.045970351
-0.0764964 0.03122592 -0.041056
-0.0764964 0.12614903 -0.047305636
-0.062830962 0.16396531 -0.048718009
0.046813514 0.16953999 -0.048197806
0.15083526 0.16929139 -0.048797999
0.19980192 0.1688897 -0.0497678
-0.02374094 0.17118025 -0.044237807
-0.0059400424 0.17190936 -0.0424775
0.12225825 0.17188056 -0.042547081
0.14917202 0.17161746 -0.043182239
0.19132893 0.17283796 -0.040235616
-0.030592959 -0.097960711 -0.03091204
0.014657866 -0.097924575 -0.031186504
0.10049714 -0.097437449 -0.03488595
-0.070175931 -0.08267495 -0.030590585
-0.072440535 -0.074929461 -0.037437052
-0.076120138 -0.065315872 -0.037553273
-0.0764964 0.025243683 -0.032022163
-0.0764964 0.05418741 -0.032671608
-0.0764964 0.11437817 -0.036856145
-0.0764964 0.13880667 -0.030902017
-0.069036894 0.16139102 -0.031295083
-0.0090394113 0.17502069 -0.031894177
0.028793234 0.17503476 -0.031787205
0.053651463 0.17410447 -0.037177928
0.068603672 0.17507502 -0.031481456
0.070606045 0.17402172 -0.037377704
0.080184393 0.17330176 -0.039115876
0.1613521 0.17388852 -0.037699256
0.20110828 0.17397174 -0.037498366
-0.0650663 -0.09063489 -0.025295684
-0.024922034 -0.099126823 -0.022056049
-0.016883878 -0.098616436 -0.025932128
0.050505154 -0.099143386 -0.021930229
0.071035758 -0.098406918 -0.027523339
0.11844446 -0.098737717 -0.025011055
0.15292963 -0.098194316 -0.029137963
0.17315663 -0.099128649 -0.022042181
0.21419758 -0.098782629 -0.024669953
-0.0764964 -0.06132466 -0.02798192
-0.0764964 -0.03171888 -0.023084711
-0.0764964 0.0015539071 -0.025134899
-0.0764964 0.030848484 -0.026767844
-0.0764964 0.050203245 -0.026302271
-0.068218514 0.16336049 -0.025168538
-0.062410645 0.17157416 -0.022936955
-0.05126702 0.17605352 -0.024047969
-0.024436884 0.17554605 -0.027903095
0.017103996 0.17548709 -0.028351065
0.023244707 0.17604513 -0.024111707
0.091231726 0.17629924 -0.022181248
0.1008274 0.1755617 -0.02778429
0.1483106 0.17551468 -0.028141387
0.17869484 0.17584877 -0.025603442
-0.056739479 -0.1004733 -0.011830199
-0.046984356 -0.10067508 -0.010297864
0.17256764 -0.10054474 -0.01128774
0.21505961 -0.1000009 -0.015417856
-0.060097747 -0.097239077 -0.016650692
-0.0039462913 -0.099973768 -0.015623916
0.079623744 -0.099739 -0.017406814
0.092579529 -0.09960857 -0.018397393
0.15083528 -0.099931769 -0.01594286
0.17579915 -0.099983878 -0.015547128
-0.067338355 -0.089043565 -0.012853302
-0.0764964 -0.017228037 -0.019838825
-0.0764964 0.024951588 -0.014337864
-0.0764964 0.063753739 -0.01083428
-0.0764964 0.078406751 -0.01506578
-0.0764964 0.11235594 -0.019320674
-0.07415282 0.15292519 -0.013369083
-0.044397682 0.17765832 -0.011856442
0.0023425054 0.176825 -0.018187106
0.13630942 0.17680478 -0.018340774
0.14315525 0.17670727 -0.019081529
0.1555979 0.17767404 -0.011737082
-0.040638458 -0.10119002 -0.0063870731
-0.035460293 -0.10082297 -0.0091746598
-0.019753274 -0.1013312 -0.0053148479
0.035223238 -0.10161397 -0.0031674549
0.049986742 -0.10202734 -2.8100878e-05
0.072171167 -0.10131161 -0.0054637338
0.16129841 -0.10083152 -0.0091097364
-0.063015349 -0.095621273 -0.0095275622
-0.073111601 -0.079405576 -0.0046493667
-0.076496392 -0.064276382 -0.0023921034
-0.0764964 -0.036528002 -0.0011128886
-0.0764964 -0.023580257 -0.00020292588
-0.0764964 0.0959602 -0.0075812694
-0.0764964 0.11046901 -0.008899536
-0.0764964 0.13179749 -0.005009532
-0.07370007 0.15509248 -0.0052360962
-0.025029574 0.17918135 -0.00028634831
-0.017092364 0.17873774 -0.0036562881
0.074845418 0.17839104 -0.0062901666
0.091359362 0.17916079 -0.00044249621
0.10474031 0.17920721 -8.9846319e-05
0.21120942 0.17812359 -0.008321885
-0.043897815 -0.1012058 0.0062667304
-0.025385596 -0.10145752 0.0043550543
-0.014052499 -0.10119633 0.0063387076
-0.0068038069 -0.10171153 0.0024259817
0.039352786 -0.10198994 0.00031146983
0.044503227 -0.10116895 0.0065465863
0.076975137 -0.10116398 0.0065843617
0.085813716 -0.1012034 0.0062849554
0.094868161 -0.10202532 4.2822121e-05
0.16739252 -0.10181769 0.0016196624
0.20015562 -0.10104714 0.0074717137
0.21646474 -0.10170892 0.0024457711
-0.071572468 -0.083029583 0.0054421034
-0.074073449 -0.077089071 0.0045461557
-0.0764964 -0.044803329 0.0061500417
-0.0764964 -0.036914099 1.1402182e-05
-0.0764964 -0.028172219 0.0039351173
-0.0764964 0.0018243326 0.0028055012
-0.0764964 0.036202312 0.0088678747
-0.0764964 0.12008567 0.0044148061
0.032565545 0.17795421 0.0096081942
0.058670953 0.17905204 0.0012680421
0.09154053 0.17797701 0.0094349943
0.16519445 0.17827097 0.0072018141
0.1812157 0.17853376 0.0052053914
-0.020023337 -0.10036783 0.012630817
-0.0074073225 -0.10061231 0.010774085
0.16849557 -0.10045869 0.011940792
0.2123926 -0.10040759 0.012328911
0.064887524 -0.099688508 0.017789967
0.14784157 -0.099542066 0.018902173
0.17967233 -0.099448062 0.019616071
-0.075441241 -0.072367966 0.01523846
-0.0764964 -0.0090477886 0.011091713
-0.0764964 0.0068581207 0.015590779
-0.076496407 0.032697544 0.010845367
-0.0764964 0.084820665 0.015758857
-0.0764964 0.095551267 0.017300114
-0.033440411 0.17736828 0.014059465
-0.029001772 0.17776091 0.01107666
-0.0088227261 0.17735568 0.014155336
0.05134191 0.17695564 0.017194284
0.21991664 0.17660102 0.019888429
-0.058591492 -0.097291529 0.026270289
-0.035028249 -0.099264979 0.021006523
-0.0095111094 -0.098986655 0.023120247
0.041206554 -0.098892301 0.023836916
0.11586047 -0.099068411 0.022499379
0.16833244 -0.098803654 0.024510099
0.18452868 -0.098207667 0.029036373
0.19978751 -0.09815722 0.029419517
0.20126708 -0.098891184 0.023845322
0.2139163 -0.098677918 0.02546501
-0.075830564 -0.07078322 0.02011201
-0.0764964 -0.050721582 0.022920769
-0.0764964 -0.002774531 0.023396671
-0.0764964 0.033342645 0.023491926
-0.076496407 0.079148829 0.02914416
-0.0764964 0.13224924 0.029132821
-0.037605744 0.17535692 0.029339707
-0.015847974 0.17599937 0.02445912
0.0080073345 0.17572471 0.026545599
0.030304817 0.17631289 0.022077277
0.052114837 0.17566276 0.02701648
0.09980534 0.17567587 0.026916746
0.1203926 0.17573425 0.026473233
0.16388133 0.1759021 0.025198221
-0.052502915 -0.096356392 0.038526475
-0.035840698 -0.097530514 0.034179121
-0.019419331 -0.097894929 0.031411536
0.060755618 -0.096245311 0.038794674
0.077027589 -0.096776441 0.037512351
0.093456432 -0.09681534 0.037418433
0.12578432 -0.097282581 0.036062036
0.15359665 -0.096932136 0.037136473
-0.07572899 -0.068034776 0.033444166
-0.0764964 -0.023444748 0.037861686
-0.0764964 0.0082075251 0.035227619
-0.0764964 0.019642746 0.038295377
-0.0764964 0.034481302 0.034447528
-0.0764964 0.10245135 0.031467997
-0.076496392 0.11279934 0.033057831
-0.0764964 0.13265635 0.031597283
0.038094141 0.17334397 0.03901393
0.095160767 0.17429383 0.03672076
0.12286688 0.17480984 0.033495992
0.18910554 0.17489697 0.032834087
0.19770662 0.17512321 0.031115189
-0.046390414 -0.09461432 0.042732358
-0.039773926 -0.09204635 0.048932195
-0.0034332764 -0.094285548 0.043526117
0.00086585525 -0.095405094 0.040823169
0.035822708 -0.095184937 0.041354705
0.062007263 -0.095518984 0.040548228
0.078911871 -0.092138134 0.048710592
0.091531843 -0.095155813 0.041425034
0.10078864 -0.094558507 0.04286712
0.13116364 -0.092942238 0.046769254
0.14731359 -0.093987659 0.044245295
0.22899199 -0.092440821 0.047979839
-0.074643821 -0.066011161 0.045140266
-0.0764964 -0.026723269 0.044722922
-0.0764964 0.015073783 0.047876697
-0.0764964 0.033103727 0.044374727
-0.0764964 0.050705809 0.047617551
-0.0764964 0.060152568 0.047988385
-0.0764964 0.098022118 0.043399118
-0.0764964 0.13783506 0.045771558
-0.075072363 0.1427128 0.043629345
-0.06027858 0.165943 0.049735785
-0.0066562896 0.16889517 0.049754612
0.053146966 0.16966605 0.047893494
0.087938815 0.16967203 0.047879033
0.11950301 0.16917083 0.049089119
-0.056656107 0.17125663 0.044053391
-0.037454981 0.17289849 0.040089484
0.056180239 0.17187992 0.042548593
0.074259758 0.17109428 0.044445332
0.11774898 0.1712826 0.043990672
0.14151825 0.17263201 0.040732838
0.21224923 0.17110606 0.04441689
-0.046345655 -0.091118775 0.051171631
0.045393329 -0.091180727 0.051022053
0.09068343 -0.091321021 0.050683346
0.10610541 -0.091504425 0.050240569
0.12635148 -0.09105698 0.051320821
0.17810304 -0.091258429 0.050834473
0.19011275 -0.090924144 0.05164155
-0.049691476 -0.089181677 0.055848353
-0.034195244 -0.087967992 0.058778547
-0.0020354539 -0.087811157 0.059157193
0.0080567487 -0.087953977 0.058812384
0.09039256 -0.0894932 0.055096239
0.14248757 -0.089749031 0.054478593
0.17717665 -0.089150868 0.055922739
-0.066006757 -0.079578541 0.054672826
-0.0764964 -0.046537578 0.052399669
-0.0764964 -0.01742585 0.058563087
-0.0764964 0.026621778 0.056991272
-0.0764964 0.032767348 0.05657474
-0.0764964 0.07449922 0.052618645
-0.0764964 0.11770685 0.059928961
-0.076496392 0.1275209 0.059752874
-0.065743476 0.15819266 0.052203231
-0.054019026 0.16861954 0.05042005
-0.046778418 0.16784987 0.052278258
-0.032443907 0.16770425 0.052629825
0.036800779 0.16842978 0.050878171
0.088830434 0.16866887 0.050300997
0.20795488 0.16694003 0.054474883
-0.032947551 -0.08684954 0.061478812
-0.0059991861 -0.0845109 0.067124993
0.023422781 -0.08470881 0.066647179
0.1291374 -0.086942963 0.061253279
0.13318957 -0.085195057 0.065473251
-0.072746567 -0.06003242 0.066082209
-0.069364421 -0.067545645 0.067616485
-0.0764964 -0.044790946 0.061181419
-0.0764964 0.020902567 0.065092623
-0.0764964 0.039118748 0.068990692
-0.076496407 0.061843842 0.067780331
-0.076496407 0.1002534 0.061486118
-0.076496392 0.11786984 0.063639469
-0.0764964 0.12246513 0.063805461
-0.061983783 0.15554912 0.069683805
-0.058649294 0.16313384 0.060215268
-0.033687197 0.16387117 0.061883941
-0.021651154 0.16418402 0.061128646
-0.0063914414 0.16333333 0.063182473
0.0038495604 0.16402662 0.061508644
0.043682583 0.16134058 0.067993507
0.066127911 0.16095398 0.068926848
0.074979447 0.16336308 0.06311062
0.10690406 0.16241376 0.065402538
0.11110695 0.16328143 0.063307777
0.1293188 0.16189937 0.066644415
0.15475121 0.16402344 0.06151633
0.17733778 0.16066349 0.069628201
0.19655693 0.16413204 0.061254121
0.20474857 0.16370165 0.062293239
0.065049559 -0.083097138 0.070434391
0.073206246 -0.081991442 0.071875319
0.15374693 -0.082200535 0.071602829
-0.042600747 -0.078738913 0.076113954
-0.037561025 -0.078585014 0.076314509
-0.028393719 -0.07896369 0.075821035
0.014186632 -0.078353658 0.076616012
0.045120396 -0.077231564 0.0780783
0.086480558 -0.075789347 0.079957783
0.17487064 -0.078937054 0.075855732
-0.072080202 -0.057048745 0.072599649
-0.075738952 -0.041004941 0.079074502
-0.076496407 -0.021333655 0.070337057
-0.0764964 0.079530589 0.079524308
-0.0764964 0.081725456 0.075366922
-0.0764964 0.093895406 0.070016228
-0.0764964 0.1044463 0.076537117
-0.073210113 0.12767373 0.0766958
-0.010151098 0.15294838 0.079997621
0.036437817 0.15313309 0.079756886
0.086375624 0.15551178 0.076656945
0.17995799 0.15603592 0.075973891
0.18360893 0.15895846 0.072165184
0.19167788 0.15677415 0.07501182
0.2164586 0.15597987 0.076046929
0.0099220295 -0.073165938 0.083376557
0.018055394 -0.072523698 0.084213525
0.020479687 -0.071556017 0.085474581
0.05043117 -0.075231284 0.080685034
0.11396647 -0.074224144 0.081997521
0.12474394 -0.073867343 0.082462497
0.14609522 -0.071953259 0.084956899
0.15690205 -0.075624794 0.080172218
-0.059625618 -0.068657115 0.085691825
-0.014682593 -0.068185687 0.089866735
0.14948893 -0.069815427 0.08774288
-0.0764964 -0.023932997 0.089223288
-0.0764964 -0.0052687349 0.083788514
-0.0764964 0.0013646949 0.082607374
-0.0764964 0.053088807 0.081783652
0.043871053 0.14897601 0.085174471
0.17309865 0.14744322 0.087172031
0.18568018 0.14563034 0.089534611
0.059082888 0.15010786 0.08369942
0.13960262 0.15052089 0.08316116
0.14546171 0.15071142 0.082912885
0.1815954 0.15110332 0.082402132
0.2117223 0.15180954 0.08148177
-0.057165273 -0.062499143 0.097157873
-0.026521225 -0.064128011 0.095154643
0.029893011 -0.065834098 0.092931286
0.055256292 -0.061725996 0.098284893
0.10427226 -0.066788562 0.091687441
0.11350339 -0.065063931 0.093934953
0.12265575 -0.063976444 0.09535215
0.14048342 -0.063080743 0.096519426
0.18380183 -0.062178455 0.097695261
0.20681337 -0.065595634 0.093242049
-0.063998356 -0.057397589 0.093263529
-0.076377869 -0.017441954 0.094823435
-0.0764964 0.089062028 0.090741649
-0.070572063 0.11560778 0.096784107
-0.068989731 0.12034937 0.095956244
-0.059893273 0.13730505 0.09644179
0.15175982 0.13767461 0.099711135
-0.031290416 0.14420909 0.091386802
-0.014645752 0.14298743 0.092978902
-0.0078597432 0.14187908 0.094423324
0.055788785 0.14210302 0.09413147
0.070909336 0.14218284 0.094027452
0.16493496 0.14306064 0.092883497
0.17464879 0.14135689 0.095103845
0.20344491 0.143232 0.092660174
-0.02224439 -0.054607823 0.10422073
-0.018077197 -0.051832438 0.10635041
0.055996396 -0.054005582 0.10468285
0.085166574 -0.05218989 0.10607613
0.11596899 -0.058372077 0.1013322
0.14788441 -0.058782291 0.10101742
0.16587397 -0.058560058 0.10118796
0.19036676 -0.051714923 0.1064406
-0.062716849 -0.040603705 0.10885126
0.025011903 -0.047739353 0.10949126
0.11929711 -0.049742017 0.10795452
0.19152719 -0.049668543 0.10801089
-0.067783087 -0.037482724 0.10245645
-0.0764964 0.056196894 0.10381763
-0.061901577 0.12796211 0.10194044
0.046039019 0.12677896 0.10807155
0.076574475 0.12983711 0.10572499
0.10433946 0.12667759 0.10814933
0.1383047 0.12904385 0.10633367
0.22136897 0.12684904 0.10801778
-0.048704371 0.13061434 0.10512859
-0.034325704 0.13439421 0.10222824
-0.026755249 0.13659394 0.10054035
-0.014658241 0.13282979 0.10342865
0.076533489 0.13474146 0.1019618
0.097822919 0.13421866 0.10236294
0.14700593 0.1342929 0.10230598
0.17605135 0.13652125 0.10059613
0.20536433 0.13334648 0.10303216
0.23127119 0.13669576 0.10046221
-0.039975863 -0.044379476 0.11206948
-0.004693104 -0.046606287 0.11036073
0.007365664 -0.044248942 0.11216965
0.034497552 -0.045811661 0.11097048
0.1589271 -0.04540661 0.11128131
0.2238699 -0.043940883 0.11240603
-0.0096808169 -0.03594945 0.11853828
0.024405999 -0.037474781 0.11736782
0.18219295 -0.036307923 0.11826321
0.20573662 -0.034742624 0.11946435
-0.063939229 -0.028041515 0.1163712
-0.072304577 0.0024791909 0.11442546
-0.075554252 0.025594994 0.11098403
-0.075752497 0.031036211 0.11122011
-0.068883225 0.095654413 0.11279709
-0.055290908 0.11224966 0.11922012
0.053880237 0.11294918 0.11868337
0.064125746 0.11662498 0.11586288
0.15612808 0.11537451 0.11682238
0.17026809 0.11273187 0.11885011
0.19418865 0.11866739 0.11429568
-0.053369612 0.12241518 0.11141994
0.079144649 0.12081555 0.11264737
0.12899873 0.12414066 0.11009595
0.21180809 0.12210128 0.11166081
0.033898719 -0.033678912 0.1202806
0.10693484 -0.031008739 0.12207896
0.014644362 -0.02469229 0.12469532
0.020432141 -0.025114721 0.12452035
0.15552461 -0.025077038 0.12453596
-0.063752584 -0.013693773 0.1225991
0.0024198294 -0.013891074 0.12916934
0.019932918 -0.013155369 0.12947409
0.066782534 -0.012466386 0.12975948
0.088044778 -0.012788436 0.12962608
0.11010846 -0.013364604 0.12938742
0.15593697 -0.012733961 0.12964866
0.17408431 -0.014705705 0.12883192
0.2048907 -0.01661187 0.12804234
0.22996825 -0.012041261 0.12993556
-0.066728935 -0.0060551534 0.12122362
-0.070374928 0.026120491 0.12337252
-0.069210485 0.044699803 0.12586606
0.046672832 0.089579351 0.1297911
-0.042130787 0.096491829 0.12692775
-0.035307545 0.090076685 0.12958509
-0.02419435 0.094620958 0.12770271
0.042787626 0.099442236 0.12570558
0.065545373 0.09716592 0.12664852
0.086264938 0.099136695 0.12583216
0.090923309 0.090003669 0.12961534
0.10548875 0.094728246 0.12765828
0.14040019 0.096044891 0.12711288
0.18619657 0.098233178 0.12620641
0.19829582 0.099832214 0.12554404
0.21409623 0.099085554 0.12585334
-0.027638333 0.10441825 0.12364437
-0.013676185 0.10484544 0.12346742
0.019619787 0.1002537 0.12536946
0.050231736 0.10046029 0.12528388
0.061490268 0.10283136 0.12430171
0.070744321 0.10483314 0.12347251
0.12318301 0.10206693 0.12461836
0.13223839 0.10257807 0.12440663
0.14514039 0.10266262 0.1243716
-0.054481875 -0.010572822 0.13054381
-0.026891109 -0.0094028302 0.13102846
-0.013733253 -0.0066926456 0.13215105
0.0013010949 -0.0094482023 0.13100965
0.052780233 -0.0011280258 0.13445599
0.061481081 -0.00063169986 0.13466159
0.094919384 -0.0042736512 0.13315304
0.13448131 -0.005876347 0.13248917
0.14179265 -0.0087598432 0.13129479
0.15566324 -0.00029925624 0.13479929
-0.050640628 0.0019692623 0.13573894
-0.034998111 0.0038345326 0.13604926
-0.015498992 0.0096925329 0.13682032
-0.0035162009 0.0053089731 0.13624325
0.022815008 0.0014203102 0.13551156
0.11405906 0.0020397927 0.13576816
0.1805786 0.002233474 0.13583857
-0.06304419 0.018486923 0.13278654
-0.034026545 0.018706376 0.13800693
0.10151856 0.017757233 0.13788158
0.11593354 0.017984554 0.13791145
0.14763077 0.017256336 0.13781551
0.18467537 0.017528143 0.13785122
-0.05807133 0.023167608 0.1377693
-0.041374557 0.027139867 0.13911709
-0.033039328 0.028617665 0.13931161
-0.026833357 0.028081769 0.13924104
0.016096633 0.022565715 0.1385148
0.043145116 0.023158718 0.13859278
0.077432469 0.028354499 0.13927671
0.10566904 0.021042837 0.13831407
0.12308563 0.020955851 0.13830256
0.17734513 0.028541088 0.13930127
0.23276183 0.025914535 0.13895544
-0.057841152 0.033489343 0.13932963
0.0034997351 0.03317973 0.13991204
0.052202832 0.031189041 0.13964993
0.1663872 0.030045941 0.13949943
-0.024485115 0.048704147 0.13929424
-0.0048219636 0.046160247 0.1396291
0.093095772 0.048569143 0.1393117
0.1506304 0.0471716 0.1394957
0.20477682 0.049024381 0.13925177
0.21925412 0.046554845 0.13957691
0.013403486 0.058877125 0.13795513
0.074158192 0.053427331 0.13867235
0.13860612 0.053641096 0.13864391
0.14034846 0.052755512 0.13876051
0.15306087 0.058837056 0.13795982
0.22121347 0.056638494 0.13824925
-0.044230245 0.064563796 0.13720658
-0.0041864421 0.062445529 0.13748541
0.029338576 0.065607473 0.1370692
0.037990235 0.060121357 0.13779137
0.040648654 0.065793037 0.13704477
0.093804717 0.066282094 0.13698038
0.16459814 0.062207781 0.13751629
0.20299821 0.064754479 0.13718086
-0.056551576 0.079382934 0.13401476
-0.03541404 0.075194307 0.13511831
-0.022991309 0.071054265 0.13635221
0.0079180002 0.078223281 0.13449512
0.023582976 0.073105499 0.1360822
0.065905824 0.073992647 0.13596542
0.11053194 0.078805126 0.1342541
0.14928368 0.070054434 0.13648382
0.1587254 0.073286861 0.13605833
0.16987143 0.074888602 0.13584749
0.19351169 0.079495497 0.13396813
0.20462133 0.074713908 0.13587049
-0.042877641 0.08144667 0.13315989
0.010407005 0.085123174 0.13163699
0.055173956 0.085436553 0.13150717
0.10555577 0.085081503 0.13165425
0.13191332 0.080404639 0.13359153
0.18653816 0.086177923 0.13120008
0.0050128121 0.035516605 0.14021972
0.01676194 0.039752461 0.14047255
0.11730302 0.036247477 0.14031596
0.20809287 0.038678851 0.14061391
0.22267415 0.036728662 0.14037931
-0.051472574 0.042340256 0.14013195
0.0068243332 0.04251609 0.14010867
0.19160551 0.042452753 0.14011702
