# .PCD v0.7 - Point Cloud Data file format
VERSION 0.7
FIELDS x y z
SIZE 4 4 4
TYPE F F F
COUNT 1 1 1
WIDTH 979
HEIGHT 1
VIEWPOINT 0 0 0 1 0 0 0
POINTS 979
DATA ascii
-0.038559094 -0.42780399 -0.16255634
-0.12798174 -0.42780399 -0.15085332
-0.031198928 -0.42780399 -0.15625761
0.076369025 -0.42780399 -0.15763032
0.088831522 -0.42780399 -0.15745449
0.12123561 -0.4267793 -0.15349799
0.19329301 -0.42776707 -0.15297079
-0.080599569 -0.41484258 -0.15349799
-0.020452604 -0.4121601 -0.15349799
0.072289124 -0.41806963 -0.15349799
0.12308353 -0.41076714 -0.15349799
0.058342144 -0.40237015 -0.15349799
-0.096338101 -0.39781904 -0.15349799
-0.08044789 -0.38312465 -0.15349799
-0.070599347 -0.38844848 -0.15349799
0.050195314 -0.38688743 -0.15349799
0.01453333 -0.36825633 -0.15349799
0.053203657 -0.36262518 -0.15349799
-0.03034951 -0.35990781 -0.15349799
-0.019655161 -0.35442439 -0.15349799
0.16599987 -0.35039267 -0.15349799
-0.14719674 -0.34297699 -0.15349798
-0.12069227 -0.34596795 -0.15349799
-0.014024526 -0.34664905 -0.15349799
-0.11222454 -0.3332243 -0.15349799
0.052445382 -0.3367511 -0.15349799
0.078060143 -0.33990055 -0.15349799
0.10265249 -0.3349722 -0.15349799
-0.12741543 -0.32423732 -0.15349799
0.11979983 -0.32298893 -0.15349799
0.19329301 -0.32077804 -0.15025991
-0.035438597 -0.31907958 -0.15349799
-0.023387358 -0.31724298 -0.15349799
0.032640107 -0.31692353 -0.15349799
0.052825551 -0.31474242 -0.15349799
0.032289535 -0.30238903 -0.15349799
0.17557961 -0.29461512 -0.15349799
0.18989816 -0.29378569 -0.15349799
0.021019053 -0.28178453 -0.15349799
-0.14729409 -0.27448392 -0.15349801
-0.13737699 -0.27475667 -0.15349799
-0.031767804 -0.27241805 -0.15349799
-0.0096223056 -0.27629536 -0.15349799
0.0012416583 -0.27569553 -0.15349799
0.10388193 -0.27915481 -0.15349799
0.16048595 -0.26158851 -0.15349799
-0.13088328 -0.2534478 -0.15349799
-0.088368058 -0.24287951 -0.15349799
0.16221911 -0.24223918 -0.15349799
-0.11072214 -0.23783112 -0.15349799
0.059278734 -0.23107371 -0.15349799
-0.092024051 -0.22500479 -0.15349799
0.0089689046 -0.22581498 -0.15349799
0.01244922 -0.22724727 -0.15349799
0.067343265 -0.22579391 -0.15349799
0.070702977 -0.22045866 -0.15349799
0.088769637 -0.22494636 -0.15349799
0.12951604 -0.22934458 -0.15349799
0.13878784 -0.22031257 -0.15349799
-0.14010932 -0.20232387 -0.15349799
0.085469559 -0.20194073 -0.15349799
0.14720871 -0.20192781 -0.15349799
-0.11165561 -0.19847906 -0.15349799
-0.064064533 -0.19448118 -0.15349799
0.010804496 -0.19705081 -0.15349799
-0.1101172 -0.18485576 -0.15349799
-0.035958789 -0.18194255 -0.15349799
0.084591106 -0.18743476 -0.15349799
-0.13476169 -0.17945501 -0.15349799
0.085779592 -0.17403314 -0.15349799
0.17115121 -0.17265311 -0.15349799
-0.12887561 -0.16650777 -0.15349799
-0.042753596 -0.1633455 -0.15349799
0.13709998 -0.1650198 -0.15349799
-0.14713076 -0.15542391 -0.15349799
0.022109916 -0.14228627 -0.15349799
0.04003676 -0.14437711 -0.15349799
0.11289725 -0.13574713 -0.15349799
-0.012810297 -0.12504053 -0.15349799
0.086142331 -0.12107085 -0.15349799
-0.085092738 -0.11739565 -0.15349799
0.07253585 -0.11274266 -0.15349799
0.16747871 -0.11626427 -0.15349799
0.020073878 -0.10443602 -0.15349799
0.068124086 -0.10452814 -0.15349799
0.12313116 -0.10238981 -0.15349799
-0.03645248 -0.099199459 -0.15349799
0.17078254 -0.077180088 -0.15349799
0.069546551 -0.06791003 -0.15349799
0.0023407927 -0.052694492 -0.1511599
-0.054310367 -0.043539904 -0.15349799
-0.016022455 -0.043111697 -0.15349799
-0.024040863 -0.037086759 -0.15349799
-0.0010604318 -0.011933591 -0.15349799
0.056898862 -0.0078789014 -0.15228145
0.02119074 0.0082346564 -0.15349799
-0.13689822 0.018995181 -0.15349799
-0.023712264 0.011237932 -0.15349799
-0.050881315 0.026952565 -0.15349799
-0.058904536 0.036385939 -0.15349799
-0.13605671 0.045449629 -0.15349799
-0.1260336 0.055118173 -0.15349799
0.011963799 0.056172669 -0.15349799
0.080929689 0.052968193 -0.15349799
-0.07663966 0.06184303 -0.15349799
-0.10499707 0.079032287 -0.15349799
-0.0013636779 0.076563776 -0.15349799
-0.097460181 0.084366083 -0.15349799
-0.077880919 0.080836222 -0.15349799
0.12256327 0.092770755 -0.15349799
-0.14781199 0.11146578 -0.15217966
-0.10044254 0.117935 -0.15349799
-0.050267372 0.12655081 -0.15349799
-0.10280804 0.13328001 -0.15349799
-0.053235788 0.13019477 -0.15349799
-0.0083438829 0.13758779 -0.15349799
0.025400613 0.13573557 -0.15349799
0.037578512 0.13035153 -0.15349799
-0.08600077 0.14746022 -0.15349799
-0.068379804 0.14760381 -0.15349799
0.0071877558 0.14708194 -0.15349799
-0.14781199 0.15784274 -0.1503953
-0.10208751 0.15340675 -0.15349799
-0.026285678 0.15695335 -0.15349799
0.011354741 0.15292801 -0.15349799
0.0545507 0.15090491 -0.15349799
0.14607954 0.15927076 -0.1523498
0.06100744 0.17400731 -0.15349799
-0.1298936 0.18310796 -0.15349799
0.081552051 0.18120234 -0.15349799
-0.05923802 0.19582105 -0.15349799
0.070478074 0.19913164 -0.15349799
-0.13643186 0.20766586 -0.15349799
-0.057749253 0.20102778 -0.15349799
0.076073699 0.20296603 -0.15349799
-0.076993257 0.21771288 -0.15349799
-0.0096280985 0.21487221 -0.15349799
0.070050091 0.21152969 -0.15349799
-0.067451388 0.22375178 -0.15349799
0.00021983311 0.22651817 -0.15349799
0.019669361 0.23815389 -0.15349799
0.12368617 0.23810223 -0.15349799
-0.055587359 0.24663058 -0.15349799
-0.04190544 0.24153733 -0.15349799
-0.079554521 0.25648826 -0.15349799
-0.027392689 0.25314483 -0.15349799
-0.14514379 0.26149604 -0.15349799
-0.072008558 0.27691332 -0.15349799
0.018826552 0.2750043 -0.15349799
0.061281495 0.27921647 -0.15349799
-0.13252659 0.28860381 -0.15349799
-0.13569227 0.29519781 -0.15349799
-0.089792885 0.295863 -0.15349799
0.00014935806 0.29832458 -0.15349799
0.012304273 0.29274991 -0.15349799
-0.12248522 0.3055509 -0.15349799
-0.093962476 0.30411172 -0.15349799
0.0071443692 0.30977014 -0.15349799
0.066988252 0.30272746 -0.15349799
-0.042012732 0.32530174 -0.15349799
-0.0013038628 0.32898784 -0.15349799
0.0044245496 0.32370728 -0.15349799
-0.047188882 0.33491763 -0.15349799
0.11742578 0.33683431 -0.15349799
-0.097960792 0.34973374 -0.15349799
-0.11906091 0.35479301 -0.15349799
-0.033389945 0.35040182 -0.15349799
-0.0218261 0.35573077 -0.15349799
0.099400915 0.364856 -0.15349799
-0.12893911 0.37246746 -0.15349799
-0.088746011 0.37437463 -0.15349799
-0.09149228 0.38844991 -0.15349799
-0.068328954 0.3862645 -0.15349799
-0.04451054 0.38771868 -0.15349799
-0.027815007 0.38101459 -0.15349799
0.14227238 0.38530073 -0.15349799
-0.10404014 0.39631519 -0.15349799
-0.058833435 0.39654744 -0.15349799
-0.10542789 0.4012903 -0.15349799
0.068495601 0.40140766 -0.15349799
-0.085836291 0.41753209 -0.15349799
0.01431562 0.41276401 -0.15349799
-0.0090534166 0.42143437 -0.15349799
0.08129964 0.4298282 -0.15349799
-0.056580603 0.430646 -0.15080199
0.13162138 0.430646 -0.15307611
-0.12672855 -0.430646 -0.14962906
-0.061820321 -0.430646 -0.14097534
0.056580842 -0.430646 -0.1472957
0.10490534 -0.430646 -0.14417818
-0.1678168 -0.42780399 -0.14313754
-0.15264258 -0.42780399 -0.14049542
-0.12437156 -0.42780399 -0.1411694
-0.048596229 -0.42780399 -0.14153272
-0.0042065233 -0.42780399 -0.14469284
0.19098525 -0.42780399 -0.14452398
0.19329301 -0.30384776 -0.14353979
-0.14781199 -0.16204545 -0.14286724
0.19329301 -0.12740596 -0.14825189
0.0034799422 -0.063957103 -0.14395925
0.11470961 -0.063957103 -0.14251819
0.075636677 0.0075128861 -0.14507626
0.14141013 0.061541107 -0.1438534
0.14781201 0.077449143 -0.14854211
0.14781199 0.17343631 -0.14352369
-0.14781199 0.21295215 -0.14650162
-0.14781199 0.32224932 -0.14313902
-0.14781199 0.33974499 -0.14165142
0.13868678 0.430646 -0.14277199
-0.05752027 -0.430646 -0.13785261
0.022297755 -0.430646 -0.13272756
0.12380327 -0.430646 -0.13154888
0.080987036 -0.42780399 -0.13863444
0.19329301 -0.30481672 -0.13929138
-0.14781199 -0.22065672 -0.13986358
0.19329301 -0.18754952 -0.13113053
0.02073025 -0.063957103 -0.13977648
0.097184993 -0.063957103 -0.13816732
0.10461657 -0.063957103 -0.13284554
-0.14781199 -0.046261579 -0.13478498
-0.14781199 -0.016812935 -0.13613196
0.095082097 0.023485916 -0.13759337
-0.14781201 0.12599912 -0.13617098
-0.14781199 0.21077244 -0.13390072
-0.032562722 0.430646 -0.13932374
-0.029388836 0.430646 -0.13595495
-0.0081418026 0.430646 -0.13173088
-0.1784988 -0.430646 -0.12088305
0.045711141 -0.430646 -0.1245556
-0.042145114 -0.42780399 -0.12274516
-0.0010902919 -0.42780399 -0.12153029
0.089613467 -0.42780399 -0.12876087
-0.14781199 -0.41092524 -0.1230252
-0.14781199 -0.39889866 -0.12592447
-0.14781199 -0.30135888 -0.12830202
-0.14781199 -0.093210503 -0.12432522
-0.14781199 -0.024627268 -0.1291357
-0.14781199 0.033070892 -0.12368482
-0.14781198 0.3048639 -0.12625548
-0.14781199 0.3542605 -0.12161928
-0.046692014 0.430646 -0.12135758
-0.034635741 0.430646 -0.12326778
0.11528856 0.430646 -0.12137885
-0.15446107 -0.430646 -0.11875719
-0.097108409 -0.430646 -0.11752658
-0.13073413 -0.42780399 -0.11074606
-0.07289049 -0.42780399 -0.11698013
0.19329301 -0.38078806 -0.11369835
-0.14781199 -0.33063895 -0.11291771
0.19329301 -0.31404462 -0.1199275
0.19329301 -0.27889746 -0.11060694
-0.14781199 -0.1768645 -0.11329184
0.19329301 -0.14106731 -0.11768372
-0.14781199 -0.065070435 -0.11661006
0.1927871 -0.063957103 -0.11604042
-0.14781199 -0.045143276 -0.1116232
0.012460615 -0.044381775 -0.11185838
0.080060877 0.011147052 -0.11002985
-0.14781198 0.21194851 -0.11639713
0.14781199 0.21653579 -0.11996245
0.14781199 0.25637454 -0.11938539
-0.14781199 0.26143441 -0.11299268
-0.14781199 0.34013671 -0.11888177
0.14781199 0.34414679 -0.11194526
-0.13247749 0.430646 -0.11246028
0.02667971 0.430646 -0.11540708
-0.16752243 -0.430646 -0.10690785
-0.078854419 -0.430646 -0.10760292
-0.051781192 -0.430646 -0.10785687
0.048786305 -0.430646 -0.10148774
0.13153479 -0.42780399 -0.10411027
-0.14781199 -0.38981038 -0.10193222
-0.14781199 -0.27710104 -0.10360251
-0.14781199 -0.23657653 -0.10463973
0.018129079 -0.063957103 -0.10141659
-0.14781199 0.034578025 -0.10491447
0.10924 0.035115637 -0.10413292
-0.14781199 0.067824781 -0.10379265
-0.14781199 0.071198925 -0.10248066
-0.14781199 0.11401682 -0.10016576
-0.14781199 0.19054413 -0.10306413
0.14212801 0.2251929 -0.10190427
0.14781199 0.41861677 -0.10272308
-0.14781199 0.43056321 -0.10733104
-0.070867933 0.430646 -0.10224455
-0.015111968 -0.430646 -0.094796725
-0.065049782 -0.42780399 -0.092101604
-0.051750444 -0.42780399 -0.099693179
0.052626669 -0.42780399 -0.090303272
-0.14781199 -0.36649966 -0.092773788
0.19329301 -0.33045506 -0.091492563
0.19329301 -0.3043417 -0.098038144
0.18974525 -0.16592658 -0.097469643
0.13811734 -0.063957103 -0.098426566
0.143999 -0.063957103 -0.094114289
0.0037957206 -0.051499374 -0.096121423
0.14755122 0.15776099 -0.098425463
-0.14781199 0.23727027 -0.093369827
0.14212801 0.28630486 -0.095073506
-0.14781199 0.3045876 -0.09527681
-0.14781199 0.31332439 -0.091780283
-0.14781199 0.39032871 -0.099593118
-0.14781199 0.42988369 -0.09173575
0.068630747 -0.430646 -0.080130339
0.17844707 -0.430646 -0.086757451
-0.087677687 -0.42780399 -0.086708099
-0.015736032 -0.42780399 -0.084325157
0.16052508 -0.42780399 -0.080829963
0.17981884 -0.42780399 -0.080121152
0.19329301 -0.41146991 -0.084753715
-0.14781199 -0.39433646 -0.08057183
-0.14781199 -0.3895956 -0.087251276
0.13517566 -0.063957103 -0.089233279
0.026538225 -0.032818019 -0.080039591
-0.14781199 0.034321979 -0.081961624
0.10455089 0.031263869 -0.084008932
0.13330349 0.054882094 -0.086893722
-0.14781199 0.14750461 -0.087535091
-0.14781199 0.17317988 -0.082222499
0.14212801 0.17598672 -0.083140656
-0.14781199 0.19771385 -0.081893288
-0.14781199 0.20238115 -0.088463284
0.14212801 0.23689158 -0.08024732
-0.14781199 0.26554716 -0.089072965
-0.14781199 0.27846316 -0.088674255
-0.14781199 0.4300957 -0.08461611
-0.021802988 0.430646 -0.085116297
0.115697 0.430646 -0.08882992
0.12011228 0.430646 -0.080179691
0.085624233 -0.430646 -0.07599432
0.099674493 -0.430646 -0.077825502
-0.18431458 -0.42780399 -0.071145311
0.015238859 -0.42780399 -0.074754179
0.074324489 -0.42780399 -0.079629049
-0.14781199 -0.39499024 -0.073899306
-0.14781199 -0.37040097 -0.071743071
0.187608 -0.26283479 -0.073414609
-0.14781199 -0.21492159 -0.078212053
0.19329301 -0.084005341 -0.073279522
0.10921054 -0.063957103 -0.075066
0.13226923 -0.063957103 -0.07321167
-0.14781199 0.32020542 -0.072177023
0.14212801 0.34698996 -0.078630298
-0.14781199 0.35784683 -0.076646782
-0.14418437 0.430646 -0.074255899
-0.076390408 0.430646 -0.074022159
-0.064632326 0.430646 -0.076248795
-0.03359158 0.430646 -0.075741217
0.053011231 0.430646 -0.077888444
0.10817465 -0.430646 -0.060837336
0.11384303 -0.430646 -0.06463033
0.12461899 -0.430646 -0.069996364
0.026162129 -0.42780399 -0.069737703
0.18276319 -0.42780399 -0.067053422
0.19329301 -0.39793909 -0.065075591
-0.14781199 -0.25605634 -0.067713916
0.19329301 -0.13059327 -0.066536769
0.19329301 -0.12634507 -0.064521149
0.19329301 -0.089965872 -0.06128015
0.037729569 -0.063957103 -0.064763248
0.10104745 -0.063957103 -0.064671293
-0.14781199 0.014020279 -0.062320109
-0.14781199 0.033516631 -0.064218469
0.14212801 0.230323 -0.066624478
0.14212801 0.26891732 -0.068450436
-0.14781199 0.27498668 -0.063851371
0.14212801 0.31986532 -0.062465411
0.14212801 0.35372412 -0.061126135
-0.14102723 0.430646 -0.068524927
-0.05474079 0.430646 -0.066049315
-0.017152082 -0.430646 -0.057828642
-0.1612235 -0.42780399 -0.056590043
-0.052874342 -0.42780399 -0.055211574
0.062633246 -0.42780399 -0.059532233
0.095420696 -0.42780399 -0.058643874
0.19329301 -0.39907187 -0.050064564
0.19329301 -0.37254113 -0.056888461
0.19329301 -0.35994267 -0.050754372
0.187608 -0.23922555 -0.058705576
0.187608 -0.13700739 -0.051958326
-0.14781199 -0.090671293 -0.050129209
-0.14781199 -0.070933789 -0.057091065
0.11375123 -0.063957103 -0.053467926
0.14499708 -0.063957103 -0.054711025
-0.14781199 0.21948235 -0.057452857
-0.14781199 0.2855947 -0.056222919
0.14212801 0.28585887 -0.055825185
-0.14781199 0.29433644 -0.05427435
0.14212801 0.38027006 -0.053792395
-0.14781199 0.40808129 -0.055184685
-0.10859731 0.430646 -0.052156292
-0.01347515 -0.430646 -0.047817498
0.12318963 -0.430646 -0.041733038
0.14617974 -0.430646 -0.047203932
-0.012110559 -0.42780399 -0.040824808
0.093866438 -0.42780399 -0.047912791
0.1345925 -0.42780399 -0.047819756
-0.14781199 -0.38052005 -0.04637311
0.19151461 -0.32569394 -0.046924211
0.11632982 -0.063957103 -0.043456271
0.069984406 0.0028699413 -0.041694839
0.083574414 0.014033176 -0.048098356
0.15349799 0.086078852 -0.044431165
-0.14781199 0.11122635 -0.049051519
0.14212801 0.27575436 -0.049078763
0.14212801 0.33779141 -0.042798676
-0.14781199 0.40498146 -0.041834451
-0.14781199 0.4122982 -0.047372654
-0.10731963 -0.430646 -0.034364693
0.10533559 -0.430646 -0.036607347
-0.11840132 -0.42780399 -0.033031095
0.14620921 -0.42780399 -0.035062172
0.19329301 -0.40200177 -0.034968052
-0.14781199 -0.25756121 -0.03934215
-0.14781199 -0.10728277 -0.038639963
0.016827017 -0.063957103 -0.03712713
0.081577443 -0.063957103 -0.039301638
0.099168889 -0.063957103 -0.034456778
0.10398847 -0.063957103 -0.038066957
-0.14781201 -0.02641283 -0.032334425
-0.14781199 0.024051264 -0.038540605
-0.14781199 0.044227436 -0.037394434
0.13495776 0.056240961 -0.031129654
-0.14781199 0.095851094 -0.03900452
-0.14781199 0.11290263 -0.032195967
-0.14781199 0.22975913 -0.033623442
0.14212801 0.2498225 -0.03125371
-0.14781199 0.36641034 -0.035119012
0.14212801 0.36029118 -0.035762262
-0.14781199 0.41493601 -0.039496001
0.14781199 0.42514265 -0.033853073
-0.12139966 0.430646 -0.034427129
-0.11623189 0.430646 -0.038922619
-0.16041908 -0.430646 -0.024340902
0.098860323 -0.430646 -0.024428047
-0.044119678 -0.42780399 -0.026174486
0.15088013 -0.42780396 -0.029997535
-0.14781199 -0.39788881 -0.029328104
0.187608 -0.15354016 -0.027024232
-0.14781199 -0.066204846 -0.024582557
0.1796113 -0.063957103 -0.021982141
-0.14781199 -0.056814589 -0.02007089
-0.14781199 -0.030370301 -0.026187431
0.14781199 0.080144517 -0.021347033
0.14781199 0.14139351 -0.021047754
0.14212801 0.28454992 -0.025155127
-0.14781199 0.41052607 -0.024659047
-0.019989856 0.430646 -0.021791816
0.0091948584 0.430646 -0.023594707
0.10616518 0.430646 -0.027302161
-0.12648527 -0.430646 -0.012872368
0.0073108161 -0.430646 -0.018723575
0.093689866 -0.430646 -0.017006464
0.187608 -0.2858153 -0.011434151
-0.14781199 -0.16674046 -0.018677505
-0.14781199 -0.077615514 -0.015521055
0.18056393 -0.06395711 -0.010848269
0.021538019 -0.036925331 -0.015286222
0.038463734 -0.023022056 -0.017580407
0.079766475 0.010905225 -0.013315408
-0.14781199 0.11890033 -0.012646619
0.14781199 0.13920458 -0.016698757
0.14781199 0.14580721 -0.013941234
-0.14781199 0.20064075 -0.019349517
-0.14781199 0.22037607 -0.0196127
-0.14781199 0.2763482 -0.011198156
-0.14781199 0.30889964 -0.012234677
0.14212801 0.32832217 -0.017711449
0.13814498 0.430646 -0.015534319
-0.13444437 -0.430646 -0.0068631396
0.021683097 -0.430646 -0.0085619539
0.064753287 -0.430646 -0.0063454024
0.16913766 -0.430646 -0.0053682821
-0.0027387068 -0.42780399 -0.0083052525
0.054777473 -0.42780399 -0.0030192202
0.19329301 -0.38845703 -0.0057660602
0.187608 -0.26713741 -0.0012559965
0.19329301 -0.09238933 -0.005852364
0.040517665 -0.063957103 -0.0012781918
0.15792713 -0.063957103 -0.007240992
0.18811081 -0.063957103 -0.0039142817
-0.14781199 0.18736354 -0.00037891045
-0.14781199 0.21788213 -0.0092086215
-0.14781199 0.25388572 -0.00091751292
0.14212801 0.2621356 -0.0024513979
0.14176428 0.430646 -0.001629211
0.13075665 -0.430646 0.0081890374
0.14815697 -0.430646 0.0025400575
0.16229993 -0.430646 0.0067234784
-0.023461465 -0.42780399 0.0094521325
-0.14781199 -0.40318602 0.0077022314
0.187608 -0.3246057 0.0012260787
-0.14781199 -0.31824803 0.0055859834
0.187608 -0.29171863 0.0051693069
-0.14781199 -0.27956161 0.00022360869
0.187608 -0.25428352 0.0044613145
-0.14781199 -0.22645076 0.0075766481
-0.14781199 -0.20526591 0.0059171133
0.187608 -0.20799573 0.0039387201
0.19329301 -0.071756192 0.0034860075
0.093365252 -0.063957103 0.0087667294
0.15775001 -0.063957103 0.0048688874
0.079851009 0.010974661 0.0069327988
-0.14781199 0.039441906 0.0069336537
-0.14781199 0.14437467 0.0075039268
-0.14781199 0.31953499 0.0035092719
-0.091398284 0.430646 0.0081148557
0.013375627 0.430646 0.0012236522
-0.012402579 -0.430646 0.010187842
0.00054654665 -0.430646 0.014288886
0.079921409 -0.430646 0.016448732
0.18755871 -0.430646 0.017411567
0.04136645 -0.42780399 0.011731133
-0.14781199 -0.40297621 0.016530409
0.19329301 -0.39887196 0.0167314
-0.14781199 -0.31854907 0.011825336
-0.14781199 -0.16293378 0.016069626
-0.14781199 -0.1573227 0.015875181
0.187608 -0.11704791 0.013071398
0.053323008 -0.063957103 0.010959592
0.1549589 -0.063957103 0.014359325
-0.14781199 0.25603563 0.017076708
0.14781199 0.39570409 0.010327153
-0.14781199 0.40217531 0.013689011
-0.051570658 -0.430646 0.022862714
-0.0067847595 -0.430646 0.029099602
0.014892995 -0.430646 0.027658083
-0.15021706 -0.42780399 0.029426623
-0.10746013 -0.42780399 0.026574932
-0.044950683 -0.42780399 0.024994032
0.058760978 -0.42780399 0.02350536
0.19329301 -0.4006027 0.024567716
0.187608 -0.25594261 0.029437944
0.011146659 -0.045461096 0.026849102
0.056915414 -0.0078653097 0.022633823
-0.14781199 0.13891792 0.028033618
0.14212801 0.34942377 0.022513874
0.14781199 0.39821434 0.023872405
-0.099041529 0.430646 0.021291643
0.15729868 -0.430646 0.033072863
-0.14728066 -0.42780399 0.034813579
-0.10362532 -0.42780402 0.038075097
-0.08736214 -0.42780399 0.034553006
0.15196177 -0.42780399 0.031152666
-0.14781199 -0.40803272 0.034710381
-0.14781199 -0.3948431 0.035722654
0.19329301 -0.37764925 0.038356986
0.19329301 -0.079287246 0.036163345
-0.14781199 0.023441911 0.035721518
0.1024083 0.029503884 0.034661733
0.14781199 0.11666603 0.036319822
-0.14781199 0.16401668 0.032111123
0.14212799 0.17353483 0.038574487
0.14212801 0.21875797 0.034606982
0.14212801 0.28383952 0.034876596
0.14781198 0.4297649 0.036478482
-0.089140154 0.430646 0.030627951
-0.028853934 0.430646 0.030328531
0.088838786 0.430646 0.031015676
0.045044854 -0.430646 0.04965575
0.058780394 -0.430646 0.045156732
0.087668106 -0.430646 0.046784569
0.11184469 -0.430646 0.046792362
0.15308391 -0.430646 0.049541637
0.16202077 -0.430646 0.046447199
-0.061706416 -0.42780399 0.049568884
-0.023324393 -0.42780399 0.041402392
0.068169348 -0.42780399 0.043200552
-0.14781199 -0.41990831 0.042635854
0.187608 -0.28121263 0.04007218
0.187608 -0.15469626 0.042760484
-0.00059640035 -0.063957103 0.042456716
0.082078546 -0.063957103 0.041585479
0.015134488 -0.042185377 0.044490922
0.13436328 0.055752628 0.046273902
0.14608292 0.065379485 0.04649185
0.14781199 0.08092168 0.041342199
-0.14781199 0.13441285 0.048054751
0.14212801 0.17384374 0.046678886
0.14212801 0.22119851 0.048906192
-0.14781198 0.23975645 0.045171894
0.00024447404 0.430646 0.047098719
0.036749743 0.430646 0.044163268
-0.13907662 -0.430646 0.050780445
-0.14781199 -0.42045018 0.050042488
0.19329301 -0.40140754 0.057551339
-0.14781199 -0.39331606 0.054536778
-0.14781199 -0.30817589 0.054002762
-0.14781199 -0.23034693 0.058752295
0.0080644917 -0.063957103 0.053208482
0.18233982 -0.063957103 0.056490578
0.052193724 -0.011743843 0.051780794
0.12186168 0.045483455 0.05860075
0.14781199 0.1109345 0.057716697
0.14212801 0.23221481 0.053584103
0.14212801 0.2819792 0.056428969
0.14781199 0.4131918 0.053705584
-0.095008567 0.430646 0.053122483
-0.077429079 0.430646 0.050165243
0.07850755 0.430646 0.050880823
-0.17423606 -0.430646 0.061566137
-0.14433205 -0.430646 0.065910712
0.071927331 -0.430646 0.068404935
0.10423917 -0.430646 0.065031156
0.034205809 -0.42780399 0.066666022
0.19329301 -0.34926358 0.063438885
-0.14781199 -0.24099538 0.063772246
0.19329301 -0.092048213 0.061463341
0.12826979 -0.063957103 0.069687672
-0.14781199 -0.015181705 0.066287294
-0.14781199 -0.0065269619 0.066790208
0.14212801 0.28058854 0.062537983
-0.072521403 0.430646 0.066277087
-0.043351892 0.430646 0.06237188
0.12911928 0.430646 0.065690607
0.13836914 0.430646 0.060479838
0.010515161 -0.430646 0.078761205
0.10212138 -0.42780399 0.076895066
0.19329301 -0.4150511 0.072748825
0.187608 -0.15303975 0.071339525
0.04578995 -0.063957103 0.073585615
0.092316642 -0.063957103 0.078416839
0.116515 -0.063957103 0.073484257
0.19100228 -0.063957103 0.072595522
0.01291732 -0.044006623 0.075915843
0.032074705 -0.028270192 0.074862503
0.098515332 0.026306083 0.074337184
0.11673077 0.041268773 0.077311672
0.14781199 0.1439285 0.07794863
0.14781199 0.26573542 0.077425919
-0.14781199 0.29252788 0.075874336
0.14212801 0.31373391 0.074482761
-0.14781199 0.32780918 0.073708557
0.14212801 0.32563743 0.071153142
0.14212801 0.37258548 0.073616505
0.14781199 0.39233309 0.078453012
-0.13524775 0.430646 0.07541427
-0.12603939 0.430646 0.072679527
0.030132882 0.430646 0.077041209
-0.18487602 -0.430646 0.085900173
0.15022773 -0.430646 0.089792937
-0.14781199 -0.25793689 0.084894344
0.187608 -0.25464314 0.083304703
-0.14781199 -0.23667318 0.081266686
-0.00710967 -0.060457379 0.089683495
0.13616705 -0.063957103 0.086839765
0.19329301 -0.068777472 0.081441358
-0.14781199 -0.049967989 0.081826299
0.020334298 -0.037914105 0.083867595
0.14314564 0.062966712 0.088293068
-0.14781199 0.14900702 0.088434055
-0.14781199 0.16652015 0.083486326
-0.14781199 0.23463789 0.082741015
-0.14781199 0.255968 0.089320362
0.14781199 0.27102372 0.081028499
-0.14781199 0.30619985 0.086476013
-0.14781199 0.34217557 0.080801249
0.14212801 0.35040995 0.083046049
0.0053352416 0.430646 0.085439116
0.073877849 0.430646 0.083071902
-0.027911022 -0.430646 0.099352419
0.028687011 -0.42780399 0.095492765
-0.14781199 -0.30891129 0.097176977
-0.14781199 -0.2571969 0.093431987
-0.14781199 -0.21876885 0.096470989
0.187608 -0.18438044 0.096271768
0.19255084 -0.16932538 0.099609993
0.187608 -0.15624617 0.090630054
0.19329301 -0.13682815 0.093443356
-0.14781199 -0.096080825 0.096265487
0.017019976 -0.063957103 0.090101816
0.122231 -0.063957103 0.095621243
0.036754489 -0.02442608 0.094510213
-0.14781199 -0.015389211 0.090054132
0.042321537 -0.019853143 0.097011872
0.051785156 -0.012079448 0.097076878
0.06096264 -0.0045407992 0.090146638
-0.14781199 0.0047733784 0.0955467
-0.14781199 0.024716765 0.09937048
-0.14781199 0.19448081 0.098006338
-0.14781199 0.40820313 0.098351963
0.14781199 0.42212912 0.098894268
0.12760648 0.430646 0.090232477
-0.11970364 -0.430646 0.1020803
-0.010888375 -0.430646 0.10065733
0.00049678236 -0.430646 0.10730708
0.044834271 -0.430646 0.10952871
-0.03611061 -0.42780399 0.10210955
0.072959892 -0.42780399 0.10514095
0.13732244 -0.42780399 0.10178301
-0.14781199 -0.30502382 0.10207353
-0.14781199 -0.27829385 0.10730763
-0.14781199 -0.26597348 0.10948642
-0.14781199 -0.25420347 0.10562595
0.187608 -0.25019473 0.10500465
-0.14781199 -0.23887697 0.10004071
0.19329301 -0.13593908 0.10934213
0.19329301 -0.11053219 0.10558596
-0.0064242957 -0.059894394 0.10162076
-0.14781199 0.011538848 0.10436532
-0.14781199 0.11750977 0.102438
-0.14781199 0.31139344 0.105745
0.1437076 0.369115 0.108017
0.14781199 0.41639298 0.10962626
-0.13321535 0.430646 0.10577032
0.083325699 0.430646 0.10945856
0.097958088 0.430646 0.10295769
0.0059504956 -0.430646 0.11310166
0.072270274 -0.430646 0.11988112
-0.15129901 -0.42780399 0.11096628
-0.097373247 -0.42780399 0.11352851
-0.071223497 -0.42780399 0.11101261
-0.066011637 -0.42780399 0.11098883
0.044451021 -0.42780399 0.11420646
0.19329301 -0.37826896 0.11155233
-0.14781199 -0.32507959 0.11945981
0.19329301 -0.30867028 0.11059669
0.19329301 -0.17338821 0.11043796
-0.14781199 -0.13848904 0.11784394
-0.14781199 -0.12989032 0.11370999
-0.14781199 -0.0041666329 0.11896274
0.092253052 0.021162059 0.11816975
-0.14781199 0.063153319 0.11034364
-0.14781199 0.30607569 0.11975632
-0.14781199 0.32765162 0.11907807
-0.14781199 0.40065584 0.11491588
-0.1439736 0.430646 0.11006101
-0.013664659 0.430646 0.11541898
0.023903981 0.430646 0.11903678
-0.18256155 -0.430646 0.12199128
-0.11992313 -0.430646 0.12028816
0.10391806 -0.430646 0.12641437
0.19329301 -0.344926 0.12232505
0.19329301 -0.30013806 0.12593295
0.19329301 -0.27042109 0.12957741
-0.14781199 -0.26324019 0.12198761
0.19329301 -0.21068111 0.12860008
0.10916944 -0.063957103 0.12035671
0.12630717 -0.063957103 0.12041797
0.001893949 -0.053061545 0.12190426
0.045238007 -0.01745747 0.12160683
0.055624858 -0.0089254063 0.12405176
0.062055521 -0.0036430713 0.12779792
0.092345908 0.021238336 0.12970628
-0.14781199 0.036064059 0.12902525
0.14781199 0.071194649 0.12671629
0.14781199 0.15177299 0.12926227
-0.14781199 0.18445656 0.12355617
-0.14781199 0.25441316 0.12238231
-0.14781199 0.30481827 0.12881002
-0.0053299963 0.430646 0.12331516
0.10275435 0.430646 0.12132628
0.13215178 0.430646 0.12830707
0.034458324 -0.430646 0.13351634
0.092790544 -0.430646 0.1384546
0.16163549 -0.430646 0.13923058
0.045730021 -0.42780399 0.13728535
-0.14781199 -0.37890136 0.13623427
-0.14781199 -0.32661223 0.13581507
0.19329301 -0.3135452 0.13632113
-0.14781199 -0.27639017 0.13026266
-0.14781199 -0.23017073 0.1365428
0.19329301 -0.23894569 0.13481697
0.19329301 -0.20742603 0.13092801
0.19329301 -0.13010584 0.13566461
0.11874415 -0.063957103 0.13880721
0.19329301 -0.069908246 0.13323414
-0.14781199 0.10209262 0.13676278
0.14781199 0.11245115 0.13951378
-0.14781199 0.13985302 0.13550371
-0.14781198 0.2195732 0.13633645
-0.14781198 0.355964 0.13289601
-0.14781199 0.3729533 0.13987018
0.14781199 0.38135159 0.13180557
-0.14781199 0.42921978 0.13414526
-0.087309808 0.430646 0.13184677
-0.069929421 0.430646 0.13989776
0.098232158 0.430646 0.1370855
-0.037601478 -0.42780399 0.14986956
0.19329301 -0.2561422 0.14060377
-0.14781199 -0.23912607 0.14507122
-0.14781199 -0.21534455 0.14261961
0.050169419 -0.063957103 0.14361894
0.15729553 -0.063957103 0.14312485
0.18690114 -0.063957103 0.14287651
-0.14781201 0.041285232 0.14357157
0.11865108 0.042846177 0.14817187
-0.14781199 0.09094952 0.14365879
-0.14781198 0.1235708 0.14292918
-0.14781199 0.32044464 0.1481424
0.14781199 0.40259513 0.14618123
-0.11279006 0.430646 0.14365485
0.051137246 0.430646 0.146274
0.12980983 0.430646 0.14791064
-0.12395978 -0.430646 0.1514715
-0.089194529 -0.430646 0.15352806
0.03846702 -0.430646 0.15630162
0.14814359 -0.430646 0.15472734
-0.054488618 -0.42780399 0.15377
-0.0060499161 -0.42780399 0.15306704
0.012994424 -0.42156184 0.15349799
0.076884449 -0.4275727 0.15349799
0.16856669 -0.42192432 0.15349799
0.17367531 -0.42780399 0.15633979
-0.039775882 -0.41795427 0.15349799
0.0063961521 -0.41392151 0.15349799
0.037493609 -0.41427732 0.15349799
-0.072370291 -0.40299237 0.15349799
0.054812856 -0.40574777 0.15349799
0.079432935 -0.40527308 0.15349799
-0.076253429 -0.39707252 0.15349799
-0.034330942 -0.39047664 0.15349799
0.056769527 -0.39391059 0.15349799
0.077685699 -0.39951348 0.15349799
0.082249887 -0.393913 0.15349799
0.10288687 -0.39205807 0.15349799
-0.027255699 -0.37480414 0.15349799
-0.0052676573 -0.37587911 0.15349799
-0.12645632 -0.36501929 0.15349799
0.021692697 -0.36172354 0.15349799
0.072426021 -0.36290082 0.15349799
0.091934346 -0.36361814 0.15349799
0.14608219 -0.36367884 0.15349799
-0.075001389 -0.35778809 0.15349799
0.10731741 -0.35410097 0.15349799
-0.029839948 -0.34617066 0.15349799
-0.019054212 -0.34387988 0.15349799
-0.079088286 -0.32824773 0.15349799
-0.021160241 -0.3215186 0.15349799
-0.0087506063 -0.3237083 0.15349799
0.16910011 -0.32221785 0.15349799
0.18495125 -0.32382739 0.15349799
-0.12156451 -0.31444478 0.15349799
-0.082867928 -0.31627628 0.15349799
0.19329301 -0.31438851 0.152044
-0.053398021 -0.30582285 0.15349799
0.076982737 -0.30967629 0.15349799
0.19329301 -0.30442172 0.15332736
-0.12124672 -0.29357636 0.15349799
0.18939281 -0.28000242 0.15349799
0.023778461 -0.27559799 0.15349799
0.057018429 -0.27289605 0.15349799
-0.12869482 -0.26738954 0.15349799
-0.093557581 -0.26435846 0.15349799
0.085481785 -0.26099321 0.15349799
0.12307321 -0.26933554 0.15349799
-0.0019270331 -0.25574943 0.15349799
0.071363322 -0.25143453 0.15349799
0.086861543 -0.25362954 0.15349799
-0.12270927 -0.24501792 0.15349799
0.13031971 -0.23530576 0.15349799
0.15527189 -0.23394489 0.15349799
-0.062627405 -0.22035801 0.15349799
0.12427288 -0.22297557 0.15349799
0.15424466 -0.22927599 0.15349799
0.066436522 -0.21512653 0.15349799
0.1690079 -0.21705352 0.15349799
-0.059804589 -0.20867589 0.15349799
0.08068084 -0.20197915 0.15349799
-0.12435745 -0.19838935 0.15349799
-0.093228161 -0.19477263 0.15349799
-0.034846626 -0.19905677 0.15349799
0.02355447 -0.1917903 0.15349799
0.094974257 -0.19693235 0.15349799
-0.091277838 -0.18479964 0.15349799
-0.086901389 -0.18005189 0.15349799
-0.04562778 -0.18851292 0.15349799
-0.015409401 -0.18126142 0.15349799
-0.082833998 -0.16579138 0.15349799
-0.065914154 -0.16648017 0.15349799
-0.012893926 -0.16632642 0.15349799
0.028553652 -0.16798884 0.15349799
0.1206845 -0.1625829 0.15349799
0.07437785 -0.15239437 0.15349799
0.19226298 -0.15390864 0.15349799
-0.044072032 -0.14203645 0.15349799
0.0068295244 -0.13085744 0.15349799
0.04774382 -0.13104981 0.15349799
0.077186644 -0.13487199 0.15349799
0.13152412 -0.13715374 0.15349799
-0.03955362 -0.12181883 0.15349799
-0.014185534 -0.127014 0.15349799
0.17657396 -0.12239413 0.15349799
0.18916982 -0.12312269 0.15349799
0.0029235575 -0.11487784 0.15349799
0.017631788 -0.11515604 0.15349798
0.10657876 -0.11792647 0.15349799
-0.1372907 -0.10387832 0.15349799
0.0058008125 -0.10494642 0.15349799
0.094389215 -0.10608862 0.15349799
0.10547766 -0.10747724 0.15349799
-0.093607485 -0.090034239 0.15349799
-0.041804396 -0.090105847 0.15349799
-0.12596446 -0.088040128 0.15349799
-0.086344734 -0.08158569 0.15349799
0.15687066 -0.076974712 0.15349799
-0.084738493 -0.067807108 0.15349799
-0.038043428 -0.064416647 0.15349799
0.1156279 -0.063957103 0.15330926
0.17328401 -0.064898685 0.15349799
0.0060041295 -0.041432507 0.15349799
-0.060409889 -0.02168785 0.15349799
-0.016618105 -0.0030291714 0.15349799
-0.021846415 0.0075938501 0.15349799
-0.0036934349 0.00016530976 0.15349799
0.0033098739 0.0083871707 0.15349799
0.047633614 0.00087444298 0.15349799
-0.14781199 0.012174889 0.15076724
-0.013174715 0.01485444 0.15349799
-0.0037611499 0.01494536 0.15349799
-0.11198053 0.030109689 0.15349799
-0.089892462 0.032502748 0.15349799
-0.028442265 0.037518077 0.15349799
-0.14495717 0.049475819 0.15349799
-0.12504654 0.043161944 0.15349799
0.042716041 0.05334327 0.15349799
-0.041273978 0.076657437 0.15349799
-0.13488665 0.098533675 0.15349799
-0.10108103 0.099112473 0.15349799
-0.055960968 0.095507532 0.15349799
-0.040522959 0.098942094 0.15349799
0.087503746 0.097834557 0.15349799
0.001108028 0.10270515 0.15349799
0.013819221 0.10782709 0.15349799
-0.0096612051 0.11794168 0.15349799
0.0056209601 0.11930358 0.15349799
0.07498613 0.11867654 0.15349799
-0.095669761 0.12059011 0.15349799
0.11084996 0.13099353 0.15349799
0.1354941 0.13609266 0.15349799
-0.12865135 0.14280713 0.15349799
-0.050690595 0.15928967 0.15349799
-0.060629103 0.16412185 0.15349799
0.0090059452 0.1628024 0.15349799
-0.09884505 0.17950602 0.15349799
-0.040837292 0.18072036 0.15349799
0.13542737 0.18966188 0.15349799
-0.12708443 0.19404608 0.15349799
-0.07615684 0.19607273 0.15349799
-0.062086206 0.21434143 0.15349799
0.051366851 0.2296934 0.15349799
0.095202193 0.22699034 0.15349799
-0.10608304 0.2392322 0.15349799
0.038655672 0.23615134 0.15349799
0.13661222 0.23375554 0.15349799
0.053139847 0.24152084 0.15349799
0.068181165 0.2412186 0.15349799
0.08686161 0.25804254 0.15349799
-0.14109798 0.26396516 0.15349799
-0.13539661 0.26622084 0.15349799
-0.011599012 0.26040617 0.15349799
-0.00077792257 0.26987109 0.15349799
0.039303292 0.26792899 0.15349799
0.068936467 0.26593482 0.15349799
0.13217372 0.28331748 0.15349799
0.0050559193 0.29743159 0.15349799
0.14510207 0.29363909 0.15349799
-0.14722943 0.30241439 0.15349799
0.08800666 0.30570349 0.15349799
-0.087122239 0.31817061 0.15349799
0.13343354 0.32433346 0.15349799
-0.077469736 0.33167467 0.15349799
0.10339473 0.33526373 0.15349799
-0.11398695 0.34295496 0.15349799
0.040257875 0.34140718 0.15349799
0.13072984 0.35615894 0.15349799
-0.12982537 0.36686054 0.15349799
-0.10884959 0.3748644 0.15349799
-0.082733124 0.37827277 0.15349799
0.073008016 0.37635314 0.15349799
0.10529856 0.37911865 0.15349799
-0.03941986 0.39780864 0.15349799
0.085018933 0.39779034 0.15349799
-0.1097918 0.4088954 0.15349798
0.026410773 0.40028256 0.15349799
-0.027404241 0.42894098 0.15349799
0.054396804 0.42621499 0.15349799
0.12207596 0.42952079 0.15349799
0.060925439 -0.42918956 0.164868
