# .PCD v0.7 - Point Cloud Data file format
VERSION 0.7
FIELDS x y z
SIZE 4 4 4
TYPE F F F
COUNT 1 1 1
WIDTH 972
HEIGHT 1
VIEWPOINT 0 0 0 1 0 0 0
POINTS 972
DATA ascii
0.22226493 -0.30098999 -0.277854
-0.086283311 -0.28520423 -0.277854
-0.072379656 -0.27508494 -0.277854
0.14270732 -0.27472395 -0.277854
-0.21839273 -0.24606371 -0.277854
0.011206463 -0.24562952 -0.277854
0.083358206 -0.24403846 -0.277854
-0.16273105 -0.23003064 -0.277854
-0.12557879 -0.23787072 -0.277854
0.1907271 -0.23120186 -0.277854
0.22638139 -0.23962331 -0.27785403
-0.022291251 -0.21372288 -0.277854
-0.009381108 -0.20744792 -0.277854
0.055905718 -0.20862749 -0.277854
0.16020241 -0.2039776 -0.27785403
0.0036709085 -0.19843443 -0.277854
-0.27040184 -0.1894315 -0.277854
-0.19421443 -0.1626142 -0.277854
-0.0020659827 -0.16025755 -0.277854
0.25854686 -0.16979146 -0.277854
-0.14407465 -0.15204495 -0.277854
0.14971453 -0.15530495 -0.277854
0.24361466 -0.15534487 -0.277854
-0.163761 -0.14466439 -0.277854
0.14282137 -0.14706703 -0.277854
0.18828453 -0.1433017 -0.277854
-0.25781572 -0.13757195 -0.277854
-0.10443089 -0.13790321 -0.277854
0.19320309 -0.13927287 -0.277854
0.0022930205 -0.1180958 -0.277854
-0.12340202 -0.10926533 -0.277854
-0.072815895 -0.10920426 -0.277854
-0.21738335 -0.092765585 -0.27785397
-0.073307 -0.085852258 -0.277854
-0.18075038 -0.074809656 -0.277854
0.095549971 -0.076704226 -0.277854
0.12237438 -0.074484572 -0.277854
0.20410699 -0.068781003 -0.277854
0.25470683 -0.063292123 -0.277854
0.19972315 -0.059819289 -0.277854
0.092680201 -0.040680338 -0.277854
-0.24237797 -0.033718955 -0.277854
0.065453157 -0.033245601 -0.277854
0.18641929 -0.037918121 -0.277854
0.26334515 -0.032415457 -0.277854
0.089347363 -0.024303749 -0.277854
0.10164644 -0.020002065 -0.277854
0.030487161 -0.017715463 -0.277854
-0.057434287 -0.0045801476 -0.277854
0.031033741 -0.0093699507 -0.277854
-0.23844008 0.016443096 -0.277854
-0.15713421 0.016826518 -0.277854
0.062637903 0.014217559 -0.277854
-0.26724359 0.028918229 -0.277854
-0.10285504 0.027590454 -0.277854
0.24736264 0.031124927 -0.277854
-0.14308885 0.048157625 -0.277854
-0.060779754 0.044695288 -0.277854
0.0059562325 0.055321619 -0.277854
0.027502896 0.056113567 -0.277854
0.22051574 0.065424763 -0.277854
-0.055838242 0.07270591 -0.277854
-0.027360033 0.073925771 -0.277854
0.24940135 0.070618808 -0.277854
0.038835719 0.084510297 -0.277854
-0.20376334 0.092786573 -0.277854
0.1228122 0.094537087 -0.277854
-0.19545291 0.10510494 -0.277854
-0.15931657 0.10184081 -0.27785397
-0.11519077 0.10166692 -0.277854
0.10613349 0.10723238 -0.277854
0.012981296 0.11099485 -0.277854
0.24604826 0.11662178 -0.277854
-0.285065 0.12722814 -0.27548134
-0.13175608 0.12805271 -0.277854
0.11562352 0.12328063 -0.277854
-0.10695112 0.13937892 -0.277854
-0.087690085 0.14675044 -0.277854
0.25130409 0.1447573 -0.277854
-0.28506503 0.15198961 -0.27641591
0.16645223 0.15540104 -0.277854
-0.030531533 0.1673293 -0.27785397
0.079289511 0.16602671 -0.277854
0.16527861 0.17765336 -0.277854
-0.23794861 0.18968068 -0.277854
-0.2812407 0.19783458 -0.277854
0.18764585 0.19982418 -0.277854
-0.23253252 0.201243 -0.27297387
-0.027816113 0.201243 -0.27693516
0.044546597 0.20124301 -0.27181667
-0.28088498 0.23934422 -0.27546763
-0.15058368 0.24122554 -0.277854
-0.25076401 0.27066934 -0.277854
-0.22787565 -0.30254799 -0.26697007
-0.046191901 -0.30254799 -0.2658101
0.270643 -0.25273684 -0.26753041
0.270643 -0.18064137 -0.26820642
0.270643 -0.082916707 -0.26542699
0.270643 -0.057643466 -0.26473388
0.270643 0.11928166 -0.26692089
-0.15731432 0.27402231 -0.26069945
-0.285065 -0.30180177 -0.25235847
-0.20729309 -0.30254799 -0.25447738
-0.094829313 -0.30254799 -0.25757027
0.078016683 -0.30254799 -0.25345734
0.14485756 -0.30254799 -0.25261414
-0.285065 -0.19422221 -0.25050879
0.270643 -0.13380376 -0.2560564
-0.285065 0.11158717 -0.25797203
-0.21870263 0.201243 -0.25219652
0.065666825 0.20124298 -0.25776279
-0.15983091 0.27833453 -0.25590268
-0.18288726 -0.30254799 -0.24619719
-0.126176 -0.30254799 -0.24756208
0.0012716651 -0.30254799 -0.24083635
0.086519867 -0.30254799 -0.24007429
0.10030528 -0.30254799 -0.24018595
-0.28447157 0.206652 -0.24741922
-0.12169687 0.21299219 -0.24487162
-0.28136843 0.23493755 -0.24236894
-0.285065 -0.27899933 -0.23250456
0.270643 -0.26228011 -0.23673186
0.270643 -0.22680609 -0.23438215
-0.285065 -0.090065822 -0.23500228
0.270643 0.032501489 -0.23038574
0.270643 0.098378293 -0.23740344
0.16672315 0.201243 -0.23671667
-0.21349786 0.30254799 -0.23072538
-0.19606899 0.30254799 -0.23431225
-0.14462987 -0.30254799 -0.22220705
0.19709533 -0.30254799 -0.22111279
-0.285065 -0.2926425 -0.22269374
-0.285065 0.033836283 -0.22521088
-0.21989632 0.20124298 -0.22313283
-0.11560757 0.20124298 -0.22149844
-0.023593567 0.20124298 -0.22447044
0.15138316 0.201243 -0.22962329
0.18296458 0.201243 -0.22798949
-0.26356804 0.30254799 -0.2284067
-0.1887574 -0.30254799 -0.21548282
-0.285065 -0.1564467 -0.21927708
0.270643 -0.093024492 -0.21360603
-0.285065 -0.042214729 -0.21350601
0.270643 -0.037092667 -0.21117437
-0.285065 -0.026126146 -0.21138513
-0.28501651 0.20168495 -0.21935849
-0.13437663 0.20124298 -0.21764433
0.20635661 0.20124301 -0.21915524
-0.12354816 0.21616437 -0.21463063
-0.25562727 -0.30254799 -0.20281699
-0.19115958 -0.30254799 -0.20121482
0.16370681 -0.30254799 -0.20200968
-0.285065 -0.23490639 -0.20553593
0.270643 -0.1518594 -0.20895855
0.270643 -0.088797048 -0.2010116
0.270643 0.0021439195 -0.20074406
-0.27623513 0.20124301 -0.20356968
0.16349907 0.20124298 -0.20875745
-0.285065 -0.10364064 -0.19981542
0.270643 -0.086913154 -0.19269222
-0.285065 -0.012209401 -0.1954259
-0.285065 0.13701984 -0.19999245
0.270643 0.18752533 -0.19085518
0.18516633 0.20124298 -0.1953941
0.26043791 0.201243 -0.19262989
-0.2779105 0.26645684 -0.19368348
-0.12871504 -0.30254799 -0.18156156
0.22370642 -0.30254799 -0.18004961
-0.285065 -0.25661358 -0.18845406
0.270643 -0.1496795 -0.18638015
-0.285065 -0.039521307 -0.1851335
-0.285065 -0.0040779039 -0.18307975
-0.285065 0.036039546 -0.18887214
0.270643 0.044193953 -0.18656552
-0.285065 0.10331418 -0.18232696
-0.0096929371 0.20124298 -0.18456048
0.013348863 0.201243 -0.18667008
0.2042844 0.20124301 -0.18222263
-0.16955137 -0.30254799 -0.17721394
-0.087746143 -0.30254799 -0.17306349
-0.285065 -0.15703522 -0.17538244
-0.285065 -0.14187494 -0.17561418
0.270643 0.13322197 -0.17392309
-0.285065 0.17579345 -0.17095169
-0.041472185 0.201243 -0.17245249
-0.28132522 0.23533136 -0.17246506
-0.2801238 0.24628241 -0.17029902
-0.15902373 -0.30254799 -0.167173
0.020459332 -0.30254799 -0.16297078
0.21604778 -0.30254799 -0.16332687
-0.285065 -0.23887458 -0.16793422
0.270643 -0.056647006 -0.16831946
0.270643 -0.048968028 -0.16086316
-0.285065 0.049195081 -0.16605982
0.270643 0.048359104 -0.16402207
-0.28059518 0.24198566 -0.16123518
-0.16358957 0.28477496 -0.16476591
-0.19186583 -0.30254799 -0.15494584
-0.285065 -0.21625784 -0.15793765
0.12398845 0.201243 -0.15502751
0.17057829 0.20124301 -0.15949515
-0.19639692 0.30254799 -0.15281139
-0.1898752 0.30254799 -0.15406504
0.0078618675 -0.30254799 -0.1452992
0.024612129 -0.30254799 -0.14214805
0.17151554 -0.30254799 -0.14042123
-0.285065 -0.28290719 -0.1458469
-0.285065 -0.27865848 -0.14400937
0.270643 -0.1158706 -0.14894004
-0.095651127 -0.096370332 -0.14167231
-0.11407778 -0.082017891 -0.14442471
0.14525761 -0.084256195 -0.14399546
0.16337606 -0.081825852 -0.14446154
-0.21226409 -0.074616306 -0.14584413
-0.19066423 -0.073023699 -0.14614955
-0.15057886 -0.077652648 -0.14526185
-0.067365542 -0.078273878 -0.14514272
0.13698298 -0.077638105 -0.14526464
-0.17745136 -0.069188178 -0.1468851
0.11684772 -0.063894756 -0.14790022
0.14222647 -0.06432429 -0.14781787
0.2497164 -0.062000528 -0.1482635
0.074250922 -0.053105012 -0.14831197
0.20319198 -0.054945368 -0.14844553
0.21276619 -0.055388153 -0.14847766
-0.058252871 -0.04969947 -0.14806503
0.041487895 -0.045699351 -0.14777555
-0.061258968 -0.0334813 -0.14689025
-0.019132584 -0.03223199 -0.14679973
0.097378746 -0.033343799 -0.14688028
0.20685884 -0.030807778 -0.14669652
-0.073759109 -0.026173688 -0.14636073
-0.027527481 -0.025460729 -0.14630906
0.14824513 -0.021420244 -0.14601628
0.16085529 -0.02938072 -0.14659311
-0.12998064 -0.016288631 -0.14446718
0.16721299 -0.011868648 -0.14293277
0.17174457 -0.01560583 -0.14423013
0.17054288 -0.0068504279 -0.14119071
0.270643 0.11767592 -0.14594351
-0.16942778 0.201243 -0.14098957
-0.27734417 0.27161902 -0.14836264
-0.23444277 0.30254799 -0.14740817
-0.18283491 0.30254799 -0.14711741
-0.17840275 0.30254799 -0.14375955
-0.20036654 -0.30254799 -0.13492
0.270643 -0.25573522 -0.13752981
0.270643 -0.21730338 -0.13002789
-0.068430327 -0.11166161 -0.13461646
0.027951481 -0.11264005 -0.13414231
-0.045218211 -0.1037534 -0.13844903
0.054523662 -0.10822385 -0.13628252
0.16109283 -0.10378579 -0.13843332
0.27458251 -0.057718426 -0.13231575
-0.285065 -0.011413515 -0.13191754
-0.20867608 -0.0029484183 -0.13983613
0.089327633 0.0028339177 -0.13782881
0.044935465 0.018814296 -0.13140805
0.18118997 0.020471273 -0.13028432
-0.28297615 0.201243 -0.13441411
-0.23716882 0.20124298 -0.13802156
-0.21929507 0.201243 -0.13710275
-0.11862855 0.20773464 -0.13568728
-0.2813403 0.23519394 -0.13874198
-0.28069976 0.2410323 -0.13413195
-0.1485686 -0.30254799 -0.12742978
-0.13687772 -0.30254799 -0.12494428
-0.05581183 -0.30254799 -0.12720761
0.21888086 -0.30254799 -0.12800646
0.24185328 -0.30254799 -0.12256265
-0.285065 -0.19708738 -0.12005198
0.270643 -0.18703827 -0.1252818
-0.17098643 -0.13395201 -0.12329604
0.015364349 -0.13083825 -0.12532295
0.12718858 -0.13028693 -0.12559012
-0.11820557 -0.12911549 -0.12615785
-0.091139257 -0.12498266 -0.12816073
0.285065 -0.11777134 -0.12007536
-0.0080687404 0.027605701 -0.12544596
0.071674213 0.035630312 -0.12000388
0.270643 0.074436888 -0.12246956
-0.014497109 0.20124298 -0.12265098
0.11146018 0.201243 -0.12292175
0.17445564 0.201243 -0.12932262
-0.28125295 0.23599005 -0.12641948
-0.22695574 0.30254799 -0.12106134
-0.078725539 -0.30254799 -0.11580381
0.12737224 -0.30254799 -0.11148885
0.23623121 -0.30254799 -0.11300704
-0.285065 -0.17079535 -0.11216028
0.270643 -0.1510739 -0.11408225
-0.19736099 -0.14135599 -0.11689268
-0.18469766 -0.14479864 -0.11391529
-0.17723207 -0.14905617 -0.11023314
-0.012792185 -0.14523894 -0.11353448
0.073391385 -0.14219981 -0.1161629
-0.250453 -0.13759494 -0.11726632
0.032676347 0.049511962 -0.11004529
0.079893097 0.042806394 -0.11513726
0.090944014 0.045234874 -0.11349033
0.11413302 0.046657365 -0.11252563
-0.10243525 0.201243 -0.11075968
-0.091346577 0.201243 -0.11693083
-0.15569477 0.27124727 -0.11840624
-0.22425532 0.30254799 -0.11276297
-0.1870572 0.30254799 -0.11541111
-0.17828842 -0.30254799 -0.10984983
0.01473958 -0.15582369 -0.1043802
0.12430592 -0.15232706 -0.10740427
0.2398814 -0.15802197 -0.102479
-0.250453 -0.1361195 -0.10700368
-0.285065 -0.12490997 -0.10789786
-0.250453 -0.090209886 -0.10803851
-0.250453 -0.082446478 -0.10304966
-0.250453 0.0099344244 -0.10567965
-0.250453 0.049955647 -0.10920643
-0.10052326 0.052893877 -0.10613488
-0.092043109 0.050879255 -0.10846432
-0.047757156 0.054163262 -0.10466713
0.11819827 0.056362465 -0.10212426
0.270643 0.073769115 -0.10224625
-0.054110467 0.201243 -0.10296479
-0.26031232 0.30254799 -0.1059424
-0.27002135 -0.30254799 -0.092821792
-0.19135061 -0.30254799 -0.092654213
-0.18281677 -0.30254799 -0.09041515
0.038176797 -0.30254799 -0.091295369
0.21734098 -0.30254799 -0.097275041
-0.250453 -0.16641948 -0.09238749
-0.055272289 -0.16509485 -0.09448421
0.270643 -0.051679395 -0.090432607
-0.285065 -0.021414533 -0.091562659
-0.16864443 0.061489008 -0.096196577
-0.11437473 0.06178949 -0.095849141
0.17967701 0.061064597 -0.096687317
0.22109663 0.06094598 -0.096824467
0.28225654 0.060380541 -0.097478271
0.270643 0.1185388 -0.090424277
-0.26277742 0.20124298 -0.095663719
-0.11568992 0.20124298 -0.099933207
0.049753577 0.20124298 -0.09553764
-0.2812137 0.23634806 -0.0998924
-0.24992681 -0.30254799 -0.083771504
-0.22733729 -0.30254799 -0.080233701
-0.10333776 -0.30254799 -0.083050251
0.21887714 -0.30254799 -0.08649762
0.27028972 -0.30254799 -0.088420078
-0.285065 -0.27479887 -0.08394216
0.270643 -0.20996171 -0.082105547
0.22571319 -0.17246583 -0.083615385
-0.24851415 -0.16938184 -0.088162862
0.270643 -0.13068099 -0.086670771
-0.285065 -0.034851171 -0.087525412
-0.250453 -0.038485583 -0.088021867
-0.063840665 0.06686832 -0.089976639
0.048699699 0.067605078 -0.089124747
0.084693402 0.067841761 -0.088851087
0.10623885 0.068218224 -0.088415787
0.081868589 0.201243 -0.081814446
0.24428453 0.201243 -0.082180262
-0.16384499 -0.30254799 -0.076916113
-0.285065 -0.21512319 -0.071215093
-0.15610683 -0.18033732 -0.07200852
-0.250453 -0.17020506 -0.070514172
-0.250453 -0.15386201 -0.077230334
-0.250453 -0.13071769 -0.078759111
-0.285065 -0.078531779 -0.07841862
-0.285065 -0.04077461 -0.074759215
-0.250453 -0.039313048 -0.077218324
-0.22928193 0.07686428 -0.075658545
-0.20871074 0.079591319 -0.070031777
0.088568129 0.07835333 -0.072586149
0.19954829 0.079132818 -0.070977814
-0.26688066 0.201243 -0.070455685
0.16193932 0.201243 -0.07457827
0.21657816 0.201243 -0.07110472
-0.27661145 0.27829772 -0.07451383
-0.17197861 0.29914945 -0.071853913
-0.285065 -0.28452975 -0.064481899
-0.11891206 -0.18494843 -0.063664429
-0.060486376 -0.18518513 -0.062982529
-0.035693079 -0.18424745 -0.065683901
-0.285065 -0.13839519 -0.061879657
-0.285065 -0.12196573 -0.068881117
-0.285065 -0.075958729 -0.067051187
0.270643 0.041512348 -0.066836163
-0.23691519 0.081057146 -0.067007303
0.018578734 0.083640948 -0.061676078
0.083497502 0.083322048 -0.062334076
0.11286654 0.081742369 -0.065593466
-0.285065 0.13020951 -0.065486103
0.270643 0.16993952 -0.065405935
-0.26985636 0.201243 -0.062318176
-0.18293446 -0.30254799 -0.057377465
0.16971743 -0.30254799 -0.05884837
0.270643 -0.30205154 -0.052956924
0.270643 -0.28559285 -0.055832066
-0.285065 -0.23304211 -0.050739966
-0.10541955 -0.18793422 -0.055062711
0.14420962 -0.1894965 -0.050561927
0.15618762 -0.18816946 -0.054384995
0.24249682 -0.1890215 -0.051930383
-0.285065 -0.11633699 -0.053088196
-0.285065 -0.04967045 -0.055541821
-0.285065 0.08784759 -0.057086743
0.036971055 0.08755102 -0.053608332
0.133086 0.086679086 -0.055407397
0.28476968 0.085378736 -0.058090448
-0.285065 0.1902298 -0.056883521
-0.23147312 0.201243 -0.055394374
0.074110381 0.201243 -0.052192714
0.20042147 0.201243 -0.058682416
-0.28189 0.23018329 -0.050151974
-0.24199849 -0.30254799 -0.041154355
0.25539845 -0.30254799 -0.041133195
-0.060276967 -0.19194895 -0.043496732
-0.285065 -0.18151882 -0.048361294
0.054545626 -0.18975607 -0.049814183
-0.250453 -0.15049051 -0.043759108
-0.285065 -0.039668605 -0.047598436
-0.250453 -0.012317304 -0.047410786
-0.285065 0.021749303 -0.04195597
-0.03589236 0.08958827 -0.049404837
0.1432406 0.091583103 -0.042782631
-0.285065 0.14146373 -0.04402791
-0.19465795 0.201243 -0.042709894
0.15104228 0.20124301 -0.048507538
0.034050133 -0.30254799 -0.038793441
0.20389327 -0.30254799 -0.031823903
0.270643 -0.27781487 -0.038623981
-0.16939689 -0.19639482 -0.03068869
0.285065 -0.18383977 -0.039317049
0.270643 -0.16759735 -0.033513684
-0.285065 -0.1156393 -0.036224212
0.270643 -0.035526603 -0.03612119
-0.285065 0.031345747 -0.034983039
0.2713553 0.076966599 -0.036229912
0.087580554 0.092836417 -0.036247145
0.24556729 0.092301063 -0.039038785
-0.285065 0.18544786 -0.034228578
-0.21146297 0.20124298 -0.039446391
-0.16186808 0.20124298 -0.032129176
-0.11796227 0.20659299 -0.037453152
0.10270328 0.201243 -0.035369463
0.16807282 0.201243 -0.035422817
0.20927298 0.201243 -0.030646376
0.23486347 0.201243 -0.030344278
0.25489274 0.201243 -0.038614422
-0.14632179 0.25518674 -0.031667337
-0.21592501 0.30254799 -0.031612121
-0.18005686 0.30254799 -0.030866779
-0.26689318 -0.30254799 -0.028119385
-0.23854406 -0.30254799 -0.021523446
-0.17038971 -0.30254799 -0.025338724
-0.285065 -0.26620647 -0.022285232
-0.093314826 -0.19686212 -0.026557384
0.19807574 -0.19701973 -0.02438299
0.27502659 -0.19709393 -0.023358891
-0.285065 -0.1567803 -0.02738595
0.270643 -0.14455104 -0.026633322
-0.250453 -0.05206475 -0.023019738
-0.285065 -0.027571976 -0.029773779
0.270643 -0.011768959 -0.027720017
-0.285065 0.031398229 -0.027506605
0.270643 0.045801051 -0.027054824
-0.250453 0.090888955 -0.027820043
0.092631705 0.09495502 -0.025199533
0.025684215 0.201243 -0.024118997
-0.22111566 -0.30254799 -0.01994735
-0.285065 -0.27738985 -0.016898496
-0.08902882 -0.19789332 -0.012330279
-0.04868447 -0.1974517 -0.018423067
-0.285065 -0.12341239 -0.012805976
-0.250453 -0.089073174 -0.010630304
0.270643 -0.061626915 -0.015743824
-0.250453 -0.052526668 -0.013377495
-0.285065 -0.010550149 -0.013207868
-0.285065 0.046230428 -0.016150996
0.270643 0.17894551 -0.014824413
-0.15718558 0.27380061 -0.011412889
-0.27369663 -0.30254799 -0.0029491186
0.0046241265 -0.30254799 -0.0019452227
0.14246464 -0.30254799 -0.0088176206
0.1913375 -0.30254799 -0.0019541085
-0.250453 -0.01609694 -0.004822541
0.270643 0.055388637 -0.0033289976
-0.045441009 0.097672492 -0.0026272857
0.270643 0.18004654 -0.0037349313
-0.1295059 0.201243 -0.0082089305
0.19780807 0.201243 -0.0096876919
-0.032354243 -0.30254799 0.0022149775
0.015870728 -0.30254799 0.00030559767
0.068262793 -0.30254799 0.0061564445
0.270643 -0.20181391 0.008974609
0.0048678853 -0.19928175 0.0068290951
-0.285065 -0.13728325 0.00040476397
0.270643 -0.067511991 0.0025471041
-0.250453 -0.041662842 0.0099100173
0.072512686 0.097099088 0.005282742
0.27228981 0.097222142 0.0035846196
-0.099304318 0.201243 0.0065269936
-0.020563498 0.20124298 0.0036797896
-0.15560584 0.27109399 0.003127832
0.084339604 -0.30254799 0.01225822
0.090225056 -0.30254799 0.016201172
0.13767245 -0.30254799 0.012544453
0.1459634 -0.30254799 0.010853112
0.24971181 -0.30254799 0.014838304
0.270643 -0.25229108 0.017202411
-0.19203997 -0.198503 0.013499582
0.031503711 -0.19779529 0.017189879
0.097328112 -0.19754747 0.018482186
-0.250453 -0.16635086 0.01864397
-0.285065 -0.15638535 0.013714857
-0.250453 -0.095388889 0.014697333
-0.250453 -0.04654175 0.011104621
0.27715626 0.080638111 0.019127127
-0.042171478 0.096407779 0.014822653
-0.27998996 0.24750267 0.01530478
-0.14244325 0.24854091 0.010490686
-0.24163373 0.30254799 0.010006126
-0.20176834 0.30254799 0.019971997
0.270643 -0.2937071 0.023949146
-0.21183246 -0.1955135 0.029088059
0.006606698 -0.19693844 0.021657858
0.21032444 -0.19724244 0.020072669
-0.285065 -0.11514785 0.025479622
-0.285065 -0.095364191 0.021405607
0.270643 0.020703597 0.028669266
-0.068197787 0.095529005 0.026949564
-0.016660452 0.095598131 0.025995599
-0.16825597 0.20124301 0.02366833
-0.088292718 0.201243 0.026105709
-0.28044629 0.2433428 0.028458834
-0.16438583 0.28613928 0.024893075
-0.1547879 -0.30254799 0.0381753
0.18969566 -0.30254799 0.032882392
0.23695627 -0.30254799 0.038775697
0.26844087 -0.30254799 0.037323304
0.071032725 -0.19387035 0.037656166
-0.250453 -0.049254917 0.036953952
-0.250453 -0.038827173 0.033911459
-0.250453 -0.010511542 0.034818601
0.01410917 0.093812831 0.034368869
0.2301271 0.094257623 0.033087529
0.25461727 0.093812391 0.034370139
-0.285065 0.20019865 0.038203619
-0.25698218 0.201243 0.038540997
-0.17765899 0.201243 0.03322608
-0.019760393 -0.30254799 0.040600933
0.081691541 -0.30254799 0.046367794
0.19195926 -0.30254799 0.041333586
-0.050327286 -0.19321734 0.041061178
0.285065 -0.18526323 0.045024857
0.28435403 -0.17644243 0.041627675
0.270643 0.17729962 0.044651344
0.270643 0.19089451 0.049266003
-0.11511036 0.20170625 0.040156163
0.070582107 0.201243 0.04943905
0.21483582 0.20124301 0.040531058
0.26833302 0.201243 0.044541895
-0.13019437 0.22755255 0.040742509
-0.2811639 0.23680185 0.040984832
-0.1905784 0.30254799 0.047178924
-0.17420834 -0.30254799 0.054713704
-0.16821904 -0.30254799 0.05023583
0.270643 -0.22289793 0.055951808
-0.14692952 -0.18634678 0.058784142
0.0035955869 -0.18920657 0.052883122
-0.285065 0.0061940262 0.052114759
-0.250453 0.001165079 0.055976238
0.270643 0.038011815 0.05249092
-0.13971634 0.086711459 0.054826658
0.270643 0.18451151 0.05788289
-0.25128081 0.201243 0.055441104
0.088765636 0.201243 0.050637648
0.25539526 0.201243 0.059715964
-0.13428 0.23455325 0.056515239
-0.27903822 0.25617751 0.055244543
-0.1250758 -0.30254799 0.063745379
-0.13589349 -0.18250667 0.066707999
0.16469763 -0.18530123 0.060941577
0.21807089 -0.18432471 0.062956572
-0.250453 -0.089922249 0.068184853
-0.285065 0.078269176 0.067129582
0.20288306 0.082899332 0.065808706
-0.285065 0.12324335 0.067653328
0.270643 0.16181248 0.067265734
-0.285065 0.19736052 0.063508146
-0.21932349 0.201243 0.06970761
-0.014369845 0.201243 0.069383942
0.12412384 0.201243 0.066975258
0.17261112 -0.30254799 0.073513791
0.22743458 -0.30254799 0.072230108
-0.065094583 -0.1779356 0.076140143
0.11151596 -0.17903093 0.073880017
-0.285065 0.014680743 0.077177189
-0.250453 0.018775815 0.074400254
-0.11653842 0.075503938 0.077211551
-0.087200619 0.076780848 0.0753287
-0.285065 0.099691063 0.078122362
-0.19308865 0.20124298 0.07026305
0.11178363 0.20124301 0.075436585
-0.285065 -0.30173627 0.086986177
-0.0076705664 -0.30254799 0.085255623
0.18644315 -0.17188278 0.085687585
-0.071261644 -0.16820547 0.089939505
0.270643 0.010832566 0.08943636
-0.250453 0.026988123 0.08002761
0.064124167 0.20124298 0.084904209
-0.10367952 -0.30254799 0.090698086
0.15807544 -0.30254799 0.092760727
-0.23256987 -0.16402973 0.094767734
-0.19414604 -0.1603865 0.098980248
0.048267052 -0.16415974 0.094617426
0.13427302 -0.16184539 0.097293392
-0.250453 -0.078602545 0.099042803
-0.250453 0.0093378406 0.091577157
-0.285065 0.018604605 0.098719612
-0.285065 0.027153285 0.090584271
0.270643 0.11405794 0.099858865
0.270643 0.15282312 0.09582445
0.270643 0.17112826 0.093405589
-0.25465995 0.20124301 0.096159518
-0.24453738 0.201243 0.090806484
-0.064777069 0.201243 0.0916247
-0.054566387 0.201243 0.094559282
0.10293795 0.201243 0.095971979
0.15065008 0.20124298 0.098305568
-0.28402942 0.21068235 0.099768952
-0.26731455 -0.30254799 0.10947744
-0.14177227 -0.30254799 0.10575845
0.049138278 -0.30254799 0.10122361
-0.24457258 -0.15950063 0.10000453
0.14579299 -0.15332676 0.10714312
-0.250453 -0.090197861 0.1055211
-0.250453 -0.030911146 0.10294813
-0.19810976 0.05659502 0.102585
0.0099309608 0.054597616 0.10431252
0.19756241 0.050528992 0.1078314
0.2706112 0.055106826 0.10387212
0.270643 0.067600727 0.10235196
0.270643 0.10676897 0.10956374
0.042934433 0.201243 0.1013009
-0.27754784 0.26976267 0.10973348
-0.13105261 -0.30254799 0.11167037
-0.069953844 -0.30254799 0.11934888
0.19526917 -0.30254799 0.11928635
0.270643 -0.27477556 0.11363512
0.270643 -0.21324596 0.11541606
-0.285065 -0.18402478 0.11998978
-0.21566983 -0.14780621 0.11263138
0.285065 -0.13532732 0.11603062
-0.250453 0.011520039 0.11302418
-0.250453 0.037098385 0.11266318
-0.16006309 0.040115833 0.11683755
-0.059615269 0.04714619 0.11075713
0.00024043955 0.044326667 0.11319567
0.19131836 0.045385055 0.1122803
-0.285065 0.1416907 0.11659092
-0.285065 0.18070923 0.11904922
-0.24171147 0.201243 0.11997131
-0.12459369 0.21795586 0.11997272
-0.20677815 -0.30254799 0.12770778
-0.076292418 -0.30254799 0.12883055
0.16678295 -0.30254799 0.12104943
-0.22249267 -0.13213825 0.12325691
-0.16331203 -0.13363105 0.12224455
0.21762182 -0.1359845 0.12064851
-0.054405279 -0.12897979 0.12539889
-0.016710795 -0.12502146 0.12808329
0.013972282 -0.12543032 0.12780602
0.020827342 -0.12620875 0.12727812
0.099412307 -0.12225448 0.12995978
0.2706601 -0.07762716 0.12972564
-0.013025027 0.019920912 0.1299822
-0.16400845 0.029088577 0.1255395
0.2592974 0.022901243 0.12853792
-0.045985945 0.035509799 0.12082122
0.2296304 0.034258492 0.12190346
0.270643 0.10179561 0.1287834
-0.28474531 0.20415699 0.12605682
-0.031139851 0.201243 0.12274378
-0.17262962 0.30026495 0.12840375
-0.06385418 -0.30254799 0.13945594
0.051471993 -0.30254799 0.13932252
0.23274788 -0.30254799 0.13221176
0.270643 -0.21836779 0.13810056
-0.04899767 -0.11742376 0.13321687
0.2696248 -0.11749179 0.13318966
-0.078574106 -0.10679154 0.13690786
-0.012374148 -0.10713138 0.13678989
0.079391174 -0.10286058 0.13827251
-0.250453 -0.063844591 0.13041905
-0.285065 -0.052750066 0.13696644
-0.250453 0.0076034735 0.13327312
-0.053593606 0.0017818565 0.13877249
0.26596251 0.0057130228 0.13686742
0.2372596 0.016208604 0.13178121
-0.27517912 0.201243 0.13403581
0.10881051 0.20124298 0.13059421
0.17066567 0.201243 0.1334012
-0.27869922 0.25926763 0.1332161
0.18128493 -0.30254799 0.14319845
0.270643 -0.29964 0.14726302
0.23053573 -0.094807729 0.14106807
0.11898183 -0.087985434 0.14343643
0.14040081 -0.082595438 0.14530759
0.1925609 -0.077011317 0.14622444
-0.285065 -0.065235861 0.14453675
-0.1147275 -0.067139499 0.14693961
-0.10837771 -0.069302328 0.1467829
0.067977078 -0.055727433 0.14776634
0.037116013 -0.04038702 0.1484711
0.285065 -0.043219447 0.14567669
-0.285065 -0.029458325 0.14710468
-0.20614082 -0.016089145 0.14381126
-0.21571572 -0.0088231759 0.14241803
-0.13664514 -0.0021047227 0.14065596
-0.096196279 -0.0087620094 0.14240628
0.27659273 -0.0064910846 0.14197092
-0.285065 0.19588727 0.14466408
0.14660001 0.201243 0.14671935
-0.12302651 0.21527052 0.14458971
-0.2795133 0.25184703 0.14359716
-0.27543741 0.28899926 0.14626217
-0.20524402 0.30254799 0.14115956
-0.14608508 -0.30254799 0.15037239
-0.017240085 -0.30254799 0.15465739
0.12424092 -0.30254799 0.15607034
0.270643 -0.26265574 0.15680785
-0.285065 -0.1707329 0.15445326
0.270643 0.059916578 0.15518716
-0.285065 0.16896001 0.15389986
-0.14046785 0.25087836 0.15563184
-0.22383308 0.30254799 0.1568003
-0.19354582 0.30254799 0.15267438
-0.14715652 -0.30254799 0.16934887
0.091482639 -0.30254799 0.16377723
-0.285065 -0.24403717 0.16007867
0.270643 -0.19355604 0.16557765
0.270643 0.12050328 0.16912407
-0.285065 0.15976982 0.16921774
-0.285065 0.19109353 0.16306695
-0.1488612 0.26526028 0.16590776
-0.27542391 -0.30254799 0.17605272
-0.18302104 -0.30254799 0.17272896
0.270643 -0.14202422 0.1796959
0.270643 0.020747591 0.17686874
-0.1168275 0.201243 0.17705792
-0.099893413 0.20124301 0.17470166
0.023729697 0.20124301 0.17376804
-0.113287 -0.30254799 0.18726099
0.13543287 -0.30254799 0.18968609
0.270643 -0.21108787 0.18272614
-0.285065 -0.20257169 0.18542787
0.270643 -0.15585813 0.18805605
0.270643 -0.045236044 0.18235257
-0.285065 0.044798762 0.18476813
-0.1739382 0.201243 0.1865817
-0.10181484 0.201243 0.18011251
0.0021976531 0.201243 0.18182744
0.017704129 0.20124301 0.18525013
-0.16112933 0.28055933 0.18363073
-0.17218134 0.29949686 0.18435423
-0.23299563 -0.30254799 0.19720641
0.270643 -0.23823179 0.19891067
-0.285065 -0.21708061 0.19775662
0.270643 -0.13083155 0.19720255
0.270643 -0.066798881 0.19895118
-0.285065 0.020803899 0.19119853
-0.285065 0.037701286 0.1942426
-0.285065 0.099708311 0.19069384
-0.27666003 0.201243 0.19145986
-0.12785873 0.201243 0.19679391
0.22045486 0.201243 0.19568217
-0.27860662 0.26011145 0.19062345
-0.1535292 0.26753595 0.19530186
0.018475555 -0.30254799 0.20892537
-0.285065 -0.26839682 0.2007681
-0.285065 -0.059134766 0.20129204
-0.285065 -0.038884439 0.20583186
0.270643 0.019116156 0.20716695
-0.20363472 0.201243 0.20612729
-0.032851636 0.201243 0.20487495
0.12248461 0.201243 0.20072883
0.16479267 0.201243 0.20890576
-0.27932668 0.25354809 0.20326307
-0.052145213 -0.30254799 0.21547411
-0.285065 -0.28481376 0.21677661
0.270643 -0.22451353 0.21285942
-0.285065 0.085100204 0.21623987
-0.20208612 0.201243 0.21550953
-0.16111335 0.20124298 0.21890341
-0.1299606 0.20124298 0.21861342
0.2384859 0.201243 0.21940334
-0.28253314 0.22432092 0.21603003
-0.27992198 0.2481221 0.2158893
-0.22469586 -0.30254799 0.22116438
0.0028082132 -0.30254799 0.2232186
0.15007946 -0.30254799 0.22720458
0.26641071 -0.30254799 0.22575638
-0.285065 -0.2501857 0.22153001
-0.285065 0.036664449 0.22508432
0.270643 0.049323302 0.22236943
-0.285065 0.052957244 0.22081555
-0.13391007 0.201243 0.22177342
0.13787982 0.20124298 0.22470197
-0.16637023 0.28953958 0.2206852
-0.11601637 -0.30254799 0.23873517
-0.090973586 -0.30254799 0.23090427
0.15691221 -0.30254799 0.23866209
0.2616629 -0.30254799 0.23397934
-0.285065 -0.28961343 0.23527308
-0.285065 -0.11114376 0.23355471
0.270643 0.0093432814 0.23838878
-0.285065 0.14836451 0.23979178
-0.22576109 0.20124298 0.23126534
-0.0077129304 0.20124298 0.23863025
0.052244518 0.20124298 0.23340374
0.074281022 -0.30254799 0.24644372
-0.285065 -0.29252863 0.24056135
0.270643 -0.17604262 0.24558869
-0.285065 -0.16142212 0.24528168
0.270643 -0.087854214 0.24201047
0.270643 -0.045950808 0.24290563
-0.285065 0.019020438 0.24860063
-0.285065 0.14421357 0.2466041
0.270643 0.18805288 0.24243367
-0.14028677 0.20124298 0.24602073
0.024529897 0.201243 0.24070501
0.091523245 0.20124301 0.24329162
0.12820421 0.201243 0.24811354
0.15685384 0.201243 0.24648212
-0.12193866 0.21340638 0.24460149
-0.13743603 0.24568278 0.24468938
-0.18710159 -0.30254799 0.2593469
0.25318483 -0.30254799 0.25550494
-0.285065 -0.2910541 0.25318566
0.270643 -0.10633561 0.25013745
-0.285065 -0.090336867 0.2598857
0.270643 0.14184248 0.25817657
-0.25377229 0.201243 0.25736952
-0.27490413 0.29386011 0.25765836
-0.2739923 0.30217168 0.2544333
-0.25122491 -0.30254799 0.26774007
-0.16703446 -0.30254799 0.26156363
-0.070270546 -0.30254799 0.26119664
0.016891839 -0.30254799 0.26165101
0.039759986 -0.30254799 0.26608214
0.20480946 -0.30254799 0.26003644
0.270643 -0.25279054 0.26593265
0.270643 -0.045945682 0.26158655
-0.26925704 0.201243 0.26551512
-0.18900235 0.20124301 0.26076013
0.063225821 0.201243 0.26378313
0.24526691 0.201243 0.26049858
-0.13451137 0.23494995 0.26511848
-0.26791158 -0.30254799 0.27559176
-0.091368094 -0.30254799 0.27181777
-0.048181556 -0.30254799 0.27635112
0.04702805 -0.30254799 0.27719393
-0.22045219 -0.29375929 0.277854
-0.21561575 -0.2956948 0.277854
-0.023981854 -0.29390496 0.27785403
-0.077520981 -0.28640154 0.277854
-0.061642185 -0.28895915 0.277854
-0.16997847 -0.2743853 0.277854
-0.23461156 -0.26203418 0.277854
-0.16329381 -0.25341243 0.277854
-0.10552907 -0.25086367 0.277854
0.13375741 -0.25248644 0.277854
0.16171357 -0.25453684 0.277854
-0.18107545 -0.24221721 0.277854
0.19629039 -0.24837337 0.277854
-0.23621409 -0.23598561 0.277854
-0.18898466 -0.23563911 0.277854
0.11062019 -0.23032348 0.277854
-0.25842163 -0.22027048 0.277854
-0.25738448 -0.21047646 0.277854
-0.20186482 -0.21148425 0.277854
0.08121895 -0.21482274 0.277854
0.122959 -0.21012327 0.277854
0.25082901 -0.21366367 0.277854
0.13544437 -0.20979327 0.277854
0.16617331 -0.2066372 0.277854
0.2132916 -0.20660326 0.277854
-0.25772533 -0.18047974 0.277854
-0.20199703 -0.18765643 0.277854
0.074538492 -0.18996705 0.277854
-0.25021631 -0.17030051 0.277854
-0.24298136 -0.1754635 0.277854
-0.036106974 -0.17707956 0.277854
-0.25192213 -0.1672606 0.277854
-0.18734854 -0.16470003 0.277854
-0.045319833 -0.16195723 0.277854
0.14039785 -0.16538289 0.277854
0.24486643 -0.16838534 0.277854
-0.093938425 -0.15538277 0.277854
-0.073408075 -0.15841462 0.277854
0.00827948 -0.1526639 0.277854
0.10699649 -0.14738986 0.277854
0.0098911449 -0.1281445 0.277854
0.270643 -0.12814985 0.27163434
-0.16935335 -0.10927274 0.277854
0.10505373 -0.10844401 0.277854
-0.14999545 -0.090341344 0.277854
-0.0084409192 -0.079266295 0.277854
0.061136976 -0.079549409 0.277854
0.082586095 -0.077779479 0.277854
0.11339248 -0.076123081 0.277854
-0.058726162 -0.060362685 0.277854
0.18968779 -0.061043162 0.277854
-0.285065 -0.04434146 0.27291092
0.051838905 -0.042425454 0.27785397
-0.006814599 -0.036852844 0.277854
0.06001395 -0.033038735 0.277854
0.15170425 -0.024281677 0.277854
0.1990447 -0.024059232 0.277854
-0.28150332 -0.016377702 0.277854
-0.19295004 -0.010842077 0.277854
0.062345196 -0.00324893 0.27785397
0.25057471 -0.0022549415 0.277854
-0.1730406 0.00086193532 0.277854
-0.23892313 0.012741912 0.277854
0.270643 0.014000595 0.27398384
-0.20662874 0.02444437 0.277854
-0.18288912 0.025040552 0.277854
-0.039652906 0.024242152 0.277854
0.19265899 0.028244302 0.277854
-0.20637439 0.042901419 0.277854
-0.18978494 0.069094606 0.277854
-0.11830318 0.060468368 0.277854
-0.096118689 0.066445082 0.277854
-0.00055696629 0.06550695 0.277854
0.22199187 0.067992888 0.277854
-0.036326744 0.071074791 0.277854
0.13039631 0.077680551 0.277854
-0.25188762 0.081445351 0.277854
-0.11982007 0.10535109 0.277854
-0.035581656 0.10689983 0.277854
0.10661581 0.10409314 0.277854
0.17677674 0.10765972 0.277854
-0.24368981 0.11262127 0.277854
-0.072376497 0.12834457 0.277854
0.17310132 0.1260677 0.277854
-0.13577083 0.13600615 0.277854
-0.12678358 0.13464934 0.277854
0.05018089 0.13042521 0.277854
-0.081001408 0.14448822 0.277854
0.0804106 0.14456947 0.277854
0.12731999 0.14028125 0.277854
-0.18897912 0.15467417 0.277854
-0.095100939 0.15185742 0.27785397
0.16409367 0.15577553 0.277854
0.18876311 0.1557502 0.277854
0.20265132 0.16311301 0.277854
-0.065263033 0.17112654 0.277854
0.22520331 0.1722247 0.277854
0.17523907 0.1833912 0.277854
0.011664525 0.19510771 0.277854
0.13006784 0.19148284 0.277854
-0.26111168 0.20074409 0.277854
-0.14867464 0.20124301 0.27169371
-0.068758868 0.201243 0.27648029
-0.01325389 0.20124298 0.27163413
-0.28363678 0.21426132 0.27063864
-0.14341447 0.25020492 0.27367705
-0.26626468 0.2621755 0.277854
-0.17071304 0.27265304 0.277854
-0.16400526 0.28548709 0.27353263
-0.23263013 0.29383665 0.277854
