# .PCD v0.7 - Point Cloud Data file format
VERSION 0.7
FIELDS x y z
SIZE 4 4 4
TYPE F F F
COUNT 1 1 1
WIDTH 886
HEIGHT 1
VIEWPOINT 0 0 0 1 0 0 0
POINTS 886
DATA ascii
0.10971338 -0.055307694 -0.1807282
0.13008346 -0.056358501 -0.18056241
0.093759641 -0.044343129 -0.18213782
0.13178141 -0.044429302 -0.18397723
0.096925005 -0.03458919 -0.18447736
0.11873475 -0.033268653 -0.18722752
0.13175103 -0.020422263 -0.18736073
0.14608288 -0.02182745 -0.18550129
0.16539744 -0.011284936 -0.18059024
0.078240916 -0.0074336966 -0.18193576
0.096200973 -0.0081353206 -0.18699653
0.097288013 0.0044468003 -0.18703561
0.10766669 0.0073661339 -0.18799411
0.10391248 0.013057239 -0.18698266
0.14805934 0.012107389 -0.18576711
0.15051946 0.019719843 -0.18472174
0.11604318 0.025114015 -0.18725264
0.112261 0.034003295 -0.18592301
0.15727614 0.035236105 -0.18058731
0.11304289 0.042172119 -0.18371373
0.12402857 -0.080770127 -0.17259757
0.10548581 -0.077507101 -0.17295393
0.14624108 -0.079249077 -0.17074251
0.085010365 -0.065709196 -0.17288023
0.10363123 -0.068803445 -0.17590356
0.16041136 -0.066350408 -0.17106774
0.078267738 -0.055482611 -0.17361236
0.15795262 -0.055281293 -0.17546916
0.1594851 -0.039284147 -0.17990896
0.18111897 -0.034314543 -0.17190877
0.18258557 0.0064902091 -0.17353292
0.062705308 0.017430758 -0.17469183
0.057443649 0.022119638 -0.17111896
0.091829777 0.055588558 -0.17709532
0.10416573 0.054194257 -0.17900036
0.11390913 0.059744924 -0.17848688
0.083223023 0.06487003 -0.17102864
0.13533458 0.07526277 -0.17171767
0.0752507 -0.084342569 -0.16119514
0.12671918 -0.087693192 -0.1685739
0.13953453 -0.083695672 -0.16917129
0.049629107 0.012181449 -0.16712999
0.19454792 0.016372671 -0.16463733
0.047739908 0.027764481 -0.16416651
0.19429153 0.025108142 -0.16383338
0.19483787 0.037461422 -0.161502
0.055751674 0.041814014 -0.16621885
0.060514133 0.041842289 -0.16931345
0.05833748 0.056395285 -0.1629135
0.074321024 0.059662808 -0.16937864
0.063390218 0.063717619 -0.16370082
0.080148369 0.078223012 -0.16384429
0.15276158 0.079196915 -0.16632064
0.087695159 0.085673556 -0.16249409
0.12819991 0.081250235 -0.16937423
0.097872421 0.091853723 -0.16190517
0.11392973 0.09117049 -0.16419928
0.08442463 -0.10710546 -0.15193495
0.13973302 -0.10284236 -0.15891317
0.074330628 -0.098845273 -0.15279281
0.16555879 -0.098299563 -0.15353227
0.17471731 -0.090331286 -0.15415372
0.057185844 -0.084132776 -0.15191877
0.18601625 -0.084692165 -0.15019032
0.048424248 -0.077210695 -0.15038271
0.057898805 -0.075926051 -0.15709136
0.063124545 -0.079626754 -0.15850765
0.18670458 -0.07670486 -0.1544345
0.19423184 -0.072515383 -0.15147789
0.047021911 -0.064382538 -0.15438274
0.19762498 -0.047405094 -0.15786088
0.037488423 -0.032206856 -0.1575035
0.20865732 -0.038987171 -0.15239868
0.20331284 -0.01955078 -0.15908417
0.20785795 -0.0052800695 -0.15747446
0.21222651 -0.0076558422 -0.15280111
0.02722664 0.0024645426 -0.15125751
0.21151333 0.0032225442 -0.15349212
0.03539744 0.030591063 -0.15580739
0.21032126 0.035576142 -0.15039115
0.19661149 0.049940817 -0.15607452
0.049727477 0.065573767 -0.15415965
0.19191729 0.071296081 -0.15164147
0.055870954 0.081236348 -0.15002638
0.079027981 0.090886123 -0.15639043
0.099643163 0.098172493 -0.15874036
0.15869914 0.099262431 -0.15297012
0.098927133 0.10082212 -0.15723808
0.11145273 0.10158633 -0.15833431
0.15497278 0.10292231 -0.15231401
0.12081391 -0.12088133 -0.14788875
0.15904075 -0.11306117 -0.14627251
0.054530535 -0.095679797 -0.14322329
0.1971049 -0.07956367 -0.14605558
0.033071816 -0.061921731 -0.14423132
0.032869063 -0.050179161 -0.14861421
0.026037551 -0.046151187 -0.14335033
0.21704274 -0.021911588 -0.14617318
0.021311495 -0.0085038235 -0.14515665
0.21717158 0.02783452 -0.14470771
0.022359062 0.035603918 -0.14198637
0.18786809 0.078658804 -0.14984
0.19445699 0.07595636 -0.1471751
0.042132135 0.080494672 -0.14129727
0.053880408 0.080040723 -0.14945003
0.1599654 0.10442435 -0.14936465
0.098570049 0.11435013 -0.1468666
0.10591267 0.11334615 -0.14857259
0.11145206 0.11564698 -0.14734982
0.13593414 0.11714637 -0.14536037
0.14444245 0.11736394 -0.14406329
0.16582432 0.1124558 -0.14034289
0.1156785 0.12121469 -0.14328803
0.12519336 0.12175129 -0.14287123
0.13094807 -0.13366236 -0.13619064
0.15142535 -0.13272315 -0.13230884
0.080609351 -0.12866719 -0.13242872
0.19368258 -0.10387344 -0.13362378
0.19437611 -0.09348961 -0.1394348
0.034513518 -0.081415214 -0.1362133
0.015090142 -0.033818591 -0.13572034
0.014363077 -0.020262357 -0.13671157
0.22859488 -0.026920564 -0.1339764
0.23227522 -0.016176309 -0.13064851
0.012692429 -0.00047150871 -0.13708362
0.0078189066 0.00065352838 -0.13088644
0.23027574 0.011670585 -0.13360307
0.22481541 0.03941182 -0.13438839
0.019672051 0.04440783 -0.13585897
0.22053769 0.051577412 -0.13391796
0.027394304 0.060156845 -0.13743685
0.20320879 0.077293389 -0.1392238
0.036840916 0.08562924 -0.13246851
0.19680604 0.093686685 -0.13435079
0.15517138 0.12166017 -0.13642788
0.096317455 0.13038832 -0.13283339
0.092483506 -0.14342651 -0.12156765
0.064046323 -0.12582879 -0.12552804
0.037163112 -0.10806973 -0.12052315
0.20712629 -0.092822917 -0.1277909
0.015389835 -0.069828741 -0.12240446
0.23016852 -0.040387183 -0.12974381
0.0041530984 -0.015318207 -0.12388629
0.23885047 -0.015236027 -0.12102331
0.0019623623 -0.0038631924 -0.12240102
0.0086814407 0.017806627 -0.1295179
0.23401415 0.011419034 -0.12808678
0.22963884 0.046563782 -0.12539613
0.022944281 0.068833709 -0.12959468
0.21839166 0.071704969 -0.12787405
0.037661113 0.10166207 -0.12225653
0.051103316 0.11366805 -0.12371072
0.075269133 0.12766965 -0.12686634
0.17071629 0.12252104 -0.12842944
0.14355145 0.13600272 -0.12699156
0.15586248 0.13706866 -0.12108675
0.1210411 0.1401391 -0.12519737
0.14985986 -0.14541122 -0.118581
0.16936268 -0.13726233 -0.11981681
0.185891 -0.12587051 -0.11970864
0.037911683 -0.11037515 -0.11886165
0.01974228 -0.084755689 -0.11830532
0.23241307 -0.056929179 -0.11853577
0.23751637 -0.049809407 -0.11434095
0.24295655 -0.038660765 -0.11130292
0.0014782106 -0.026255367 -0.1182218
-0.0035142649 -0.019812295 -0.11179899
0.24059269 -0.016028617 -0.11831203
0.24126701 0.0045960224 -0.11836348
0.00071163196 0.032921512 -0.11534005
0.23581097 0.054757085 -0.11232625
0.23279297 0.060509309 -0.11407309
0.22447152 0.079164743 -0.11445095
0.21907108 0.08605931 -0.11669448
0.21851197 0.094768047 -0.11022313
0.041178945 0.11500254 -0.11236846
0.19322251 0.11611841 -0.11786133
0.046078332 0.1201672 -0.11181498
0.074671961 0.13871422 -0.11341092
0.16769399 0.13388996 -0.11919856
0.15529954 0.14113215 -0.11614564
0.12488499 0.15190683 -0.11039686
0.14359967 -0.16122265 -0.1005021
0.13416225 -0.1565277 -0.10927275
0.15850599 -0.15636548 -0.10062585
0.16630352 -0.15247387 -0.10089459
0.17487396 -0.14298095 -0.10836116
0.18015949 -0.14122093 -0.10712729
0.04834 -0.13355219 -0.10481052
0.18724436 -0.13582842 -0.10789376
0.039045025 -0.12692267 -0.10251272
0.23080729 -0.078205124 -0.10970965
0.0018796728 -0.064581916 -0.10482697
0.00024533644 -0.05154188 -0.10860363
0.23841991 -0.059597932 -0.10834038
0.24454792 -0.047517698 -0.10498331
-0.0069873054 -0.031838983 -0.10478014
0.24669331 -0.019651782 -0.10868698
-0.0078904284 0.002473047 -0.10726289
-0.0067819399 0.034021296 -0.10403524
0.24500518 0.035580598 -0.10778907
0.0053044469 0.073172607 -0.10269701
0.017572811 0.095470712 -0.10222998
0.021976251 0.094068155 -0.10994894
0.21569164 0.1019783 -0.10836816
0.20698871 0.1145934 -0.10530321
0.056232046 0.13157164 -0.10992735
0.07811705 0.14905006 -0.10144469
0.10597251 0.15780516 -0.10085899
0.082051173 -0.16103601 -0.093620077
0.048596717 -0.14080982 -0.095450722
0.17677972 -0.14970036 -0.097207919
0.18478173 -0.14499415 -0.096582651
0.04262929 -0.13368897 -0.098950937
0.017068312 -0.10303913 -0.099002227
0.22516137 -0.1021013 -0.098062113
0.0074146697 -0.093883395 -0.092334948
0.012843329 -0.098496154 -0.096533559
-0.0097538326 -0.033956774 -0.098330341
-0.013224273 -0.026078042 -0.092051014
0.25219977 -0.026960801 -0.096641764
-0.012927542 -0.014101614 -0.095218338
-0.0095217647 0.028786918 -0.098975509
-0.0063011055 0.046601336 -0.097539842
0.2490384 0.049712181 -0.091739506
-0.0058349753 0.052324075 -0.094938569
0.24581501 0.055488493 -0.09539476
0.23144409 0.089609414 -0.095333114
0.22815582 0.092927694 -0.097436547
0.21762545 0.11222994 -0.09299168
0.20143227 0.1293557 -0.095006503
0.071439967 0.14816333 -0.098311841
0.072203144 0.15253225 -0.092802018
0.083924159 0.15306915 -0.099703528
0.1466651 0.15653935 -0.099505022
0.10804485 0.16205117 -0.093164518
0.064802796 -0.15633613 -0.087312676
0.018849902 -0.11651503 -0.086589761
0.023343455 -0.11964436 -0.089238025
0.23663829 -0.095053464 -0.084260523
0.00076341984 -0.089595832 -0.082054801
-0.0037521578 -0.075878859 -0.086631134
0.25216508 -0.052357204 -0.085867152
-0.017797142 -0.013726505 -0.084186658
0.25675184 -0.0099685891 -0.089789502
-0.015239137 0.0093737822 -0.089968458
0.25571442 0.01923307 -0.089270592
-0.015443598 0.0340438 -0.084372088
-0.010713953 0.043244798 -0.089621663
0.016959423 0.10753509 -0.089402735
0.21731785 0.11641821 -0.088056758
0.03189414 0.12433068 -0.089971498
0.044833597 0.14054701 -0.083231658
0.074330837 0.15949526 -0.081789419
0.16281931 0.15749216 -0.088884808
0.17439687 0.15533566 -0.083067656
0.086603075 0.16059053 -0.087789185
0.10544395 0.16729932 -0.082655177
0.13766459 0.16579194 -0.084832996
0.071571112 -0.16576293 -0.075041629
0.016963881 -0.12220484 -0.073720276
0.21701914 -0.12971164 -0.076877832
-0.0017198492 -0.095221087 -0.070041746
0.24280268 -0.092066295 -0.073567539
0.25046545 -0.070564032 -0.078084521
0.26132444 -0.042932555 -0.070937552
-0.02141165 -0.010955187 -0.076516658
-0.021326337 0.0025319674 -0.077503592
-0.019975714 0.017095983 -0.077556506
-0.016367344 0.051461406 -0.071462348
-0.010861057 0.062832825 -0.076742649
0.0030189927 0.094539672 -0.076417238
0.0045063449 0.10093085 -0.072598241
0.22402346 0.1184091 -0.072487615
0.034403637 0.13804977 -0.07250724
0.065246202 0.15748502 -0.077539325
0.17833132 0.15544069 -0.079413347
0.10803545 0.16955109 -0.079132676
0.15473038 0.16517061 -0.077947609
0.16189319 0.16450907 -0.074561566
0.11188798 0.1711126 -0.076674208
0.10780034 -0.18028872 -0.064276889
0.076520145 -0.17357451 -0.061179496
0.054573629 -0.16234612 -0.06316331
0.060748838 -0.16523403 -0.063863322
0.044049431 -0.15337205 -0.066369116
0.024010025 -0.13515726 -0.066400334
0.23511161 -0.11336589 -0.06392166
0.23957874 -0.10657581 -0.064550661
-0.0058898218 -0.094322205 -0.060097601
0.24545981 -0.095169365 -0.064004324
0.25081265 -0.081694223 -0.066997312
-0.013840152 -0.075031318 -0.063331127
0.26312685 -0.045398656 -0.061126426
0.26316091 -0.038176402 -0.067592762
0.26346567 -0.029686257 -0.069234528
0.26445705 -0.017567938 -0.069341101
0.26680961 0.0092615243 -0.061130226
0.26523191 0.011757808 -0.06663014
-0.021643084 0.039740123 -0.063884556
-0.019974213 0.043960251 -0.066205062
-0.014815453 0.061174713 -0.068782911
0.25673014 0.060661044 -0.066171691
0.25552762 0.070560463 -0.06071078
0.24677137 0.086696118 -0.064814188
-6.2553561e-05 0.098674275 -0.064720735
0.0027602967 0.099804811 -0.069885328
0.23354894 0.10757366 -0.069529496
0.24119103 0.10070069 -0.062296644
0.038812209 0.14571764 -0.06364432
0.041032866 0.1482299 -0.06224791
0.18057957 0.15957975 -0.066533364
0.16536862 0.16693237 -0.065246835
0.17358564 0.16522276 -0.060365245
0.10641798 0.17664775 -0.060435813
0.11255132 0.17607273 -0.064071417
0.14585283 0.17476915 -0.061728142
0.089885712 -0.18020958 -0.055066165
0.12194517 -0.18232869 -0.059442647
0.064257577 -0.17148399 -0.050733726
0.073462978 -0.17482822 -0.053974014
0.16154903 -0.17828056 -0.052846164
0.058841377 -0.16836174 -0.051849224
0.17977443 -0.16861227 -0.054758411
0.25935414 -0.066620059 -0.054222893
0.26629499 -0.041254237 -0.052700341
-0.026267311 -0.02527209 -0.055167668
0.26649424 -0.028853087 -0.057340447
0.26817575 -0.0026471072 -0.059429564
-0.02657125 0.01093409 -0.057229809
-0.026272519 0.023815835 -0.054080755
-0.014046866 0.072702534 -0.058471289
0.0014988801 0.10766605 -0.052831206
0.23667954 0.10998891 -0.057913199
0.24020585 0.10689528 -0.052441962
0.23443286 0.11337174 -0.057426769
0.02797642 0.13870667 -0.056957837
0.22161883 0.13312326 -0.051865987
0.027221341 0.14018399 -0.051434696
0.043913499 0.1553684 -0.050456397
0.18919207 0.15964797 -0.05270277
0.069015548 0.16683942 -0.057898417
0.10988191 0.17893915 -0.053861491
0.16383471 0.17116225 -0.056594949
0.10662739 -0.18627161 -0.043333434
0.1227179 -0.18691 -0.044248395
0.048040584 -0.16501877 -0.04095839
0.033653367 -0.15284577 -0.045404155
0.20541307 -0.15562384 -0.04279352
0.21213955 -0.14708793 -0.049436085
0.015683599 -0.13359305 -0.049885701
-0.0015688082 -0.11142971 -0.042888861
-0.0082676169 -0.097727865 -0.044297643
0.2573953 -0.080393314 -0.043663345
-0.030172372 0.0011109117 -0.046070106
0.27181947 0.0080228122 -0.041408077
0.26910543 0.029885996 -0.044935893
-0.022848971 0.052462503 -0.045806441
-0.0054369797 0.096636124 -0.049223851
0.2414577 0.10766156 -0.045253411
0.21925141 0.13636512 -0.048343655
0.22194043 0.13364694 -0.048888687
0.039110377 0.15459444 -0.041489191
0.18811147 0.16238585 -0.044354808
0.10026087 0.17881115 -0.0499807
0.13418174 0.1799062 -0.049438197
0.15812804 0.17602517 -0.046300292
0.12630445 0.18289502 -0.041846789
0.13843758 0.18112998 -0.042899173
0.077206939 -0.18110362 -0.035039552
0.15750752 -0.18292643 -0.035484739
0.20167693 -0.16023101 -0.038567003
0.034141794 -0.15532182 -0.037972655
0.21530433 -0.1470958 -0.038656615
0.0070167044 -0.12706441 -0.033414524
0.0017991855 -0.11812423 -0.037593182
0.23976751 -0.11764793 -0.036928456
0.24205682 -0.1145012 -0.036578983
0.25163463 -0.096760169 -0.036829319
0.26754132 -0.050015137 -0.038578603
-0.02740767 -0.049132243 -0.035455883
-0.031869013 -0.017225733 -0.032222763
0.27124408 0.029396422 -0.036398318
0.26804629 0.043734275 -0.038282998
-0.016827138 0.078401029 -0.03685075
0.25812274 0.078519061 -0.035720412
0.26026487 0.074079446 -0.035244662
0.23670986 0.11869714 -0.033291608
0.24235407 0.11085107 -0.032676179
0.22827369 0.13089523 -0.032885756
0.023632664 0.14152746 -0.034080133
0.044629633 0.15964198 -0.034855455
0.20193169 0.15673646 -0.031406447
0.18947725 0.16415282 -0.033908237
0.19093579 0.16340739 -0.032825522
0.07455758 0.17524189 -0.03757352
0.10088325 0.18341736 -0.03288357
0.11188587 0.18414825 -0.03674417
0.12547919 0.18487938 -0.032797545
0.089101776 -0.18714657 -0.020611174
0.10737338 -0.18967012 -0.027272314
0.050475854 -0.17000809 -0.02145547
0.173125 -0.17935787 -0.026524708
0.047100417 -0.16712837 -0.026356839
0.21540695 -0.15060352 -0.02359055
0.020153178 -0.14521672 -0.02317271
0.22665571 -0.13922593 -0.025901584
-0.015353157 -0.090743341 -0.020079644
0.25576401 -0.091534384 -0.023926841
-0.017434696 -0.084248111 -0.02955745
-0.020990366 -0.076418981 -0.02802258
0.27366564 0.01057147 -0.025243239
-0.025098607 0.056633428 -0.026735622
0.26713562 0.053248689 -0.025163319
0.24868046 0.10265315 -0.026252218
-0.0011662537 0.11284927 -0.023638712
0.23791337 0.11944345 -0.022197187
0.20225841 0.15756889 -0.024753595
0.18581465 0.16765963 -0.026139874
0.17228337 0.17487741 -0.027543906
0.10706709 -0.19069013 -0.013580782
0.11456257 -0.19142798 -0.011816919
0.085215971 -0.18651754 -0.015052146
0.051161509 -0.17089115 -0.018547982
0.19117174 -0.17050456 -0.013593435
0.20616947 -0.16037275 -0.018229468
0.031728864 -0.15748179 -0.014755658
0.017347481 -0.1429919 -0.015959132
0.24576686 -0.11265162 -0.019985408
-0.008898532 -0.10696014 -0.011987402
0.25423771 -0.096044205 -0.01834859
-0.022614127 -0.074735701 -0.015952034
-0.032527782 -0.026471734 -0.014820678
0.27317411 -0.027568346 -0.018945983
-0.033241961 -0.019722449 -0.01272834
0.27505726 -0.011459319 -0.011741614
0.27484047 0.0033204891 -0.017950252
-0.027050592 0.052627083 -0.014906554
-0.02450452 0.061311334 -0.019684419
-0.021770975 0.073133469 -0.01115449
0.26262024 0.073660806 -0.01100295
0.2533454 0.093307205 -0.019212838
0.24999863 0.10222235 -0.012265425
0.0022520071 0.11875475 -0.01675465
0.24410357 0.11052515 -0.019861629
0.0061859172 0.12529181 -0.010992856
0.23778233 0.12081032 -0.012428645
0.23085834 0.1308431 -0.014563463
0.035080332 0.15623282 -0.013634194
0.044391476 0.16219124 -0.015741281
0.054652937 0.16847479 -0.018498693
0.070186436 0.17625107 -0.018530421
0.090301767 0.18306206 -0.019672178
0.10801337 -0.19121534 -0.0047947848
0.12504451 -0.19190848 -0.0071271206
0.14470166 -0.1898753 -0.0021880628
0.18401955 -0.17575085 -0.0024929042
0.19165242 -0.17073348 -0.0032992209
0.044209532 -0.16710573 -0.0077547226
0.19482246 -0.16873655 -0.001985827
0.028465457 -0.15533273 -0.00093778572
0.016839812 -0.14358518 -0.0023336215
0.23135135 -0.13588573 -0.0048778686
0.25250745 -0.10255097 -0.0044538276
-0.022022482 -0.07789506 -0.0072329598
0.26641679 -0.068880126 -0.00013033269
0.27239335 0.037942775 -0.0072042779
0.26626226 0.063701533 -0.0037848996
-0.014611853 0.090385787 -0.0061641997
0.0045635276 0.12395511 -0.0020432421
0.025292907 0.14723532 -0.0047653029
0.028221808 0.15047012 -0.0010091611
0.031496264 0.15375972 -0.00085350696
0.20805117 0.15511952 -0.002864175
0.10685878 0.18653306 -0.0010882666
0.13124606 0.18687679 -0.002343752
0.1193472 -0.19265181 0.00035294335
0.17408511 -0.18048438 0.0039372724
0.18792872 -0.17287661 0.008691838
0.19170782 -0.17050618 0.0069315899
0.035992082 -0.16202718 0.00248194
0.0018257196 -0.12449283 0.0021019566
-0.0024567 -0.11808001 0.0025134461
-0.015598637 -0.092760623 0.0060927263
-0.021943592 -0.078041844 0.0074132737
0.2669898 -0.066115811 0.001549107
-0.031459652 -0.041759625 0.007994663
-0.033475526 -0.021058407 0.0085014757
-0.034312818 -0.010791851 0.0084023643
-0.033041447 0.026269915 0.0040497738
-0.027718615 0.0539045 0.0027013784
-0.025636483 0.062142454 0.0031095711
0.26163322 0.076860204 0.0058608381
-0.0062020193 0.10752299 0.0056688818
0.23475385 0.1266419 0.0013335128
0.011818975 0.13398181 0.0019081767
0.027824804 0.14935222 0.0099239852
0.045617972 0.16346571 0.0067190388
0.056333471 0.17058218 0.0042173755
0.16296658 0.17983076 0.0091047343
0.15638162 0.18237358 0.0055281445
0.069875397 -0.18132749 0.011536687
0.1596368 -0.18538603 0.012624542
0.00061177032 -0.12084553 0.017462319
0.25391993 -0.097393848 0.014954325
-0.020611323 -0.08047685 0.010693683
-0.028809423 -0.051760148 0.010007886
-0.02985948 -0.046673063 0.012674164
0.27245048 -0.041207779 0.010650062
0.27390432 -0.022387806 0.015084571
-0.032539692 0.021964611 0.014566846
0.27335668 0.02604669 0.013593572
-0.028972559 0.043336682 0.019721968
0.27043435 0.043788746 0.013455301
0.25744179 0.084278241 0.017498303
-0.0099568628 0.098780744 0.018239096
0.24160317 0.11459273 0.01692714
0.21754915 0.14463475 0.014972189
0.2215215 0.14075178 0.013830366
0.20660882 0.15556535 0.015196386
0.18977788 0.16674578 0.014636387
0.076795787 0.17930807 0.010433266
0.13210285 0.18635486 0.011977582
0.15379111 0.18266517 0.014744823
0.17838752 -0.17737135 0.02328838
0.043413199 -0.16529858 0.023270095
0.19514316 -0.16621874 0.027463872
0.014986405 -0.14013717 0.022043666
0.010027891 -0.13397509 0.024646962
0.0027384053 -0.12299792 0.025858698
0.25567335 -0.092234746 0.021245059
0.26372746 -0.070065938 0.02977604
-0.031991728 -0.024322992 0.023607042
-0.032437857 -0.018820105 0.023586409
0.27354372 0.0090395194 0.028285131
-0.02785171 0.046969905 0.022409815
-0.026918603 0.050267123 0.023808129
0.26281154 0.069657937 0.028166788
0.25190598 0.09616866 0.021507952
0.24093392 0.11489104 0.022729274
0.012906227 0.13348685 0.021493288
0.22710758 0.13320072 0.0299842
0.2179026 0.14362665 0.023069961
0.044086896 0.16102399 0.023809593
0.19805427 0.16008733 0.025501527
0.074283242 0.17718266 0.024044394
0.10322762 0.18504994 0.023675323
0.1441732 0.184535 0.023029622
0.080470443 -0.18183038 0.036559857
0.12127743 -0.18932712 0.035163287
0.068389818 -0.1789587 0.03033616
0.17164464 -0.17932746 0.030128434
0.048031092 -0.16589116 0.037490964
0.034091558 -0.15573588 0.036041077
0.21794699 -0.14536223 0.035275593
0.25128347 -0.097186431 0.037459381
0.26284853 -0.072094001 0.034412216
-0.025448818 -0.055005118 0.037507717
-0.029927511 0.034536056 0.034336172
-0.022946781 0.063211463 0.033118855
-0.01115405 0.092286795 0.034211062
-0.005353739 0.10516944 0.032307673
0.2243654 0.13355829 0.039512273
0.043112669 0.15805574 0.03893071
0.18913257 0.16486138 0.030748591
0.19432542 0.16160865 0.030735079
0.10156213 0.18414187 0.030487876
0.14619471 0.18078534 0.038039658
0.15117104 0.18005399 0.03590247
0.069851413 -0.17568916 0.046703659
0.1751909 -0.17275605 0.049407303
0.1848871 -0.16743411 0.049990483
0.041753016 -0.15999787 0.045484945
0.20787817 -0.15135166 0.048190124
0.021194218 -0.14046063 0.048003342
-0.0082981577 -0.097035192 0.045443371
0.26784861 -0.045426164 0.042115889
0.27010253 -0.027617296 0.043251354
0.27121228 -0.0031955298 0.047036648
0.26724869 0.037414081 0.048061848
-0.024157479 0.044066139 0.049277429
0.26592636 0.043864463 0.046669364
-0.013105033 0.082051165 0.045125455
0.25155064 0.090301797 0.040548671
0.2409471 0.10905769 0.04337674
0.0082640946 0.11907385 0.047931097
0.23601393 0.11637229 0.042627767
0.18064404 0.16724916 0.042183623
0.089842469 0.17776126 0.04583912
0.10340275 0.17965405 0.0488929
0.16672713 0.17369884 0.045652308
0.10130168 0.18033355 0.044995587
0.12110998 0.18063504 0.049920697
0.12600504 -0.18464707 0.051312543
0.13031551 -0.18298785 0.056116395
0.074233912 -0.17671013 0.050219554
0.083876625 -0.17863148 0.055749118
0.16362964 -0.17568594 0.057012931
0.19882728 -0.1550139 0.059418537
0.022958731 -0.14140061 0.050446671
0.23291692 -0.11920848 0.058805183
-0.015748829 -0.072677694 0.058124829
-0.022495262 -0.047832157 0.056841169
0.26973146 -0.0055021448 0.052210901
-0.026689239 0.022602214 0.052815206
-0.020456051 0.048232459 0.059824962
-0.012262777 0.077180974 0.057436686
0.25572786 0.071539499 0.058137003
-0.0040844372 0.094990745 0.057676323
0.2238166 0.12763967 0.056966834
0.039702773 0.15166554 0.050375137
0.1948723 0.15420823 0.058647592
0.17391691 0.16537982 0.059411943
0.12567885 -0.18168965 0.061100386
0.12596409 -0.17950113 0.06828028
0.18184292 -0.16300704 0.068135105
0.035282314 -0.14477938 0.069766551
0.20629355 -0.14605831 0.065422103
0.0090106362 -0.11705719 0.064493202
0.00084951171 -0.10549854 0.064305596
0.24248601 -0.10039014 0.064897388
-0.016301617 -0.062000547 0.06700626
0.26424247 -0.024659242 0.067809142
-0.024636505 0.015513015 0.063461334
0.26571673 0.013445678 0.064111009
-0.023445241 0.030822352 0.063080668
0.26090577 0.047339983 0.063238651
-0.01223238 0.072805472 0.065577403
0.0010675736 0.099450864 0.066421926
0.23171581 0.11539127 0.060166717
0.025396129 0.13514332 0.060237467
0.20531318 0.14321622 0.063103229
0.047301859 0.1505513 0.067775667
0.051638015 0.156601 0.062123962
0.18807845 0.15631726 0.064108051
0.17218913 0.16520578 0.062489979
0.089706823 0.17170565 0.066347271
0.094284251 -0.17334132 0.075614803
0.15460092 -0.17125589 0.074922375
0.073116548 -0.16836393 0.070322827
0.054623824 -0.15503272 0.078906722
0.043898612 -0.14776468 0.076862954
0.20331298 -0.14164492 0.079432294
0.21551882 -0.13324507 0.074178264
-0.002518092 -0.09120483 0.07275293
-0.010705161 -0.076355517 0.070831344
-0.010237746 -0.065127879 0.079648919
0.25450963 -0.063054964 0.073666513
0.2594659 -0.031107413 0.079202235
-0.023991773 -0.0066165761 0.070615105
-0.020864548 0.0086625852 0.077282324
-0.022453338 0.01937058 0.070935287
0.26199034 0.017645016 0.075283214
-0.016740065 0.042720951 0.076209076
0.25907663 0.045919336 0.071266927
0.25153729 0.070922762 0.072292879
0.24632336 0.081741132 0.071980894
0.23456001 0.10564054 0.070571572
0.03342123 0.13418502 0.078434505
0.04325654 0.14370757 0.074846253
0.057634581 0.1565727 0.070784211
0.066059381 0.16077006 0.070440628
0.11945319 -0.17266569 0.08330626
0.12471814 -0.17398115 0.080472335
0.046689533 -0.14487705 0.086530052
0.024651241 -0.12097403 0.08946906
0.21392147 -0.12912953 0.082677051
0.22703668 -0.10903955 0.089052595
-0.012999904 -0.05057361 0.08266741
0.25323039 -0.047254167 0.086704239
-0.017032592 -0.034718484 0.081565924
0.25683609 -0.036270693 0.084128544
-0.015797257 -0.026225056 0.086150363
0.25618008 -0.027076693 0.087536559
-0.017075922 -0.013036217 0.085975632
-0.017583691 -0.0088150101 0.085694939
0.25682506 0.014628941 0.08769457
-0.014269937 0.024131415 0.089110896
0.25378317 0.047000412 0.082651719
-0.0043478403 0.070263512 0.086843528
0.24301976 0.075539388 0.086516827
0.22411101 0.11210051 0.083217584
0.054880455 0.14547706 0.087180756
0.19252285 0.14126873 0.087367743
0.075858571 0.15838017 0.085451633
0.08067897 0.15935209 0.086541906
0.1732191 0.15675792 0.081895009
0.18278326 0.15155005 0.081060924
0.11276597 -0.16382913 0.099035159
0.13949728 -0.16694987 0.090876371
0.072341308 -0.15609005 0.094342574
0.17006102 -0.15747251 0.091572173
0.18763813 -0.14498168 0.093743548
0.19667296 -0.13693364 0.097290665
0.2239992 -0.10457612 0.097713284
0.011685779 -0.098139115 0.095112674
0.22697739 -0.099596627 0.097463146
0.23499247 -0.087111801 0.096022673
0.24988672 -0.051057771 0.091896601
0.25185651 -0.021285309 0.098604441
-0.013723815 -0.012697362 0.093693696
0.25580814 -0.00011779531 0.09308029
-0.010349292 0.018201919 0.099288583
0.24874017 0.038623966 0.099520929
0.24596599 0.053507775 0.096318886
0.23616502 0.079658397 0.096662417
0.23463169 0.088103831 0.091475293
0.010920593 0.095995359 0.091905192
0.2286886 0.093456507 0.096201479
0.21355249 0.11380581 0.0970148
0.20554844 0.12290639 0.097192653
0.19474146 0.13510486 0.094876707
0.16039841 0.15187366 0.099225692
0.14651579 0.1612552 0.090385258
0.078753009 -0.15034965 0.10641508
0.085096978 -0.15367025 0.10585436
0.11062084 -0.15643695 0.1098296
0.14766759 -0.15694594 0.10477482
0.057903357 -0.14311337 0.1011507
0.16852474 -0.1452305 0.10940643
0.20556533 -0.12128432 0.1049249
0.0042956555 -0.068941951 0.10634181
0.24402644 -0.055976875 0.10173304
0.24871577 -0.034777086 0.10296492
-0.0057427324 0.028923508 0.10636708
0.24622479 0.042923704 0.10248257
-0.0001527858 0.051332124 0.10591662
0.0046979906 0.069814131 0.10432964
0.23471725 0.06814865 0.10757824
0.24119578 0.060958371 0.10137352
0.01279318 0.088262409 0.10117155
0.17679504 0.14274032 0.10087413
0.090730056 0.15275189 0.10325618
0.13556132 0.15370238 0.10692634
0.079118997 -0.14398734 0.11540177
0.092689127 -0.14840019 0.11534101
0.14332807 -0.14754355 0.11829507
0.15244214 -0.14477721 0.11842921
0.18405692 -0.12740368 0.11948425
0.19158861 -0.12351868 0.11655165
0.040187232 -0.11950081 0.11149721
0.024425903 -0.094051279 0.11742215
0.22468492 -0.080052465 0.11725725
0.23377681 -0.070031524 0.11027493
0.006190897 -0.047470964 0.11937518
0.22403006 0.073626474 0.11975077
0.21887174 0.088377781 0.11504677
0.21409622 0.094848812 0.1162468
0.19361442 0.11700191 0.11653563
0.1850709 0.12989774 0.11146092
0.16527958 0.1370797 0.11638629
0.10727502 0.1432649 0.11985708
0.088413641 -0.14174117 0.12219784
0.096966572 -0.14511158 0.12109067
0.10705513 -0.14676777 0.12118338
0.1112649 -0.14803822 0.12014096
0.13361986 -0.14313191 0.12566091
0.14562161 -0.14120328 0.12548119
0.071657598 -0.13125385 0.1254651
0.15263894 -0.13675541 0.12836534
0.16281082 -0.13260281 0.12819993
0.18235341 -0.12417095 0.12358832
0.032733548 -0.093908139 0.12583514
0.022306133 -0.084784083 0.12167764
0.2225817 -0.078790672 0.12144038
0.22494289 -0.055187859 0.1299012
0.23186107 -0.030311357 0.12908024
0.012404202 0.048498664 0.12592335
0.22914967 0.042984381 0.12782611
0.041269802 0.10482118 0.12321664
0.055509865 0.11299829 0.12757409
0.17772093 0.12580876 0.12081908
0.15203431 0.13213523 0.12864839
0.090263903 -0.13062462 0.13432947
0.12973039 -0.13688429 0.13369265
0.072657622 -0.1231393 0.13363145
0.14657238 -0.12672077 0.13922676
0.17067759 -0.11950734 0.13551743
0.050211776 -0.098781466 0.13853738
0.21841232 -0.062947989 0.13340576
0.2300588 -0.039529074 0.13031523
0.23266375 0.0086616706 0.13051941
0.014842411 0.02702079 0.13574928
0.014035197 0.033560574 0.13411222
0.22416049 0.030819051 0.13733497
0.020597769 0.057234008 0.13177632
0.20843124 0.079519391 0.13246523
0.17935938 0.1119575 0.13257834
0.12966257 0.1309689 0.13476962
0.11532547 -0.12664533 0.14257425
0.13109763 -0.12517062 0.14314139
0.077810392 -0.11405022 0.14386842
0.15946738 -0.11906509 0.14099059
0.08024472 -0.10808671 0.14984331
0.17393081 -0.10656335 0.14471354
0.20487039 -0.073615178 0.14250374
0.02577211 -0.0281204 0.14713308
0.21672899 -0.0042716591 0.14872332
0.031004671 0.054309741 0.14333361
0.21043333 0.052666996 0.14360455
0.20730558 0.061769128 0.14318043
0.044346444 0.081401266 0.14241484
0.18395737 0.088485725 0.14646189
0.068512455 0.1068892 0.14170632
0.13974747 0.11683158 0.14516044
0.12051466 0.12159184 0.14355895
0.13827872 -0.11565065 0.15009166
0.085193433 -0.097181857 0.15773565
0.17106 -0.08695969 0.15780121
0.047372192 -0.071068518 0.15232255
0.059203792 -0.073092505 0.15934202
0.1918532 -0.073025547 0.15285374
0.19730514 -0.060901679 0.15344971
0.037833445 -0.058477979 0.15034175
0.20758285 -0.031811122 0.15438402
0.031707864 -0.012762425 0.15502074
0.21243891 0.021584006 0.15023638
0.19256563 0.055018261 0.15697378
0.065641835 0.079992883 0.1571451
0.18495382 0.076466769 0.15306178
0.16608927 0.086423837 0.15737343
0.069509514 0.092351347 0.1520552
0.072631784 0.095839605 0.15127096
0.089278206 0.093219608 0.15888496
0.16181955 0.098047569 0.1524912
0.11274661 0.10897419 0.15298086
0.14714627 0.10639037 0.15242852
0.11419203 0.11036866 0.15201007
0.0984376 -0.095490158 0.16249502
0.1387836 -0.090501346 0.16562371
0.15361619 -0.092419192 0.16121864
0.17609626 -0.055290587 0.16864216
0.18704687 -0.049125925 0.16416675
0.050456248 -0.032720253 0.16589898
0.047294781 -0.021028573 0.1651378
0.2011832 -0.01950202 0.16047728
0.18009831 0.041049469 0.1698813
0.17089033 0.059728686 0.16782546
0.18361607 0.058105774 0.16175064
0.067597866 0.064168572 0.16547048
0.10660828 0.087022603 0.16553649
0.13283101 0.08518856 0.16671282
0.14665076 0.081208207 0.16718043
0.15027405 0.088327155 0.16216537
0.10552341 0.094513886 0.16140199
0.14289896 0.092130363 0.16179292
0.085665241 -0.058724679 0.17532632
0.077245943 -0.046988759 0.17591423
0.08736819 -0.046783261 0.17972367
0.16904353 -0.044568665 0.1747459
0.17593637 -0.038828485 0.17386979
0.16353187 -0.028571073 0.17950946
0.17993744 -0.01499856 0.174826
0.057212718 -0.0062944912 0.1732401
0.058305629 0.0053227497 0.17354779
0.064437523 0.0062852036 0.17647427
0.17686322 0.010691328 0.17593661
0.064452946 0.026760953 0.17438248
0.16703238 0.038254015 0.17602658
0.08322569 0.041800976 0.17830765
0.16610116 0.045080185 0.17421792
0.14258897 0.051842239 0.17903075
0.098275088 0.060498945 0.17638028
0.10567135 0.060147636 0.17737529
0.10348298 0.077035747 0.1704995
0.1204941 0.0795414 0.17120348
0.12374318 0.080475688 0.17032346
0.10973208 -0.056693055 0.18030992
0.13831556 -0.042796947 0.18368751
0.13486953 -0.036490276 0.18540411
0.14647299 -0.035263315 0.18413168
0.10201183 -0.024688145 0.18606366
0.072990969 -0.0013410843 0.18041947
0.12105544 -0.0070771798 0.18995954
0.16418567 -0.0045966124 0.18172312
0.14538699 0.013566729 0.18594423
0.087641239 0.022040734 0.18344423
0.13194683 0.020147927 0.18691018
0.14061774 0.026980046 0.18519616
0.10438321 0.03770496 0.18402854
0.11173618 0.036332447 0.18510467
0.12951139 0.032875728 0.18594909
0.097318321 0.044121917 0.18123367
0.11387928 0.043264315 0.18348244
0.1225447 0.041924827 0.18444632
0.1248201 0.053468011 0.18067154
