# .PCD v0.7 - Point Cloud Data file format
VERSION 0.7
FIELDS x y z
SIZE 4 4 4
TYPE F F F
COUNT 1 1 1
WIDTH 976
HEIGHT 1
VIEWPOINT 0 0 0 1 0 0 0
POINTS 976
DATA ascii
-0.1557449 -0.35072815 -0.249412
-0.041856073 -0.35848355 -0.249412
0.17460141 -0.35946968 -0.249412
-0.19193478 -0.34231704 -0.249412
-0.17938481 -0.34984276 -0.249412
0.031097025 -0.33493999 -0.249412
-0.23982765 -0.32739642 -0.249412
0.16863373 -0.32157469 -0.249412
0.22789586 -0.32101631 -0.249412
-0.15065384 -0.31981575 -0.249412
0.23164301 -0.31092161 -0.24333721
0.10573229 -0.30180079 -0.249412
0.12756185 -0.30577388 -0.249412
0.11566573 -0.29131302 -0.249412
0.17463419 -0.29738948 -0.249412
-0.12120309 -0.28781486 -0.249412
-0.052320443 -0.28751236 -0.249412
0.067973658 -0.2886003 -0.249412
-0.240527 -0.27250803 -0.24817891
-0.20401843 -0.27963963 -0.249412
-0.16073811 -0.27361232 -0.249412
-0.13808745 -0.27660248 -0.249412
0.0062208846 -0.27033395 -0.249412
0.12476653 -0.27891031 -0.249412
0.032755733 -0.2562708 -0.249412
-0.19747572 -0.2444903 -0.249412
-0.1423782 -0.24744567 -0.249412
0.14091785 -0.24145246 -0.24941202
0.16915154 -0.24139728 -0.249412
-0.13343315 -0.23630118 -0.249412
-0.072870523 -0.23255907 -0.249412
0.14476547 -0.21758941 -0.249412
0.17509894 -0.21439089 -0.249412
-0.12564261 -0.20315096 -0.249412
0.019068729 -0.20840013 -0.249412
-0.21813695 -0.18683009 -0.249412
-0.045736797 -0.18380621 -0.249412
0.02259725 -0.18763536 -0.249412
0.14486547 -0.18538836 -0.249412
-0.240527 -0.16241319 -0.24382882
-0.19793524 -0.16611144 -0.249412
0.13420653 -0.16812967 -0.24941202
-0.14168572 -0.15574904 -0.249412
0.18259335 -0.15857878 -0.249412
-0.11704397 -0.14551082 -0.249412
0.10990973 -0.14423431 -0.249412
0.048868891 -0.13850279 -0.249412
0.20718116 -0.13978975 -0.249412
-0.10086726 -0.11702693 -0.249412
0.11404975 -0.10456503 -0.249412
0.17730701 -0.10692146 -0.249412
0.19505057 -0.10446449 -0.249412
-0.024921525 -0.096195236 -0.249412
-0.22363971 -0.083655387 -0.249412
-0.086677447 -0.080279373 -0.249412
-0.07127919 -0.089362711 -0.249412
0.19211543 -0.089219727 -0.249412
0.10989106 -0.072446175 -0.249412
-0.17538372 -0.065827325 -0.249412
-0.12709436 -0.062741376 -0.249412
0.17492756 -0.056743711 -0.249412
0.21869011 -0.058944687 -0.249412
-0.065349847 -0.046995386 -0.249412
-0.1831789 -0.037706137 -0.249412
-0.1039086 -0.035529092 -0.249412
0.059686042 -0.03787595 -0.249412
-0.21694793 -0.021923207 -0.249412
-0.20646651 -0.028911676 -0.249412
-0.19510059 -0.024910003 -0.249412
-0.027735148 -0.026097957 -0.249412
0.085687891 -0.024760593 -0.249412
0.11866155 -0.022462457 -0.249412
-0.1649984 -0.014270574 -0.249412
-0.08793968 -0.018223442 -0.249412
-0.072635025 -0.016613781 -0.249412
0.030369559 -0.010118656 -0.249412
0.066728808 -0.0070162266 -0.249412
0.11446591 -0.0047746897 -0.249412
0.23164299 -0.006120868 -0.24292457
0.071096063 0.0029413551 -0.24941199
-0.089697577 0.018466469 -0.249412
0.075198583 0.012885209 -0.249412
0.16478755 0.012689635 -0.249412
0.18635373 0.018620625 -0.249412
0.22977193 0.018947661 -0.249412
-0.043985184 0.025942666 -0.249412
-0.10808559 0.034104701 -0.249412
-0.06488923 0.033055894 -0.249412
0.06706401 0.033135686 -0.249412
-0.2143251 0.041904256 -0.249412
0.016336635 0.069258921 -0.249412
0.23164302 0.0633981 -0.24191505
-0.24052702 0.070214242 -0.24399266
0.049138002 0.071697056 -0.249412
0.14471014 0.07748723 -0.249412
0.04951831 0.088999569 -0.249412
0.077524684 0.084892735 -0.249412
0.14339595 0.086731918 -0.249412
0.1675999 0.088801228 -0.249412
-0.16924155 0.096514195 -0.249412
0.095704533 0.10754544 -0.249412
0.13135566 0.10667709 -0.249412
-0.026018197 0.11290464 -0.249412
0.15571788 0.11015776 -0.249412
0.10078286 0.12344671 -0.249412
-0.17054926 0.13258488 -0.249412
-0.034311034 0.14598259 -0.249412
0.070713997 0.14981917 -0.249412
0.22345124 0.14327224 -0.249412
0.099876575 0.1552007 -0.249412
0.13236217 0.16309588 -0.249412
-0.0064079091 0.17769298 -0.249412
0.036920477 0.17147702 -0.249412
0.09694133 0.17049284 -0.249412
-0.055949125 0.18364997 -0.249412
-0.018110022 0.18751431 -0.249412
-0.11698543 0.20037945 -0.249412
0.22804694 0.20159873 -0.249412
0.14838554 0.22037521 -0.249412
0.21680927 0.22872162 -0.249412
0.13648124 0.24739607 -0.249412
-0.20454888 0.25669762 -0.249412
-0.16042408 0.25655895 -0.249412
0.041709408 0.25289398 -0.249412
0.096872658 0.25837374 -0.249412
-0.20851938 0.26046589 -0.249412
-0.16563363 0.26791713 -0.249412
-0.012391873 0.26114559 -0.249412
-0.042139128 0.27902025 -0.249412
0.13505998 0.27042514 -0.249412
0.077394418 0.29201242 -0.249412
0.088712662 0.29537094 -0.249412
0.12530489 0.29176703 -0.249412
-0.2284043 0.30523077 -0.249412
-0.0016619936 0.30030909 -0.249412
-0.20802736 0.31737512 -0.249412
0.18208349 0.31109312 -0.249412
0.060857847 0.32252127 -0.249412
-0.050424613 0.35709462 -0.249412
0.18907726 0.35824344 -0.249412
-0.18498719 0.36047301 -0.24464744
0.029677603 0.36047301 -0.24713096
-0.22595222 -0.36047301 -0.23198381
0.23164301 -0.18596505 -0.23532403
-0.240527 -0.0091922432 -0.23678148
-0.240527 0.14669243 -0.23529768
-0.240527 0.32484561 -0.23128365
-0.240527 0.33552963 -0.23383316
-0.16811438 0.36047301 -0.23620641
0.15985849 0.36047304 -0.23523593
0.21174307 0.36047301 -0.23024172
0.087235883 -0.36047304 -0.22608428
0.23164301 -0.26093537 -0.22764415
-0.240527 0.13266185 -0.22271588
-0.037251625 0.36047301 -0.22903079
0.048036382 0.36047301 -0.22802478
0.23164301 -0.21667224 -0.21110818
0.23164302 -0.090223163 -0.21583965
-0.240527 -0.051622614 -0.2160657
-0.240527 -0.047051847 -0.21952537
-0.24052702 0.070315339 -0.21838754
-0.240527 0.16011958 -0.21420333
-0.240527 0.18136474 -0.21583267
0.23164301 0.26340133 -0.2115477
-0.1157945 0.36047301 -0.2158493
-0.074268341 0.36047301 -0.21530351
-0.043016627 0.36047301 -0.21011925
0.062188178 -0.36047301 -0.20662495
-0.240527 -0.33705714 -0.20051332
-0.240527 -0.32677391 -0.20870467
0.23164302 -0.31376004 -0.20439281
0.23164299 -0.15436767 -0.20785764
0.23164299 0.16261744 -0.20427105
-0.16328461 0.36047301 -0.2029579
-0.021323286 0.36047301 -0.20432577
-0.016352713 0.36047301 -0.20926148
0.18197906 0.36047301 -0.20779997
-0.14822172 -0.36047298 -0.19296037
0.0067803636 -0.36047301 -0.19784915
-0.240527 -0.34716588 -0.19655746
-0.240527 -0.16408934 -0.19672181
-0.240527 -0.11602976 -0.19391651
0.12813914 0.010530137 -0.19014224
-0.240527 0.053535998 -0.19379023
0.19001764 0.059807353 -0.19116268
0.071370915 0.071054235 -0.19005854
0.23164301 0.25812069 -0.1924223
-0.240527 0.30269167 -0.19197236
-0.21250276 0.36047301 -0.1915592
-0.20775329 0.36047301 -0.19153336
-0.093766987 0.36047301 -0.19306338
0.1447726 -0.36047304 -0.1820973
0.18867835 -0.36047301 -0.18002044
-0.240527 -0.27887157 -0.18347488
0.23164302 -0.089881077 -0.18614611
-0.04775089 -0.024876729 -0.18090934
0.024020199 -0.022419451 -0.18155012
0.23164302 -0.029787455 -0.1812541
0.10257167 -0.016545396 -0.18308187
0.23164301 -0.0083791409 -0.18234284
0.0078986995 0.018926648 -0.18614763
0.096442372 0.01963659 -0.18502098
0.15233356 0.019182187 -0.18574211
0.064212464 0.022650616 -0.18023801
-0.079194799 0.063015133 -0.18476105
0.16544947 0.073978841 -0.18925388
-0.041565701 0.083483443 -0.1866388
0.23164301 0.081202373 -0.18577729
-0.240527 0.096204624 -0.18252835
0.056894314 0.099339277 -0.18227625
0.13416445 0.097307786 -0.18283522
-0.240527 0.10960391 -0.18529162
-0.019684933 0.10059115 -0.18193182
0.086480558 0.10075321 -0.18188724
-0.240527 0.33751178 -0.18155791
-0.11841029 0.36047301 -0.18250033
-0.15060435 -0.36047304 -0.17519796
-0.13520652 -0.36047301 -0.1701109
-0.070820436 -0.36047298 -0.1706762
0.051199771 -0.36047301 -0.17907885
-0.240527 -0.12428167 -0.17080343
0.23164301 -0.066211723 -0.17951861
-0.10044373 -0.04659234 -0.17149262
0.19691071 -0.048874311 -0.17019539
0.23164301 -0.044352099 -0.17213944
0.11462007 -0.035311606 -0.1779054
0.1491715 -0.039518893 -0.17551368
-0.091236413 0.022845704 -0.17992854
0.16755752 0.026944578 -0.17342384
0.17196919 0.029091712 -0.17001659
0.23164301 0.077390447 -0.17841214
0.20974314 0.080250382 -0.17315046
0.21375892 0.09218616 -0.17045186
-0.053334367 0.11471018 -0.17804715
0.011949226 0.11436141 -0.1781431
-0.093803748 0.12768443 -0.17115733
0.014254764 0.1214366 -0.17482054
-0.240527 0.171638 -0.17111063
-0.240527 0.3458589 -0.1769433
-0.20024474 0.36047301 -0.17402169
-0.18680784 0.36047301 -0.17593947
-0.064857751 0.36047301 -0.17945081
0.025374135 0.36047298 -0.17447363
0.2084085 -0.36047301 -0.16670033
-0.240527 -0.32856506 -0.16562508
0.23164301 -0.25293192 -0.1694382
0.088589951 -0.059515871 -0.16414596
-0.240527 -0.017004684 -0.16321504
-0.240527 0.011434048 -0.16278335
0.036562435 0.029904388 -0.168727
0.22529602 0.11172658 -0.16727953
0.065854065 0.13600177 -0.16628072
0.11068469 0.13952893 -0.1642127
-0.054894801 0.14487907 -0.16107583
0.18786871 0.14565091 -0.16062328
0.23164302 0.19004151 -0.16027643
0.23164302 0.24183622 -0.16204789
-0.240527 0.28485674 -0.16566829
-0.240527 0.33611283 -0.16167562
0.097495556 0.36047301 -0.16711816
-0.14299555 -0.36047301 -0.1564243
0.020482108 -0.36047301 -0.15676212
0.069925971 -0.36047301 -0.15520042
-0.240527 -0.26935369 -0.15074396
0.23164301 -0.097960129 -0.15448859
-0.100906 -0.061000273 -0.15987277
0.13373859 -0.069841579 -0.15827608
-0.240527 0.0078891814 -0.15594447
-0.240527 0.033721268 -0.15598062
-0.092318319 0.037416693 -0.1568058
-0.069419593 0.036369026 -0.15846834
-0.058913223 0.038420666 -0.15521257
0.16073005 0.042488441 -0.15376616
0.21551214 0.13475288 -0.15153575
0.10206357 0.15456098 -0.15539914
0.17959756 0.15012331 -0.15800104
0.009150207 0.16140024 -0.15138918
0.23164299 0.18224847 -0.15239063
-0.240527 0.29820368 -0.15081768
-0.240527 0.31435212 -0.15098985
-0.22800788 0.36047298 -0.15094092
-0.059995502 0.36047301 -0.15873529
0.039239336 0.36047301 -0.150491
0.11696182 0.36047301 -0.1541215
-0.014180485 -0.36047301 -0.14465407
0.031206854 -0.36047301 -0.14006281
-0.240527 -0.2369882 -0.14177068
-0.240527 -0.15344915 -0.14423306
-0.02582686 -0.090513781 -0.14182962
0.075955778 -0.082996815 -0.1492466
0.18550158 -0.085184216 -0.1470883
0.23254634 -0.046274733 -0.14893264
-0.100906 0.027109297 -0.14121503
0.23595461 0.12828483 -0.14807175
-0.240527 0.13906585 -0.14202487
0.060011357 0.16766472 -0.14511091
0.024048464 0.17036939 -0.14236969
0.23164302 0.32509658 -0.14828923
0.14322139 0.36047301 -0.14684986
-0.19628507 -0.36047301 -0.13028038
-0.12735914 -0.36047304 -0.13515872
-0.240527 -0.33236623 -0.13091756
-0.240527 -0.12848276 -0.13170071
0.22529601 -0.092709802 -0.13965894
-0.100906 -0.067753725 -0.13606986
0.23343819 -0.064941637 -0.13697736
-0.100906 -0.017918579 -0.13807097
-0.240527 -0.00070473552 -0.13383019
0.240527 -0.0021845219 -0.13784364
-0.240527 0.073154889 -0.1391584
0.240527 0.077315956 -0.13375317
0.11940387 0.18131077 -0.13128048
0.23164301 0.2512337 -0.13937618
-0.19815847 0.36047298 -0.13595408
0.16533573 -0.36047304 -0.12251605
0.13658606 -0.10340789 -0.129107
0.15510257 -0.10796735 -0.12460816
0.22529599 -0.096462011 -0.12369603
-0.240527 -0.045637965 -0.12890074
0.240527 -0.014594787 -0.1249406
-0.017076522 0.1861407 -0.12638532
0.13963355 0.18840298 -0.12409246
0.23164299 0.19508296 -0.12945084
0.23164302 0.26718241 -0.12767299
0.23164299 0.33486685 -0.12576678
-0.14914046 0.36047301 -0.12418398
0.10890538 0.36047301 -0.12003899
-0.20832855 -0.36047301 -0.11867815
-0.032644767 -0.36047301 -0.11856648
-0.240527 -0.21623537 -0.11002532
0.23164301 -0.21975625 -0.11727183
-0.240527 -0.14280173 -0.11315325
0.0230349 -0.11885189 -0.11185351
0.08305984 -0.11478743 -0.11787879
0.0995235 -0.11439837 -0.11826266
-0.100906 -0.10630162 -0.11659192
-0.240527 -0.0027018115 -0.11017935
0.240527 -0.0024752358 -0.1157537
-0.100906 0.078054577 -0.11062261
0.17842476 0.18155517 -0.11287793
-0.240527 0.21029136 -0.1133232
-0.21037631 0.36047301 -0.11535323
-0.20557372 0.36047301 -0.11493731
-0.13996071 0.36047301 -0.11992592
-0.034539808 0.36047301 -0.1166838
0.024594888 0.36047301 -0.11011181
0.030175805 0.36047301 -0.11986423
0.23164301 -0.25100726 -0.10132936
0.17025733 -0.12180076 -0.10682408
0.240527 0.0079250112 -0.10414377
-0.240527 0.036120921 -0.10629778
-0.240527 0.048564196 -0.10356081
0.240527 0.057955027 -0.10390287
0.20925298 0.18386558 -0.1092252
0.23164302 0.23630333 -0.10793094
0.23164302 0.32648188 -0.10325124
0.10442658 0.36047304 -0.10152708
0.20556536 0.36047301 -0.10702249
0.013371069 -0.36047301 -0.092631556
0.10764476 -0.36047301 -0.092145845
0.069485195 -0.12967771 -0.093389519
-0.100906 -0.061197404 -0.090380915
-0.240527 0.16365376 -0.09093143
0.20918496 0.20699798 -0.098415554
-0.240527 0.34526393 -0.098500811
-0.19954668 0.36047301 -0.095086992
-0.16392234 0.36047298 -0.093692668
-0.045657545 0.36047301 -0.094645888
0.041007556 0.36047301 -0.094414063
-0.2265949 -0.36047301 -0.082828894
0.018929619 -0.36047301 -0.081241764
0.18691358 -0.36047301 -0.083655782
-0.100906 -0.1215611 -0.082933009
-0.240527 -0.062258825 -0.089556292
0.240527 0.18914016 -0.081568636
0.22529602 0.19997934 -0.088532865
-0.060570724 0.2163789 -0.081913173
-0.240527 0.2859796 -0.085953064
0.232912 0.29570356 -0.088221908
-0.051772401 -0.36047301 -0.074946769
0.15286091 -0.36047301 -0.072207898
0.19523306 -0.36047298 -0.077490009
-0.240527 -0.32076287 -0.075349584
-0.240527 -0.28231087 -0.074156232
0.23164301 -0.20664197 -0.070745766
-0.240527 -0.13998637 -0.078649431
-0.240527 0.1875647 -0.072165035
0.046413668 0.21952793 -0.076373577
-0.240527 0.22455586 -0.076213151
0.23164301 0.35419795 -0.074816056
-0.19314668 0.36047304 -0.07003618
0.046147384 0.36047301 -0.076371722
0.044063073 -0.36047301 -0.06103424
-0.240527 -0.23536445 -0.063925304
0.23164299 -0.20043302 -0.06778881
0.046491131 -0.14479214 -0.062553063
0.10170829 -0.1434516 -0.067425251
0.240527 -0.11287586 -0.069477558
0.240527 -0.082620457 -0.06574396
-0.100906 0.09941458 -0.060065743
-0.240527 0.10654817 -0.066944204
-0.100906 0.16726443 -0.069774322
-0.240527 0.1725696 -0.062281586
0.20240025 0.20963554 -0.064434476
-0.240527 0.32597333 -0.067714669
-0.240527 0.36002976 -0.06011945
-0.11420714 0.36047301 -0.061340563
0.23164301 -0.15666775 -0.056310579
-0.097754873 -0.14745803 -0.052863754
0.22529601 -0.1366716 -0.057788171
-0.100906 -0.11252432 -0.057853486
-0.240527 -0.086051613 -0.051006556
-0.100906 -0.031679988 -0.05704407
-0.03610111 0.22702029 -0.055594578
-0.240527 0.31801382 -0.058083352
-0.071076527 0.36047301 -0.050171912
-0.056765515 0.36047301 -0.056411363
0.1392595 0.36047304 -0.052677892
-0.17400879 -0.36047301 -0.044362061
0.050172009 -0.15087694 -0.040437657
-0.100906 -0.11868684 -0.048631754
-0.240527 -0.09399727 -0.047653928
0.240527 0.19363794 -0.041825131
0.22529601 0.2207171 -0.041231774
0.19004829 0.23078962 -0.041140642
0.23164301 0.27379739 -0.042523775
-0.240527 0.28264436 -0.044378318
-0.14347962 0.36047301 -0.049519628
-0.13843858 0.36047301 -0.042311706
-0.12513354 0.36047301 -0.044209827
-0.10888528 0.36047301 -0.043425739
-0.091944546 0.36047301 -0.040680483
-0.023865417 -0.36047301 -0.039417922
0.22176363 -0.36047301 -0.033936866
0.23164302 -0.26550132 -0.031900324
-0.240527 -0.14122587 -0.030348249
-0.240527 -0.066196889 -0.034990698
0.026526228 0.36047301 -0.038166404
0.16527015 0.36047301 -0.035871103
-0.17174825 -0.36047304 -0.029516459
0.020855978 -0.36047301 -0.022852957
0.23164301 -0.14230856 -0.020319261
-0.240527 0.075017735 -0.027509324
-0.100906 0.21372531 -0.024355497
-0.016030759 0.22451907 -0.020753114
0.018026451 0.22410595 -0.020435393
-0.240527 0.26268604 -0.025545701
0.17680588 0.36047301 -0.02336558
-0.22251147 -0.36047301 -0.012482077
-0.12243954 -0.36047301 -0.010226309
-0.082230076 -0.36047301 -0.011003431
0.036001094 -0.36047301 -0.010875605
0.23164301 -0.25954029 -0.013501413
0.22094317 -0.15593697 -0.012292797
-0.047764767 -0.14158432 -0.01419928
0.12257799 -0.14411663 -0.015633307
0.074606322 -0.13739267 -0.011825156
0.240527 -0.098435327 -0.012166275
-0.100906 0.052132756 -0.018463671
-0.100906 0.15335856 -0.017895158
-0.037372544 0.2191031 -0.016588924
0.10301353 0.21632501 -0.014452726
-0.23173317 0.36047301 -0.019564182
0.0044716522 0.36047301 -0.016517915
-0.23086762 -0.36047301 -0.002647236
-0.13459013 -0.36047304 -0.0097421557
0.042750388 -0.36047301 -0.00097236037
0.23164302 -0.2648021 -0.0062013194
0.23164299 -0.20229383 -0.0046941955
0.0046365727 -0.14309461 -0.0095977169
0.11190075 -0.13344425 -0.0095889075
0.097425133 -0.12401587 -0.0042491341
0.039740469 -0.11820606 -0.00095874129
-0.100906 -0.08931677 -0.0093146795
-0.100906 -0.012234826 -0.0034534298
-0.100906 0.0047988435 -0.0031948686
-0.240527 0.020587675 -0.0058588767
-0.100906 0.099834546 -0.0058061928
-0.240527 0.1715458 -0.0033031143
0.240527 0.19041787 -0.0043937908
-0.013241086 0.20676637 -0.0071035
0.038354661 0.20219618 -0.0035895936
0.062885657 0.2000165 -0.0019136721
0.073346041 0.200452 -0.0022485137
0.23164301 0.28954881 -0.0025778264
-0.240527 0.32271996 -0.0056603011
-0.1690096 0.36047301 -0.003854759
-0.17314327 -0.36047301 0.0017540827
-0.13161732 -0.36047301 0.0079150274
-0.025805531 -0.36047301 0.0019882405
0.15603754 -0.36047301 0.0059639215
0.23164299 -0.31695417 0.0048926771
-0.240527 -0.2684654 0.0090764239
-0.240527 -0.17358038 0.0096144564
-0.240527 -0.12397222 0.00036333874
-0.100906 -0.12489066 0.0038870825
-0.089946978 -0.11659465 0.003516119
-0.100906 -0.077596858 0.0080846287
-0.100906 0.091452599 0.0095484424
0.063603453 0.19807394 0.0035839728
0.0074042976 0.36047301 0.0017898753
0.093641832 0.36047301 0.0049291849
0.17852664 0.36047304 0.0032468289
-0.240527 -0.34259513 0.010623647
-0.240527 -0.15186149 0.012920454
0.22523203 -0.15610376 0.012599325
-0.035243109 -0.1413774 0.019676145
0.13636062 -0.14210942 0.015360905
0.14845678 -0.12842633 0.011231045
-0.240527 -0.06398432 0.019214457
-0.100906 -0.012183353 0.015858945
0.023968402 0.20845276 0.011345786
0.039108288 0.20811333 0.011091951
0.12094466 0.21475862 0.016061645
-0.22345605 0.36047298 0.015831947
-0.031348877 0.36047298 0.016206093
0.039986223 -0.36047298 0.020130217
-0.240527 -0.33527327 0.023789264
0.23164302 -0.24985826 0.028926797
-0.052428849 -0.14397496 0.021369914
0.12769589 -0.14726177 0.023512941
-0.240527 -0.13331662 0.025794879
-0.240527 0.097658902 0.021650106
0.240527 0.20653807 0.029717147
0.030687366 0.23155142 0.02861961
0.11926872 0.23213926 0.02905919
0.22529602 0.23601258 0.023641163
0.231674 0.31286687 0.027004359
0.12140955 0.36047301 0.029860869
-0.240527 -0.25661448 0.037037514
0.23164302 -0.17792566 0.033483744
0.01260457 -0.15520261 0.03323777
0.15897505 -0.15364942 0.03919363
-0.100906 -0.14513578 0.034162581
0.22529601 -0.14780913 0.032726269
-0.100906 0.05010394 0.034850664
0.068275876 0.23587756 0.032584026
-0.095965654 0.36047301 0.032916937
0.14210419 0.36047301 0.036747813
-0.22508688 -0.36047301 0.041552722
0.042766921 -0.36047301 0.044717792
0.23164301 -0.20962408 0.043944843
-0.240527 -0.18314752 0.040741764
-0.085208803 -0.15289733 0.042077586
-0.0211531 -0.15161525 0.04699377
0.017649263 -0.15227443 0.044466063
0.14796145 -0.15295431 0.041859034
-0.100906 -0.082228482 0.040277913
-0.100906 0.058537763 0.04403419
-0.100906 0.1029775 0.049435489
-0.100906 0.11339578 0.04249749
0.240527 0.17843029 0.046741828
0.23164301 0.25995505 0.040489703
0.23164301 0.29820919 0.049623229
-0.240527 0.34691447 0.041697897
-0.028313903 0.36047301 0.045926154
-0.15477329 -0.36047301 0.052824471
-0.14633511 -0.36047301 0.050395973
0.0040710494 -0.36047301 0.058036357
-0.240527 -0.34386864 0.056399334
-0.240527 -0.33279172 0.058044143
0.13604021 -0.15050766 0.051240847
-0.084824659 -0.14870435 0.058155783
0.06966608 -0.1496288 0.054610897
0.23164301 -0.14701325 0.059102375
-0.100906 -0.1124931 0.058535822
-0.240527 0.018493652 0.058042295
-0.240527 0.08569625 0.05797448
-0.100906 0.17145348 0.056379933
-0.240527 0.18026587 0.058034971
0.15753613 0.22918969 0.05689127
0.15047628 -0.36047298 0.066700079
0.013689656 -0.14799404 0.060879473
-0.100906 -0.10254436 0.064230882
-0.100906 -0.068469107 0.061035864
-0.240527 0.093494616 0.069277085
-0.100906 0.15958253 0.061978798
0.240527 0.17282066 0.062330469
-0.100906 0.18027548 0.06921111
-0.0093310513 0.22696824 0.064965211
0.23164301 0.3289361 0.06177846
0.1036547 0.36047301 0.062769398
0.17450757 0.36047298 0.063948691
0.22249545 0.36047298 0.067504466
-0.24022682 -0.36047304 0.079369128
-0.19654295 -0.36047301 0.077643454
-0.063138612 -0.36047301 0.071758904
-0.240527 -0.3593114 0.078082003
0.089952633 -0.14482847 0.073018104
0.1281174 -0.14451177 0.074232496
0.22529601 -0.13573375 0.070152238
0.23323885 -0.11770128 0.077307165
0.16090031 0.22362676 0.077109866
-0.240527 0.30886975 0.07990776
-0.12983409 -0.36047301 0.082673967
0.017383173 -0.36047301 0.084930085
-0.240527 -0.26000661 0.087746665
-0.240527 -0.25508317 0.087462217
0.23164301 -0.21721493 0.082406797
0.17967939 -0.14062037 0.083833642
-0.0030093007 -0.13995165 0.08500997
0.074929416 -0.13877343 0.08708261
0.17693381 -0.1385814 0.087420411
-0.100906 -0.057871222 0.081818104
-0.100906 0.013437929 0.08316493
-0.240527 0.099109814 0.088614352
-0.240527 0.11134334 0.081311792
-0.240527 0.17873833 0.08906877
0.22529599 0.21822719 0.087312408
0.23164301 0.27412885 0.08551646
0.15607533 0.36047301 0.085712723
0.20590371 0.36047301 0.085690059
0.21538784 0.36047301 0.088151
-0.240527 -0.19464403 0.095463961
0.14890034 -0.13508731 0.093566909
-0.100906 -0.11722466 0.092255577
-0.100906 -0.06227006 0.099963844
-0.100906 -0.0597758 0.097518221
-0.240527 0.090617418 0.096510582
0.240527 0.15506364 0.097157151
-0.240527 0.23337707 0.093085013
-0.240527 0.33727312 0.099421978
0.02027363 0.36047304 0.095502481
0.13406426 0.36047301 0.093319088
0.14251199 0.36047298 0.096110433
-0.21097964 -0.36047301 0.1040885
-0.012963437 -0.36047301 0.10158333
0.056321967 -0.36047301 0.10394976
0.064799555 -0.36047301 0.10134527
-0.240527 -0.1908613 0.10770725
0.076797016 -0.13064997 0.10137269
-0.100906 -0.10268681 0.10556643
-0.240527 -0.057198286 0.10669967
-0.240527 -0.033573002 0.10369772
-0.015835408 0.20983408 0.10311012
0.080717899 0.20977844 0.10320503
0.20111984 0.20648605 0.10882083
-0.240527 0.30948558 0.10778187
-0.19654612 -0.36047304 0.11490333
0.13734554 -0.36047304 0.11696342
0.16548619 -0.36047301 0.11593063
-0.063147053 -0.12228933 0.11608
0.10001887 -0.12354377 0.1138733
0.20874256 -0.12404094 0.11299871
-0.240527 0.096861482 0.11292312
-0.100906 0.12678601 0.1183814
-0.240527 0.17280765 0.11009603
0.2052547 0.19026864 0.11118557
0.22529602 0.19069882 0.11401887
-0.080437914 0.20219675 0.11613704
0.048793323 0.20201315 0.11645021
0.23164301 0.25156155 0.11716811
-0.1563011 -0.36047301 0.12604728
-0.052570183 -0.36047301 0.1251808
0.14081103 -0.36047298 0.12825394
0.23164299 -0.12764393 0.12125459
0.011958804 -0.11257523 0.1293755
0.068984598 -0.11214063 0.129816
0.18872991 -0.11312751 0.12881577
-0.100906 -0.052327197 0.12404302
0.240527 -0.04886277 0.12853271
-0.100906 -0.0023773308 0.12266186
-0.100906 0.037000187 0.12497072
-0.100906 0.1100276 0.12986539
0.240527 0.12422585 0.12506376
0.14393358 0.36047301 0.12794687
0.21491168 0.36047304 0.12595709
-0.240527 -0.21781471 0.137941
-0.090563558 -0.10573705 0.13630611
0.240527 -0.057752881 0.13454311
-0.240527 0.030329764 0.13204658
-0.240527 0.13865405 0.13565318
-0.100906 0.1308293 0.13847919
0.23164302 0.16533786 0.13988189
-0.010054895 0.18631628 0.13609912
0.10235611 0.18588832 0.13652135
0.23164302 0.18491101 0.1363406
-0.2397463 0.36047301 0.13680106
-0.17772096 0.36047301 0.13710137
-0.11810157 0.36047298 0.13914293
0.098283574 0.36047301 0.13626921
0.21868236 0.36047301 0.13977595
-0.19413893 -0.36047301 0.14660822
0.079415306 -0.36047304 0.1470125
0.23164301 -0.28016189 0.14820233
-0.240527 -0.27674156 0.14369252
-0.240527 -0.26638198 0.14836721
0.095168427 -0.093202114 0.14901046
-0.100906 0.060953967 0.14622001
0.23164302 0.1421082 0.14816943
-0.10051933 0.17897937 0.14333785
0.10571042 0.17529449 0.1469734
0.11242709 0.17626551 0.14601538
0.18307219 0.1781317 0.14417414
-0.240527 -0.2606242 0.15789849
0.23164302 -0.17574579 0.15895359
-0.044254668 -0.092128217 0.15009888
0.031975046 -0.090883575 0.15136033
0.069244683 -0.091791011 0.15044063
-0.085830383 -0.087636501 0.15465128
-0.04356705 -0.083809078 0.15853044
-0.036546495 0.041687347 0.15784746
-0.24052699 0.12334333 0.15342213
0.22167207 0.14428526 0.15485343
-0.24052699 0.16213605 0.1592461
0.054682828 0.16745064 0.15471229
0.084004864 0.16247401 0.15962231
0.090722509 0.16212586 0.15996581
0.16929911 0.16436598 0.15775567
-0.15097022 0.36047301 0.15447232
-0.16090046 -0.36047301 0.16729131
0.098796688 -0.36047301 0.16297634
0.15773965 -0.36047304 0.16794568
0.23164301 -0.35125124 0.16140401
0.23164299 -0.24142119 0.16095658
-0.240527 -0.21740274 0.16644691
-0.240527 -0.20180777 0.16255164
0.065493569 -0.079161964 0.16228807
-0.240527 0.019564331 0.16146263
0.13591579 0.034166805 0.16900679
0.07272692 0.044288509 0.16276419
0.23926705 0.094579488 0.16683888
-0.240527 0.13659474 0.16585468
0.11280586 0.15508594 0.16508171
-0.032564148 0.16188048 0.16020788
0.23164302 0.31897998 0.16715933
0.23164301 0.35950932 0.16929644
0.11687653 0.36047301 0.16166402
0.19590628 0.36047304 0.1614292
-0.13752964 -0.36047301 0.1778543
-0.0048324801 -0.36047298 0.1724709
0.22962704 -0.36047301 0.17399709
-0.240527 -0.22456405 0.17789955
0.23164302 -0.19695044 0.1702674
0.013038762 -0.054758258 0.17659646
0.14858873 -0.054564051 0.17671031
-0.085110106 0.028405538 0.17764121
0.045964248 0.030272773 0.17484289
0.240527 0.031801388 0.1748053
-0.064062975 0.049202926 0.17205343
-0.037328213 0.049432959 0.17248824
0.17833298 0.044463262 0.17401436
-0.026937645 0.050682351 0.17484985
-0.0043759681 0.050074868 0.17370158
0.045648441 0.052465454 0.17822027
-0.240527 0.10225708 0.17162685
-0.240527 0.12643798 0.17435932
0.13369015 0.12934831 0.1797131
0.047867801 0.14016297 0.17356515
0.23164301 0.17883232 0.17163135
0.13500905 -0.36047301 0.18250316
0.23164301 -0.25692368 0.18283235
0.074902043 -0.044543285 0.18258569
0.099694669 -0.036909893 0.18706131
0.21975566 -0.033945765 0.1878984
0.23164301 -0.027020425 0.18623509
-0.240527 0.016840577 0.18476227
0.021113468 0.024447002 0.1835741
0.079801179 0.024968997 0.18279184
-0.00091290846 0.054702286 0.18244834
0.020874079 0.057277985 0.18731692
0.076260515 0.12721027 0.18092853
0.23164302 0.22274607 0.18314698
0.10675648 0.36047304 0.18645629
-0.16856101 -0.36047301 0.19713762
-0.042621389 -0.36047301 0.19341752
0.14981306 -0.36047301 0.19342531
-0.240527 -0.33509457 0.19458668
0.23164301 -0.33912039 0.19934592
0.23164302 -0.2942411 0.19522244
-0.240527 -0.28554034 0.19885351
0.23164301 -0.28624287 0.19974457
0.17538454 0.0064777415 0.19901967
0.14458661 0.018388629 0.19265395
-0.091302708 0.059206333 0.1909619
0.01529108 0.061786707 0.19583932
-0.240527 0.07624647 0.19823727
0.0072929859 0.083943993 0.1961014
0.13918158 0.080250345 0.19706456
0.15446755 0.089079574 0.19476222
-0.240527 0.14826988 0.19821221
-0.240527 0.19426782 0.19410489
0.20444608 0.36047301 0.19061197
-0.21551456 -0.36047301 0.20848042
-0.240527 -0.086565547 0.20964734
0.22051755 0.042631071 0.20099984
0.11995798 0.064466931 0.2009055
-0.240527 0.15371746 0.20076086
-0.240527 0.17269382 0.20728001
0.23164301 0.17288564 0.20776165
-0.240527 0.25479999 0.20929761
-0.011649489 -0.36047301 0.2161836
-0.240527 -0.34613484 0.21593675
0.23164302 -0.34023231 0.21531802
-0.240527 -0.14976379 0.21062653
0.23164301 -0.1272569 0.21441203
-0.240527 -0.094008923 0.21917355
0.23164299 0.023405552 0.21853974
-0.11478522 0.36047301 0.21605651
-0.1613382 -0.36047301 0.22274411
0.096639335 -0.36047301 0.22222087
0.10724914 -0.36047304 0.22731361
0.14482535 -0.36047301 0.22099569
0.16556232 -0.36047301 0.22842827
-0.240527 -0.34402475 0.22726879
0.23164301 -0.19979192 0.22650033
0.23164302 -0.18689507 0.22290261
0.23164301 -0.17402366 0.22868969
-0.24052702 -0.15851596 0.2201739
-0.24052699 0.18320921 0.22152697
-0.240527 0.27886149 0.22136094
-0.15731075 -0.36047301 0.23312035
-0.086118303 -0.36047301 0.23767406
0.035467982 -0.36047298 0.23884515
0.17570604 -0.36047301 0.23341832
0.23164301 -0.15678439 0.23371312
0.23164301 -0.12684706 0.23204032
-0.240527 -0.056789994 0.23328301
0.23164301 -0.059703216 0.2301228
-0.240527 -0.047263056 0.23086733
0.23164301 -0.039328746 0.23938179
-0.240527 0.0751881 0.23342472
0.23164301 0.28565568 0.23283994
0.23164299 0.34404656 0.23603465
-0.21177401 -0.36047298 0.24033336
-0.19477233 -0.35722208 0.249412
-0.14078252 -0.3584426 0.249412
-0.091710024 -0.35687339 0.249412
0.051512569 -0.34118479 0.249412
-0.16430935 -0.33479053 0.249412
-0.14334048 -0.32671526 0.249412
-0.084532812 -0.32947534 0.249412
-0.240527 -0.31520262 0.24135113
-0.053723089 -0.31007701 0.249412
0.09226504 -0.31977281 0.249412
-0.035868697 -0.3028056 0.249412
0.092306331 -0.30034143 0.249412
0.16039096 -0.30105919 0.249412
0.069024175 -0.29151639 0.249412
0.12476242 -0.28249186 0.249412
-0.042445958 -0.27939871 0.249412
0.10198918 -0.27102321 0.249412
0.13839516 -0.27194291 0.249412
0.22844851 -0.270219 0.24941199
-0.14010119 -0.26579386 0.249412
0.050166916 -0.2604149 0.249412
-0.093078651 -0.24248198 0.249412
-0.077399723 -0.24539798 0.249412
-0.046857424 -0.23132414 0.249412
0.18187179 -0.23211195 0.249412
-0.22221924 -0.22664863 0.24941202
-0.16604109 -0.22593987 0.249412
-0.15835354 -0.21507466 0.249412
-0.20274687 -0.20708597 0.249412
0.15111589 -0.20640019 0.249412
0.17019631 -0.20279826 0.249412
0.046449501 -0.19966817 0.249412
-0.081652194 -0.18406567 0.249412
0.20715077 -0.18103503 0.249412
-0.047528438 -0.17827672 0.249412
-0.014294229 -0.17653105 0.249412
-0.16218776 -0.16129714 0.249412
0.033417791 -0.16942599 0.249412
-0.13879505 -0.1527867 0.249412
-0.22606909 -0.14504054 0.249412
-0.13462995 -0.14076845 0.249412
0.059409879 -0.14140143 0.249412
-0.046086818 -0.13644665 0.249412
0.22584897 -0.13953169 0.249412
-0.16669913 -0.12267619 0.249412
0.2208064 -0.12254956 0.249412
-0.17920597 -0.11886901 0.249412
-0.017660104 -0.11196892 0.249412
-0.0098351538 -0.11017711 0.249412
-0.23582774 -0.094921865 0.249412
0.034282081 -0.096565291 0.249412
0.073356308 -0.086191028 0.249412
0.085928418 -0.082252771 0.249412
0.15055083 -0.085649014 0.249412
0.23164301 -0.084995359 0.24905652
-0.1963167 -0.071142122 0.249412
0.15022442 -0.07930956 0.24941202
0.16157907 -0.071064956 0.249412
-0.11676092 -0.065931477 0.249412
0.0088652419 -0.065694585 0.249412
-0.2315951 -0.059077047 0.249412
0.024641089 -0.042093888 0.249412
-0.20800978 -0.033868149 0.249412
-0.029470257 -0.031124622 0.249412
0.10874811 -0.028206281 0.249412
0.1690094 -0.022790037 0.249412
0.1853303 -0.017956793 0.249412
0.19096273 -0.015677907 0.249412
0.047567099 -0.0095024891 0.249412
0.070134372 -0.0088648498 0.249412
-0.240527 0.0090313405 0.24497491
-0.063332602 0.0090363845 0.249412
-0.052181102 0.0072152168 0.249412
0.042497788 0.0033654785 0.249412
0.1175686 0.0092958771 0.249412
-0.240527 0.013177782 0.24085417
-0.075599968 0.015595112 0.249412
-0.055019543 0.029339075 0.249412
-0.1522446 0.032765284 0.249412
-0.066182755 0.039800748 0.249412
0.083477832 0.039792523 0.249412
0.098788619 0.031124447 0.249412
-0.17629369 0.041480102 0.249412
-0.036902584 0.049716234 0.249412
-0.20712602 0.050372347 0.249412
-0.11307004 0.05066178 0.249412
0.0085620694 0.057302684 0.249412
0.057395719 0.055022046 0.249412
0.045418859 0.066804267 0.249412
-0.17673543 0.087090351 0.249412
-0.091273844 0.087064728 0.249412
-0.061925206 0.099189147 0.249412
0.049210407 0.099971801 0.249412
0.058442261 0.098440856 0.249412
0.030381704 0.10930595 0.249412
-0.23075718 0.11580764 0.249412
-0.058403149 0.11027264 0.249412
0.14153914 0.12077067 0.249412
0.15374692 0.12719196 0.249412
-0.16614068 0.13358104 0.249412
0.082989879 0.13298929 0.249412
-0.20987752 0.14509684 0.249412
0.2115754 0.143032 0.249412
-0.21175042 0.15169986 0.249412
0.011428691 0.15040167 0.249412
0.19686782 0.15838577 0.249412
0.22985074 0.15766434 0.249412
-0.16274258 0.16022193 0.249412
-0.047054768 0.16221918 0.249412
0.13793246 0.16527407 0.249412
-0.1055949 0.17251921 0.249412
0.1541665 0.17953932 0.249412
0.1955317 0.18228513 0.24941202
0.22551233 0.18481003 0.249412
0.14730549 0.19195397 0.249412
0.06507352 0.20576896 0.249412
0.20832928 0.20082276 0.249412
0.027485751 0.22454865 0.249412
0.10329 0.22479537 0.249412
0.11922756 0.22524312 0.249412
-0.08590585 0.23489244 0.249412
0.025610479 0.23070338 0.249412
0.16105877 0.23793781 0.24941199
0.05087813 0.24086033 0.249412
-0.20838024 0.25682876 0.249412
-0.240527 0.26792338 0.24070995
-0.13451041 0.26162735 0.249412
0.11138903 0.2642988 0.249412
0.13779256 0.26816857 0.24941202
0.18628447 0.27657741 0.249412
-0.089111425 0.2857925 0.249412
-0.019128017 0.28527278 0.249412
0.025931515 0.28307912 0.249412
-0.20716298 0.29352236 0.249412
0.10543992 0.30547068 0.249412
-0.042288035 0.31581408 0.249412
-0.21466741 0.32576931 0.249412
-0.15372735 0.32078201 0.249412
-0.087969579 0.32679662 0.249412
0.0037893727 0.32285303 0.249412
0.17293355 0.32347602 0.249412
-0.19082496 0.3467786 0.249412
-0.18633629 0.34464362 0.249412
0.02134072 0.34502524 0.249412
-0.17070784 0.35703298 0.249412
0.10673095 0.35278589 0.249412
0.18399286 0.35915139 0.249412
0.22614554 0.35323206 0.249412
-0.06387154 0.36047301 0.24903128
-0.035311703 0.36047301 0.24818504
0.17870402 0.36047298 0.24549192
