# .PCD v0.7 - Point Cloud Data file format
VERSION 0.7
FIELDS x y z
SIZE 4 4 4
TYPE F F F
COUNT 1 1 1
WIDTH 973
HEIGHT 1
VIEWPOINT 0 0 0 1 0 0 0
POINTS 973
DATA ascii
-0.30569008 -0.26475272 -0.269925
-0.18216191 -0.26675487 -0.26947868
-0.087889016 -0.26692599 -0.26760677
0.056352675 -0.26629189 -0.269925
-0.12083104 -0.25289345 -0.269925
-0.057310954 -0.25441384 -0.269925
0.067355216 -0.2422643 -0.269925
0.087681673 -0.23675108 -0.269925
-0.16549104 -0.22165373 -0.269925
0.18267138 -0.22927551 -0.269925
-0.2575421 -0.21594471 -0.269925
-0.012264296 -0.21362293 -0.269925
0.0055192262 -0.21443942 -0.269925
0.162139 -0.2119081 -0.269925
0.29670167 -0.21984807 -0.269925
0.023529813 -0.20070833 -0.269925
0.1721724 -0.19072366 -0.269925
0.22599974 -0.19058338 -0.269925
-0.27090925 -0.18624169 -0.269925
-0.26713634 -0.18907753 -0.269925
-0.11893675 -0.18215796 -0.269925
0.1518867 -0.18103325 -0.269925
-0.13886535 -0.17012474 -0.269925
0.053100035 -0.16105863 -0.269925
-0.0079077184 -0.15700248 -0.269925
-0.20028965 -0.14666969 -0.269925
-0.16564292 -0.14445825 -0.269925
-0.01752755 -0.14857471 -0.269925
0.14511368 -0.14993207 -0.269925
0.25665119 -0.14507821 -0.269925
0.29384077 -0.14693567 -0.269925
-0.12555085 -0.13560775 -0.269925
-0.025160506 -0.13461262 -0.269925
-0.23541339 -0.12268503 -0.269925
-0.085411899 -0.12376365 -0.269925
0.29329595 -0.12514131 -0.269925
-0.0067869499 -0.11563373 -0.269925
-0.325409 -0.10217596 -0.2651841
-0.30500373 -0.10517168 -0.269925
-0.17709342 -0.10681322 -0.269925
0.060820818 -0.10111482 -0.269925
0.19620255 -0.10770603 -0.269925
0.23906857 -0.10810176 -0.269925
0.30971152 -0.10496973 -0.269925
0.31341201 -0.096912026 -0.26443624
-0.0065267868 -0.081902519 -0.269925
0.31291431 -0.086097598 -0.26653022
0.13611163 -0.071491748 -0.269925
0.15675813 -0.078944311 -0.269925
0.28151777 -0.074071273 -0.269925
0.30710611 -0.072183624 -0.269925
-0.074891895 -0.06485036 -0.269925
0.15963797 -0.065295272 -0.269925
0.24063602 -0.067597441 -0.269925
-0.19797236 -0.052561812 -0.269925
-0.087162107 -0.058724076 -0.269925
-0.21924818 -0.043393433 -0.269925
-0.16928776 -0.04731429 -0.269925
0.16566558 -0.044780552 -0.269925
0.25591958 -0.041874807 -0.269925
-0.17564735 -0.03667387 -0.269925
0.18529612 -0.037121184 -0.269925
0.29835725 -0.031121433 -0.269925
-0.13150175 -0.020732671 -0.269925
0.25643486 -0.02371721 -0.269925
-0.14775673 -0.019186504 -0.269925
0.014881571 -0.0017008331 -0.269925
0.08213754 -0.00063529611 -0.269925
-0.073282473 0.017309271 -0.269925
-0.026388973 0.011940735 -0.269925
0.10119144 0.012199281 -0.269925
-0.30451933 0.027013458 -0.269925
-0.28646952 0.029652797 -0.269925
-0.23827268 0.028957345 -0.269925
0.18018267 0.022483502 -0.269925
0.28416809 0.02536919 -0.269925
-0.12982515 0.035228409 -0.269925
0.29005739 0.030271726 -0.269925
0.30296001 0.042312238 -0.269925
0.16849127 0.068488128 -0.269925
-0.18605901 0.073890984 -0.269925
-0.11650222 0.079783887 -0.269925
-0.28501546 0.080476761 -0.269925
-0.21767849 0.089010134 -0.269925
0.11771544 0.081348114 -0.269925
-0.10229308 0.098315649 -0.269925
-0.061057732 0.092518516 -0.269925
-0.028955206 0.099052817 -0.269925
0.24435832 0.093494676 -0.269925
-0.28764522 0.10912716 -0.269925
-0.02751115 0.10869824 -0.269925
0.089238144 0.10551937 -0.269925
0.27516645 0.1005135 -0.269925
-0.26129165 0.11237384 -0.269925
-0.24174494 0.110872 -0.269925
-0.28174642 0.12042207 -0.269925
-0.22804284 0.12961359 -0.269925
0.056772865 0.12360702 -0.269925
-0.29703748 0.13810548 -0.269925
-0.22374097 0.14800565 -0.269925
-0.21827076 0.1488518 -0.269925
-0.14790827 0.15295801 -0.26094583
0.23626405 0.15295801 -0.26732481
0.26646736 0.15187141 -0.269925
0.27160951 0.15165947 -0.269925
-0.29156849 0.19484022 -0.269925
-0.24996595 0.22180088 -0.269925
-0.2150127 0.22104156 -0.269925
-0.325409 0.23768821 -0.2691831
-0.26064578 0.23469083 -0.269925
-0.26426581 0.25565445 -0.269925
-0.16524866 -0.26692599 -0.25325999
-0.049369812 -0.26692599 -0.25040713
-0.325409 -0.2502532 -0.25124717
0.31341201 -0.19079877 -0.25965583
-0.325409 -0.10541765 -0.25853634
-0.325409 0.044625975 -0.2597723
0.31341201 0.095234282 -0.25937611
-0.090747371 0.15295801 -0.25755861
0.040652305 0.15295801 -0.25419125
-0.20163675 0.20306122 -0.25920165
-0.19795516 -0.26692599 -0.2486001
-0.325409 -0.24752466 -0.24324691
-0.325409 -0.072469667 -0.24409139
-0.325409 -0.058803316 -0.24499966
0.02126088 0.15895601 -0.24029602
0.058112368 0.154874 -0.245745
0.11903423 0.15895233 -0.245745
-0.15372607 -0.26692599 -0.23545256
0.19494838 -0.26692599 -0.23245355
0.20140722 -0.26692599 -0.23788381
-0.325409 -0.16159251 -0.23538932
-0.325409 -0.053071778 -0.23907568
-0.325409 -0.014702864 -0.23164773
-0.00084288418 0.15895601 -0.23267332
0.066578113 0.15895601 -0.23586681
-0.26270556 0.26692599 -0.23441048
0.060330845 -0.26692599 -0.22307062
0.093906499 -0.26692599 -0.22996157
0.1107893 -0.26692599 -0.22148344
0.31341201 -0.25326875 -0.22391284
0.31341201 -0.059794869 -0.2203563
-0.325409 0.095730223 -0.22976455
0.095455557 0.15895601 -0.2291739
-0.23556346 -0.26692599 -0.21806484
-0.095690623 -0.26692599 -0.21575327
0.29922768 -0.26692599 -0.21979183
-0.325409 -0.1773017 -0.21330294
-0.325409 -0.13982515 -0.21674404
-0.325409 -0.047494613 -0.21164632
0.31341201 0.046208095 -0.21415448
-0.030392587 0.15895601 -0.21281722
0.15356651 0.15895601 -0.21584396
0.26964471 0.15895601 -0.21634072
-0.325409 0.20565611 -0.21143353
-0.325409 0.21073109 -0.21545395
-0.29447103 0.26692599 -0.21756504
-0.15051666 -0.26692599 -0.20099741
-0.018578663 -0.26692599 -0.20451212
0.05642271 -0.26692599 -0.20280024
0.14663994 -0.26692599 -0.20850582
0.31341201 -0.23335287 -0.20872261
0.31341201 -0.026428189 -0.20432566
0.31341201 -0.018959325 -0.20878419
-0.325409 0.048179496 -0.20294243
0.31341201 0.10911444 -0.20384002
0.13367958 0.15895601 -0.20076467
0.16481885 0.15895601 -0.2007679
0.16958094 -0.26692599 -0.19811645
-0.325409 -0.23923421 -0.19776049
-0.325409 -0.036098626 -0.19510007
-0.325409 -0.027339548 -0.19670135
0.31341201 0.13835564 -0.19800691
-0.14683303 0.15295801 -0.19002897
0.051204361 0.15895601 -0.19702992
0.14685425 0.15895601 -0.19356909
0.19131562 0.15895601 -0.1983062
-0.21779649 -0.26692599 -0.18134317
-0.12598641 -0.26692599 -0.18233997
-0.010935113 -0.26692599 -0.18815643
0.076967604 -0.26692599 -0.18981822
0.14941549 -0.26692599 -0.18161079
0.19852977 -0.26692599 -0.18713288
-0.15212697 0.15295801 -0.18839091
-0.2272041 0.23979615 -0.18023761
0.089799054 -0.26692599 -0.17683601
0.097218066 -0.26692599 -0.17720921
0.21952485 -0.26692599 -0.17068364
0.31341201 -0.23081315 -0.17582409
-0.325409 -0.12797672 -0.17979622
0.31629565 -0.046194479 -0.17725563
0.32272807 -0.036242392 -0.17497501
0.31341201 0.10470764 -0.17911081
0.31341201 0.12811701 -0.17926444
0.044122655 0.15895601 -0.17540836
0.070256442 0.15895601 -0.17683497
-0.18387651 0.17754453 -0.1776007
-0.17919189 0.17081395 -0.17155957
-0.32498971 -0.26692599 -0.1675313
-0.23160183 -0.26692599 -0.1675435
-0.16503522 -0.26692599 -0.16543928
0.241117 -0.26692599 -0.16438884
-0.325409 -0.22760794 -0.16756615
0.325409 -0.11434493 -0.16968143
-0.325409 -0.081564933 -0.16814919
0.325409 -0.089793563 -0.16489522
0.31341201 0.072899103 -0.16883463
0.18543574 0.15895601 -0.16427325
0.26361653 0.15895599 -0.16064385
-0.325409 0.20137051 -0.16331115
-0.23486748 0.25080544 -0.16566047
-0.20254964 -0.26692599 -0.15663408
-0.069416009 -0.26692599 -0.15896702
0.011524253 -0.26692599 -0.1549437
0.19432694 -0.26692599 -0.15841357
-0.325409 -0.24423686 -0.15555945
0.31921372 -0.095034949 -0.15101936
0.025269605 -0.081621557 -0.15429978
0.14845572 -0.083357371 -0.15387525
0.027805097 -0.07035365 -0.15412675
0.17703046 -0.075145192 -0.15423237
0.325409 -0.074177392 -0.15451233
0.30345878 -0.053646825 -0.15375946
0.041331984 -0.046530236 -0.153603
0.24266067 -0.047707226 -0.15362889
0.25639307 -0.040505618 -0.15347056
-0.013031621 -0.034604341 -0.15213673
0.011857625 -0.037195642 -0.15289237
0.31341201 0.094728433 -0.15595534
0.31341201 0.13452759 -0.15619239
-0.14322832 0.15295801 -0.15375639
0.11293758 0.15895601 -0.15804891
0.31341201 0.15208912 -0.15590471
-0.28392127 0.26692599 -0.15261506
-0.030481964 -0.26692599 -0.14412887
0.1670931 -0.26692599 -0.14053588
0.21185473 -0.26692599 -0.14950809
0.325409 -0.16002688 -0.14705768
0.034613255 -0.12859696 -0.14093149
0.21887365 -0.12349429 -0.14372975
0.089635119 -0.11366452 -0.14646335
0.18487149 -0.1117671 -0.14692733
-0.066486895 -0.10596942 -0.14834522
-0.325409 -0.039372884 -0.14967632
-0.02771816 -0.016293978 -0.14679667
0.22440104 -0.015664894 -0.1466132
0.24592099 -0.018570717 -0.1474607
0.26627052 -0.012159729 -0.1455909
0.19287002 -0.0058187651 -0.14374152
0.13606232 0.15895601 -0.14981668
0.1602225 0.15895601 -0.14414543
0.19512902 0.15895602 -0.14757249
-0.32540897 0.20918189 -0.14772436
-0.22991522 0.24369062 -0.14630403
-0.325409 -0.26037505 -0.1305784
-0.23971829 -0.26692599 -0.13030429
0.10904676 -0.26692599 -0.13181522
0.31341201 -0.25704229 -0.1364354
0.31341201 -0.18562996 -0.13618264
-0.013251852 -0.14395581 -0.13250881
0.10327531 -0.14163317 -0.13378252
-0.325409 -0.13794947 -0.13016737
-0.014117986 -0.13749157 -0.13605374
0.03057399 -0.13636613 -0.13667093
0.31930834 -0.13575062 -0.13700846
-0.325409 -0.11671615 -0.13408288
-0.085476197 -0.1087114 -0.13230568
-0.325409 -0.060661301 -0.13319033
0.098458707 0.0073320763 -0.13807212
0.13984463 0.0073912148 -0.13803622
-0.047392588 0.016676173 -0.13239992
-0.017136898 0.014085192 -0.13397276
0.058294956 0.011296547 -0.13566557
0.14503457 0.011294022 -0.13566712
0.32346657 0.055975802 -0.13276391
0.31341201 0.10572632 -0.13736194
-0.15147537 0.15295801 -0.13801661
0.060648665 0.15895601 -0.13740858
0.075405337 0.15895601 -0.13436843
0.18752548 0.15895601 -0.13959035
-0.28038028 -0.26692599 -0.12281191
-0.098346546 -0.26692599 -0.12549867
-0.016735405 -0.26692599 -0.12563218
0.12131526 -0.26692599 -0.12050465
-0.325409 -0.18312621 -0.12852386
0.325409 -0.17739342 -0.12364472
-0.039254025 -0.15510885 -0.12639278
-0.009150926 -0.15295245 -0.12757523
0.1105558 -0.15988676 -0.12360582
0.27059922 -0.15914789 -0.12417801
0.29174504 -0.15644845 -0.12565823
0.079953045 -0.14879087 -0.12985732
-0.084916472 0.028682461 -0.12511159
0.017548617 0.02085002 -0.12986621
-0.21021576 0.215388 -0.1289285
-0.2119242 0.22901866 -0.12532055
-0.31132436 -0.26692599 -0.11502732
-0.29190508 -0.26692599 -0.11256751
-0.12848943 -0.26692599 -0.11941399
-0.325409 -0.1650514 -0.1172891
0.026950721 -0.16623645 -0.11752921
-0.08547619 -0.12316819 -0.11964394
0.25031668 0.038764227 -0.11850716
0.0076230839 0.040215395 -0.11699077
0.31341201 0.109882 -0.11065248
-0.13173668 0.15895601 -0.1108862
0.042690363 -0.26692599 -0.10212867
0.21300673 -0.26692599 -0.10002653
-0.325409 -0.15199803 -0.10413359
-0.079305381 0.047388505 -0.10949527
0.05450822 0.054795414 -0.10175542
0.21278991 0.050005477 -0.10676067
0.31341201 0.0906775 -0.109401
-0.027714798 0.15895601 -0.10055364
-0.325409 0.21871868 -0.10650727
-0.22953692 0.24839818 -0.10579774
0.31179166 -0.26692599 -0.093495719
-0.325409 -0.23835525 -0.099338241
0.31341201 -0.23893458 -0.096397161
-0.325409 -0.19611023 -0.091716424
0.26985788 -0.18963504 -0.09513633
0.27749181 -0.18538788 -0.099201202
0.31341201 -0.0960797 -0.091547087
0.31341201 -0.08365123 -0.095755503
-0.085476197 -0.025299288 -0.093530431
-0.085476205 0.033246804 -0.099284068
0.31341201 0.038380224 -0.092932135
0.16841808 0.060809996 -0.095470488
-0.11073413 0.15895601 -0.090531662
0.18128158 0.15895601 -0.098292574
-0.17614771 0.16643946 -0.093480445
0.25985545 -0.26692599 -0.081849113
0.16439772 -0.19316132 -0.089595124
0.29541984 -0.19434911 -0.087638423
-0.085476205 -0.068761319 -0.087658264
0.31341201 -0.014561799 -0.089654282
-0.085069291 0.067555472 -0.087903596
-0.055099301 0.06979081 -0.083827607
0.24615972 0.070470572 -0.082588129
0.325409 0.094391428 -0.086399786
-0.027830243 0.15895601 -0.081663758
0.059594586 0.15895601 -0.083862513
-0.22478393 -0.26692599 -0.079479739
-0.095893547 -0.26692599 -0.071897984
-0.070251361 -0.26692599 -0.076185793
0.044791661 -0.26692599 -0.079835117
0.21257868 -0.26692599 -0.075893007
-0.325409 -0.1953457 -0.072038785
-0.325409 -0.071645103 -0.079784103
-0.085476197 -0.045260135 -0.075876616
-0.08547619 0.058731053 -0.073865332
0.0093763694 0.074660614 -0.074947596
0.16386153 0.15895601 -0.079700299
-0.325409 0.21874547 -0.071986079
-0.2305948 0.24466702 -0.074806973
-0.2092835 -0.26692599 -0.063516438
-0.013855241 -0.26692599 -0.069075637
0.07413476 -0.26692599 -0.06143292
0.22800347 -0.26692599 -0.062808089
0.14356762 -0.20930541 -0.063000232
0.23624881 -0.20770606 -0.065634951
-0.085476205 -0.12421864 -0.062470332
-0.085476197 -0.057183936 -0.069232434
0.31943405 0.079768308 -0.065633602
-0.043576621 0.15895601 -0.060301818
0.12685804 0.15895601 -0.061499033
0.23823343 0.15895601 -0.062802613
-0.325409 0.25264329 -0.063974991
-0.27169284 -0.26692599 -0.050703324
-0.054910257 -0.26692599 -0.057007819
-0.325409 -0.14893028 -0.054778945
-0.08547619 -0.12495615 -0.050723538
0.31341201 -0.10503364 -0.053915828
-0.325409 -0.098853551 -0.053813607
-0.08547619 -0.046713028 -0.055803984
0.31341201 -0.036845718 -0.053055491
-0.085476197 -0.028903976 -0.055246972
-0.085476197 0.063314065 -0.051943753
0.325409 0.086997002 -0.059542023
0.31341201 0.11191356 -0.058676913
0.17340805 0.15895601 -0.05353082
-0.325409 0.18726501 -0.052766658
-0.26684624 0.26692599 -0.050012708
-0.1484379 -0.26692599 -0.047123305
-0.011622116 -0.26692599 -0.041669853
-0.0041294768 -0.26692599 -0.044103846
0.31341201 -0.25802043 -0.041984249
0.15089628 -0.21615364 -0.04425168
0.18463153 -0.21649688 -0.043074735
0.2004983 -0.21627933 -0.043820668
-0.325409 -0.20739838 -0.040088169
-0.085476197 -0.18670005 -0.048617616
-0.085476197 -0.16750275 -0.041215718
-0.325409 0.01660452 -0.041491114
-0.325409 0.071505457 -0.044274718
0.20359504 0.087848522 -0.049472328
-0.325409 0.1269767 -0.047291297
-0.16292502 0.15295801 -0.044798993
0.23043562 0.15895601 -0.043356687
-0.3097598 -0.26692599 -0.030763663
-0.24364816 -0.26692599 -0.034360167
-0.13525668 -0.26692599 -0.034411974
0.0033196956 -0.26692599 -0.036384374
0.012289918 -0.26692599 -0.037512511
-0.085476197 -0.082892314 -0.035081711
0.31341201 -0.087859102 -0.035050061
0.31341201 -0.018294767 -0.033754759
0.31341201 0.0042106248 -0.038696535
0.31341201 0.013451628 -0.037767459
0.31341201 0.023804536 -0.038090464
-0.085476197 0.033641394 -0.035097267
0.31341201 0.085538872 -0.034655795
0.084255055 0.091041543 -0.036413923
0.31341201 0.13378391 -0.037392449
0.102523 0.15895601 -0.033089966
-0.18700518 0.18203929 -0.031486962
-0.03040953 -0.26692599 -0.029478356
-0.073693149 -0.22249162 -0.022521518
0.2696273 -0.22162887 -0.025478827
-0.325409 -0.16693373 -0.025250748
0.31341201 -0.15271644 -0.025534945
-0.325409 0.051285423 -0.023757
-0.047778077 0.093724817 -0.025441395
-0.10127398 0.15895601 -0.025269955
0.070452146 0.15895601 -0.026159927
-0.19198507 0.18919447 -0.025779948
-0.325409 0.25575602 -0.025432542
-0.26293221 0.26692599 -0.026721671
-0.25397095 0.26692599 -0.028924145
-0.27399006 -0.26692599 -0.01361797
-0.26766914 -0.26692599 -0.01930102
0.23095767 -0.26692599 -0.011677746
-0.0038174763 -0.22326097 -0.019884329
0.20960544 -0.22384182 -0.016135547
0.31341201 -0.21879864 -0.012597593
-0.085476197 -0.046429936 -0.014602169
-0.325409 -0.0062702806 -0.015416208
0.31341201 -0.0025024815 -0.016025115
0.023500435 0.095167607 -0.019541517
0.19416901 0.097103901 -0.011623561
0.27507079 0.096381739 -0.014576659
0.31341201 0.12543708 -0.01644041
0.20633218 0.15895601 -0.010335077
0.24946198 0.15895601 -0.011683241
0.27723199 0.15372901 -0.0156525
-0.11556365 -0.26692599 -0.0094112381
0.24174316 -0.26692599 -0.0067665186
-0.0034038872 -0.22404671 -0.0068147522
-0.325409 -0.17421418 -0.0085618943
-0.085476197 -0.1423685 -0.0042637927
-0.085476197 0.038213335 -0.0056047323
0.0021950528 0.097025543 -0.00025315455
0.056225844 0.097056642 -0.0016675595
0.22945093 0.097130828 -0.0050358926
0.26828584 0.097149462 -0.0058819186
0.31694323 0.097067334 -0.0021529002
-0.15871143 0.15295801 -0.0018198341
-0.069746122 0.15895601 -0.0030827895
-0.030404905 0.15895601 -0.0011150688
0.30678564 0.15295801 -0.0016159713
-0.20095876 0.20208785 -0.00075323693
-0.325409 -0.25340855 0.0068832189
-0.070369378 -0.22419699 2.1782645e-05
-0.085476197 0.010449678 0.0033794071
-0.015120104 0.096991181 0.0013113674
0.090089433 0.09687876 0.0064286543
0.30024311 0.096875846 0.0065611876
0.31789207 0.096908242 0.0050869877
0.051690504 0.15895601 0.0011666976
-0.19991085 0.20058218 0.005819954
-0.22199246 0.23230788 0.0082584238
-0.27395684 0.26692599 0.0028891563
-0.31631494 -0.26692599 0.010191306
0.24737784 -0.26692599 0.012830973
0.065970972 -0.2246255 0.019518903
0.1607461 -0.22447413 0.012628766
0.27316892 -0.22453488 0.015393609
-0.325409 -0.21922931 0.012307271
-0.325409 -0.2098971 0.010775506
-0.085476205 -0.18874094 0.014904845
-0.325409 -0.17467618 0.012733229
-0.325409 -0.062546872 0.010090023
0.31341201 -0.056803934 0.010281166
0.31341201 -0.028417073 0.016817089
0.31341201 0.014811729 0.013361502
-0.325409 0.082911678 0.015112787
0.29496649 0.096796475 0.010174274
-0.325409 0.13071916 0.011264443
0.065083124 0.15895601 0.017302327
0.19744191 0.15895601 0.018933363
-0.325409 0.20689145 0.01725769
-0.20306599 0.20511547 0.016300038
-0.26883075 0.26692599 0.011666939
0.0079854429 -0.26692599 0.025360741
0.074773259 -0.26692599 0.021767952
-0.085476197 -0.19323285 0.023870144
0.31341201 -0.17437121 0.02604232
-0.325409 -0.084318675 0.02874738
-0.325409 0.02304741 0.028615773
0.31341201 0.028796922 0.02491213
0.31341201 0.035855979 0.02697577
0.31341201 0.064832419 0.025087599
-0.325409 0.083604544 0.024668889
0.095097721 0.096402049 0.028129149
0.31341201 0.14144546 0.028046831
0.27904239 0.15295801 0.026373491
-0.31842941 -0.26692599 0.035407163
-0.2236792 -0.26692599 0.033198982
-0.21874043 -0.26692599 0.039579846
-0.14507492 -0.26692599 0.039374448
-0.055081725 -0.26692599 0.039010253
-0.027441755 -0.26692599 0.034727193
-0.325409 -0.23123807 0.038655423
-0.085451856 -0.22326165 0.030232262
0.20230842 -0.22193132 0.035672493
-0.325409 -0.17885394 0.037441172
-0.085476197 -0.15490672 0.038993187
-0.085476197 -0.12918398 0.03808685
-0.085476197 -0.041063197 0.039936136
0.31341201 0.032840166 0.031060031
0.2726211 0.095787674 0.033158693
0.097585194 0.15895602 0.031058989
0.26840094 0.15895601 0.036501475
-0.31714913 0.26692599 0.037715826
-0.24569026 0.26635593 0.035351813
-0.061030254 -0.26692599 0.043270834
0.17337351 -0.26692599 0.040758703
0.24476676 -0.26692599 0.046240136
0.27320489 -0.26692599 0.049192611
-0.085476197 -0.11489084 0.046081923
-0.325409 -0.095845036 0.046619892
-0.085476197 -0.074631602 0.044960715
-0.085476197 0.068865903 0.045195244
0.031234965 0.091690943 0.047204018
0.11866928 0.092124023 0.045719113
0.31341201 0.12814645 0.045952417
-0.325409 0.13498101 0.046067789
-0.325409 0.17129278 0.048495166
-0.29604799 -0.26692599 0.057840772
-0.26598805 -0.26692599 0.051964201
-0.099914223 -0.26692599 0.058011882
-0.057424586 -0.26692599 0.055260252
0.072165273 -0.26692599 0.055457689
0.24831796 -0.26692599 0.053956851
-0.054081909 -0.21780169 0.05256037
0.15689671 -0.21812938 0.051220249
0.29518509 -0.21765186 0.053173024
-0.325409 -0.16097356 0.053859003
0.31341201 -0.012582023 0.058955081
-0.325409 -0.0053427815 0.05458194
0.24657057 0.090200201 0.052315325
-0.325409 0.13599062 0.058890056
-0.038468838 0.15895601 0.05215444
0.012187097 0.15895601 0.055976499
0.092780828 0.15895601 0.051912576
0.15566461 0.15895601 0.057827815
0.23249863 0.15895601 0.053654775
-0.325409 0.26442432 0.052573673
-0.25005364 0.26692599 0.05411464
0.0087936036 -0.26692599 0.063617349
-0.037524447 -0.21293795 0.068490244
0.21731746 -0.21277979 0.068778619
0.31341201 0.022457868 0.060091779
0.099858016 0.08663179 0.06455037
0.13347879 0.086424902 0.06525971
0.16834591 0.085218765 0.069395185
0.01718951 0.15895601 0.064670518
0.02911783 0.15895601 0.065543741
0.15114461 0.15895601 0.061626956
0.24481478 0.15895601 0.069094419
0.19155338 -0.26692599 0.07070142
0.2586166 -0.26692599 0.076180823
0.24849156 -0.21168844 0.070768543
0.31341201 -0.20120531 0.071168602
0.31341201 -0.11498892 0.074706055
-0.085476197 -0.10724329 0.071662754
-0.085476205 -0.033821635 0.079332873
-0.325409 -0.029471971 0.070590563
-0.325409 0.028180072 0.071773216
-0.094730228 0.15895601 0.07907933
-0.22077221 0.230555 0.079031207
-0.25518814 0.26692599 0.077072755
-0.028362691 -0.26692599 0.08901003
0.19275957 -0.26692599 0.085027739
0.20848879 -0.26692599 0.082501486
0.31992111 -0.22715822 0.082478285
-0.325409 -0.20753355 0.086883992
0.22682907 -0.20282301 0.086933412
0.23139745 -0.20200835 0.088418819
-0.085476197 -0.18010716 0.086986654
-0.085476197 -0.13219891 0.081950247
-0.085476197 -0.059298046 0.084271394
0.31341201 0.029473424 0.083833016
-0.085476197 0.069004983 0.084205598
-0.062817588 0.074663959 0.088072725
0.30652407 0.077718839 0.083040342
-0.325409 0.13464665 0.089003056
-0.025841378 0.15895601 0.083709739
0.19165349 0.15895601 0.081444241
0.31327739 0.15295801 0.085868143
-0.3178587 -0.26692599 0.095500261
-0.21847594 -0.26692599 0.093140751
-0.014815062 -0.26692599 0.091860883
0.31341201 -0.25066131 0.095333971
0.31341201 -0.23926523 0.090130217
0.31868777 -0.22157028 0.094030917
0.06283088 -0.20097469 0.090303555
-0.067948692 -0.19833396 0.095118679
0.11176956 -0.19796562 0.095790394
0.26624218 -0.19783594 0.096026905
-0.325409 -0.17157103 0.093415461
-0.085476197 -0.1665888 0.095405504
0.31341201 -0.13335709 0.093394406
-0.085476197 -0.057340309 0.094397023
0.31341201 -0.0079354029 0.098652869
0.059613965 0.067982234 0.099079728
0.10168603 0.070658937 0.094670311
-0.14471835 0.15295801 0.096350446
-0.22320661 0.23405261 0.09027338
-0.325409 0.2439726 0.091570884
-0.325409 0.26042461 0.099336036
0.16725293 -0.26692599 0.10052209
0.28353727 -0.26692599 0.10481883
-0.325409 -0.25467375 0.10811064
0.23015198 -0.19311818 0.10366547
0.25649452 -0.19294959 0.10384165
-0.085476197 -0.1896916 0.10097516
0.12553307 -0.18972161 0.10721471
-0.325409 -0.121099 0.10693104
0.11471249 0.062705442 0.10777234
-0.052801281 0.15895601 0.10622828
0.073504701 0.15895599 0.10386349
0.20499499 0.15895601 0.10126461
-0.325409 0.17955506 0.10134166
-0.30432943 0.26692599 0.10931291
-0.29251099 0.26692599 0.1058163
-0.24930455 -0.26692599 0.1165491
0.13775432 -0.26692599 0.1120782
-0.325409 -0.13096263 0.11654774
0.25436723 0.059954111 0.11050892
-0.031220526 0.15895601 0.11031696
0.060018592 0.15895601 0.11119309
0.071892366 0.15895601 0.11790257
-0.32503358 -0.26692599 0.12959442
-0.083986819 -0.26692599 0.12317412
-0.042932987 -0.26692599 0.12078056
0.11200845 -0.26692599 0.12815307
0.21450812 -0.26692599 0.1268675
-0.325409 -0.21053585 0.12287138
0.14170338 -0.17293414 0.12475659
-0.325409 -0.037514463 0.12419859
-0.085476205 -0.031298991 0.12379746
-0.325409 -0.024262294 0.12547153
-0.325409 -0.011010665 0.12450817
-0.085476197 0.0094289854 0.12647118
-0.325409 0.048821468 0.12841851
-0.028017364 0.049816687 0.12021047
0.10392608 0.040594153 0.12903598
-0.103879 0.15895601 0.12317467
-0.058314465 0.15895601 0.12046428
-0.0073974505 0.15895601 0.12403429
0.11757752 0.15895601 0.1214298
0.30578333 0.15295801 0.12000234
0.064362437 -0.16525775 0.13277832
0.047905914 -0.15903199 0.13661522
0.17168236 -0.15477164 0.13920134
0.31341201 -0.14767304 0.13423038
-0.085476197 0.0081671001 0.13240048
-0.25719944 0.26692599 0.1312675
-0.26066977 -0.26692599 0.14046362
-0.23700213 -0.26692599 0.14871217
-0.0079138521 -0.1511517 0.14139874
0.18428315 -0.13743868 0.14972287
-0.325409 -0.11233196 0.14649543
0.31341201 -0.10232489 0.14433917
-0.325409 0.020140074 0.14930856
-0.032047357 0.022595095 0.14241403
-0.325409 0.10423738 0.14884886
0.31341201 0.12117878 0.14376271
-0.10061734 0.15895601 0.14179736
-0.00662902 0.15895601 0.14460216
0.25348359 0.15895601 0.14833587
-0.19565326 0.19446373 0.14824568
0.044156782 -0.12978652 0.15436931
0.31341201 -0.029972916 0.15465641
0.30230311 -0.013534314 0.15965155
0.043248624 -0.005530816 0.15769516
0.20209795 -0.00012572668 0.15487419
-0.037756607 0.0045266161 0.15232283
0.31598973 0.044284645 0.15104505
-0.325409 0.11313675 0.15361097
0.31341201 0.11576246 0.15854496
0.18982178 0.15895601 0.15219058
0.22410242 0.15895601 0.15909758
-0.325409 0.24192876 0.15880793
-0.325409 0.26542252 0.15588331
-0.2844556 0.26692599 0.15004569
-0.19135264 -0.26692599 0.1626222
-0.1820595 -0.26692599 0.16971627
-0.17024741 -0.26692599 0.16607332
-0.14396773 -0.26692599 0.16322172
0.31341201 -0.20000765 0.16179204
0.325409 -0.13869388 0.16266432
0.325409 -0.11141762 0.165602
0.080713481 -0.10935249 0.16058174
-0.041249461 -0.090574063 0.16605811
0.2565822 -0.094908319 0.16479422
0.28024894 -0.098937407 0.16361928
0.31212342 -0.09237501 0.16553295
-0.067236654 -0.087656841 0.16670927
0.031247102 -0.080766432 0.16686076
0.15040629 -0.082505502 0.16682251
0.061145417 -0.06358438 0.16723846
0.074349865 -0.061199978 0.16729087
0.20520604 -0.068726316 0.16712542
0.24539584 -0.064950727 0.16720842
0.25368214 -0.066559985 0.16717304
0.26133677 -0.052440908 0.16748336
0.17826481 -0.049754232 0.16754237
0.21811102 -0.048745189 0.16756453
0.236744 -0.040731005 0.16630211
0.26090276 -0.049653322 0.16754459
0.18694356 -0.035239093 0.16495912
0.27215654 -0.031108398 0.16394901
-0.023654737 -0.024845723 0.16241753
0.29783517 -0.015242819 0.16006926
-0.06447082 0.15895601 0.16553119
0.2596952 0.15895601 0.16954255
-0.22585602 0.23799825 0.16393153
-0.091418207 -0.26692599 0.17712399
0.086474851 -0.26692599 0.17985043
0.22720516 -0.26692599 0.17060274
0.31341201 -0.13251944 0.17967705
-0.325409 -0.03188704 0.17385226
0.31341201 0.014424305 0.17858997
0.31341201 0.091941983 0.1762431
-0.325409 0.14785191 0.17859811
-0.325409 0.15926024 0.17597294
0.16321729 0.15895601 0.17741315
0.207247 0.15895601 0.17143679
0.26386556 0.15895601 0.17991602
-0.24644299 -0.26692599 0.18785103
-0.19331798 -0.26692599 0.18922336
-0.013636217 -0.26692599 0.18348238
-0.0027399212 -0.26692599 0.18375592
0.19325885 -0.26692599 0.18791366
-0.32540897 -0.24056667 0.18599626
-0.325409 -0.11864243 0.18099108
0.32267302 -0.11254901 0.18005209
0.31968147 -0.022690721 0.18291336
-0.064067036 0.15895599 0.1812268
-0.325409 0.1673058 0.18476239
-0.19378529 0.23408613 0.18346444
-0.325409 0.24790844 0.18278244
-0.31411895 -0.26692599 0.19009808
-0.2196523 -0.26692599 0.1914961
-0.15446554 -0.26692599 0.19428536
-0.10564422 -0.26692599 0.19902852
0.15372342 -0.26692599 0.19455704
-0.325409 -0.25999442 0.19354141
0.31341201 -0.19246195 0.19904992
0.31341201 -0.15784103 0.19939396
-0.325409 -0.030715533 0.1964846
0.31341201 0.095910445 0.19646999
-0.325409 -0.26560628 0.20405613
0.21725757 -0.26692599 0.20294429
0.2489439 -0.26692599 0.20944633
-0.325409 -0.17273797 0.20242724
0.31341201 -0.089482591 0.20778415
0.028131045 0.15895602 0.20708811
0.13195378 0.15895601 0.20303777
-0.19274032 0.20896433 0.20829749
-0.24429688 0.26435378 0.20686837
-0.31150693 -0.26692599 0.21314231
0.1544989 -0.26692599 0.21828976
0.31341201 -0.14561519 0.2155246
0.31341201 -0.014074374 0.21415441
-0.325409 0.052679911 0.21937767
0.31341201 0.084149428 0.2162317
0.17303669 0.15895601 0.21261655
-0.24048731 0.25888032 0.21270397
-0.31510413 0.26692599 0.21847743
-0.18336865 -0.26692599 0.22863755
0.0025811642 -0.26692599 0.22674322
0.058476433 -0.26692599 0.22341368
0.093239412 -0.26692599 0.22829613
0.1781787 -0.26692599 0.22489801
0.22454542 -0.26692599 0.22080187
0.24531126 -0.26692599 0.22197172
0.31341201 -0.26269981 0.22812773
0.31341201 -0.21228901 0.22372757
0.31341201 -0.13851166 0.22078827
0.31341201 -0.03390969 0.22538251
0.14181881 0.15895601 0.22345725
-0.18499202 0.17914683 0.22475386
-0.12369994 -0.26692599 0.23358393
0.16090494 -0.26692599 0.23944835
-0.325409 -0.19017863 0.23317038
-0.325409 -0.1074425 0.23488228
-0.325409 -0.064470403 0.23584157
-0.325409 -0.037300125 0.23173636
0.31341201 -0.0071195364 0.23602599
-0.325409 0.031029589 0.23996736
-0.325409 0.15763515 0.23873062
-0.13897617 0.15895601 0.23695818
0.16270502 0.15895601 0.23171544
0.30850229 0.15295801 0.23696855
-0.325409 0.16298479 0.23006338
-0.19153951 0.20430364 0.23283193
-0.325409 0.22293076 0.23294933
-0.20525122 0.22400403 0.23690096
-0.32540897 0.23501252 0.23276693
-0.30085853 -0.26692599 0.24717262
0.20748696 -0.26692599 0.24336012
-0.325409 -0.16525626 0.24743082
0.31341201 -0.08099629 0.2444779
0.31341201 -0.034805693 0.24395911
-0.325409 -0.021960787 0.24947268
0.31341201 -0.021671981 0.24895445
-0.325409 0.050232105 0.24091434
-0.32540897 -0.26331419 0.25414425
0.19473562 -0.26692599 0.25936794
-0.325409 -0.085754171 0.25875479
0.31341201 0.039135501 0.25566268
-0.325409 0.043745864 0.25971282
-0.325409 0.1074008 0.25339472
0.24068159 0.15295801 0.25442109
-0.26062477 -0.26692599 0.26749068
-0.22882859 -0.26692599 0.26762006
-0.12087795 -0.26692599 0.26722959
0.080271773 -0.2668491 0.269925
-0.13493374 -0.25153959 0.269925
-0.085181639 -0.25953552 0.269925
0.26958495 -0.25083882 0.269925
-0.29610023 -0.24828386 0.269925
-0.07713303 -0.2405522 0.269925
-0.046660237 -0.24158725 0.269925
0.21321599 -0.24815883 0.269925
-0.22263819 -0.23766083 0.269925
-0.14400572 -0.23558936 0.269925
-0.1312381 -0.23309259 0.269925
-0.080709562 -0.23460872 0.269925
-0.048620731 -0.23867923 0.269925
0.1521536 -0.23077211 0.269925
0.04171893 -0.22420307 0.269925
0.080528498 -0.22298142 0.269925
0.28384238 -0.22232968 0.269925
-0.29755348 -0.21048914 0.269925
-0.020719759 -0.21596035 0.269925
0.12077348 -0.21778615 0.269925
-0.28395882 -0.2062618 0.269925
-0.22932592 -0.20374212 0.269925
-0.23348069 -0.19153227 0.269925
-0.20974833 -0.19937751 0.269925
-0.15318769 -0.19160379 0.269925
-0.061592817 -0.19439663 0.269925
-0.037480362 -0.19916627 0.269925
0.023291908 -0.19392043 0.269925
-0.17154624 -0.18570583 0.269925
-0.06196928 -0.18049341 0.269925
-0.23665039 -0.17531097 0.269925
-0.012406498 -0.17575634 0.269925
0.20079255 -0.17557624 0.269925
-0.29755279 -0.16812682 0.269925
-0.22466274 -0.16848184 0.269925
-0.1026049 -0.16589409 0.269925
0.059270535 -0.16818915 0.269925
0.15145296 -0.16168815 0.269925
0.25274998 -0.16963013 0.269925
-0.27061969 -0.15087877 0.269925
-0.22504024 -0.15347317 0.269925
-0.17360525 -0.1528137 0.269925
-0.06432724 -0.15325189 0.269925
0.0080505908 -0.15922664 0.269925
-0.30433923 -0.14057793 0.269925
-0.11508251 -0.14901184 0.269925
0.10478168 -0.14311007 0.269925
0.16015553 -0.14556186 0.269925
0.13561289 -0.13249788 0.269925
0.27978346 -0.13715619 0.269925
0.31341201 -0.13741542 0.26705551
-0.24798042 -0.1278373 0.269925
-0.17530051 -0.12512936 0.269925
-0.08012446 -0.12072274 0.269925
-0.20779048 -0.10921343 0.269925
-0.16239475 -0.10382989 0.269925
-0.097008221 -0.10294695 0.269925
-0.031616751 -0.10411115 0.269925
0.06606032 -0.10423016 0.269925
0.22539926 -0.10776345 0.269925
0.25833175 -0.10216122 0.269925
0.31241694 -0.10525318 0.269925
-0.32380563 -0.093031809 0.269925
-0.24570543 -0.090255007 0.269925
-0.23094654 -0.091726765 0.269925
-0.025424359 -0.090720251 0.269925
-0.24030471 -0.076545022 0.269925
-0.060794212 -0.070105359 0.269925
-0.26591712 -0.068302214 0.269925
-0.31684005 -0.056666091 0.269925
-0.29934651 -0.048632383 0.269925
-0.038234744 -0.042183187 0.269925
0.11148328 -0.041994356 0.269925
-0.29180127 -0.036023721 0.269925
-0.17843871 -0.030594602 0.269925
-0.11321596 -0.032970093 0.269925
0.038801789 -0.038542159 0.269925
0.050133944 -0.033170789 0.269925
0.13350806 -0.038879015 0.269925
-0.23289987 -0.027119204 0.269925
-0.20658019 -0.024313577 0.269925
0.027748153 -0.024335749 0.269925
0.2378411 -0.020636968 0.269925
0.11551922 -0.019174106 0.269925
-0.15111771 -0.0067531541 0.269925
-0.10734119 -0.0062782615 0.269925
-0.092254467 -0.0044964291 0.269925
-0.038840055 -0.0047138482 0.269925
0.2002016 -0.0097252131 0.269925
0.23065926 -0.0049079955 0.269925
-0.00078561902 0.0031700358 0.269925
0.12760085 0.014462985 0.269925
-0.15703936 0.025990523 0.269925
-0.003798021 0.02527969 0.269925
0.22133508 0.021205053 0.269925
-0.19375592 0.037510417 0.269925
-0.31281939 0.049519643 0.269925
0.060675718 0.049937218 0.269925
-0.089647345 0.052964784 0.269925
-0.036878843 0.056768786 0.269925
0.062933765 0.053617463 0.269925
0.22479695 0.066249892 0.269925
-0.27143463 0.074567698 0.269925
-0.011728236 0.085025981 0.269925
-0.1253854 0.090098098 0.269925
0.12327583 0.098166093 0.269925
0.19964652 0.093755618 0.269925
0.23100731 0.09942659 0.269925
-0.20921218 0.10235112 0.269925
-0.096692532 0.10442988 0.269925
-0.1767717 0.11679173 0.269925
0.23866963 0.11485726 0.269925
0.2507765 0.11797039 0.269925
0.26446256 0.11000425 0.269925
-0.13770184 0.12557231 0.269925
0.10624856 0.12404777 0.269925
0.19907381 0.12426101 0.269925
0.27483943 0.12605862 0.269925
-0.286917 0.13250846 0.269925
0.18332544 0.13702512 0.269925
-0.090788148 0.14748932 0.269925
0.088853106 0.14962578 0.269925
0.20935288 0.14171976 0.269925
0.24012925 0.14289683 0.269925
-0.16130935 0.15295801 0.26284581
-0.150049 0.15295801 0.26488984
-0.099699222 0.15295801 0.26890573
0.19926895 0.15295801 0.26725096
0.20239849 0.15205365 0.269925
0.21214741 0.15061937 0.269925
-0.30964449 0.16089794 0.269925
-0.19144112 0.16180605 0.269925
-0.29056367 0.17839074 0.269925
-0.2551862 0.17913264 0.269925
-0.32540902 0.18336827 0.26625499
-0.31746623 0.18687639 0.269925
-0.27654934 0.18866789 0.269925
-0.25961927 0.19389531 0.269925
-0.20813727 0.19342536 0.269925
-0.29520646 0.21536928 0.269925
-0.28221536 0.21159983 0.269925
-0.25878993 0.21837507 0.269925
-0.26887172 0.22752844 0.269925
