# .PCD v0.7 - Point Cloud Data file format
VERSION 0.7
FIELDS x y z
SIZE 4 4 4
TYPE F F F
COUNT 1 1 1
WIDTH 967
HEIGHT 1
VIEWPOINT 0 0 0 1 0 0 0
POINTS 967
DATA ascii
0.11814179 -0.35886699 -0.29313853
0.15669319 -0.35451972 -0.29708901
-0.15071167 -0.34555075 -0.29708901
-0.15913643 -0.33740136 -0.29708901
0.12242068 -0.33490837 -0.29708901
0.17662197 -0.3381412 -0.29240525
-0.11373638 -0.32141742 -0.29708901
0.10534222 -0.3283594 -0.29708901
0.06016415 -0.31133223 -0.29708901
-0.07354036 -0.3003276 -0.29708901
-0.11750755 -0.29426554 -0.29708901
-0.06636627 -0.29651621 -0.29708901
-0.043869112 -0.29738644 -0.29708901
-0.025600409 -0.28306818 -0.29708901
0.16648515 -0.27557644 -0.2909109
-0.16740753 -0.26698941 -0.29708898
-0.15948451 -0.26400527 -0.29708904
0.027270336 -0.26513463 -0.29708901
0.1438349 -0.26053041 -0.29708901
0.16421735 -0.26666233 -0.29283121
-0.051341202 -0.24808183 -0.29708901
0.04052455 -0.24346958 -0.29708901
0.069077298 -0.2401152 -0.29708901
0.15266369 -0.24798842 -0.29705638
0.01216463 -0.23221216 -0.29708901
-0.15056488 -0.22741076 -0.29708901
0.14988156 -0.22143692 -0.29708901
0.16074844 -0.22340411 -0.29497087
0.0027237609 -0.21441604 -0.29708901
0.030605378 -0.21869951 -0.29708901
0.15775216 -0.21196917 -0.29618073
-0.094432205 -0.20058349 -0.29708901
0.025957 -0.20833676 -0.29708901
0.10155897 -0.20054445 -0.29708898
0.12292024 -0.20197421 -0.29708901
0.055857331 -0.19813748 -0.29708901
-0.038383357 -0.18250978 -0.29708901
-0.167687 -0.17452797 -0.29126745
0.12802082 -0.17762646 -0.29708901
-0.11338057 -0.16229668 -0.29708901
-0.013093837 -0.16709051 -0.29708901
0.13085476 -0.16361664 -0.29708901
0.16418721 -0.16710488 -0.29285264
-0.15170856 -0.15086798 -0.29708901
0.028165121 -0.15648437 -0.29708901
0.081215233 -0.15123163 -0.29708901
0.12466506 -0.15744829 -0.29708901
-0.16737756 -0.1418055 -0.29708901
0.13240424 -0.14435036 -0.29708901
0.14794692 -0.1482919 -0.29708901
0.12814611 -0.13536626 -0.29708901
-0.13535836 -0.12223753 -0.29708901
0.09828186 -0.12793186 -0.29708901
0.10769672 -0.11131705 -0.29708901
-0.15225196 -0.10938104 -0.29708901
-0.13592219 -0.10733705 -0.29708898
0.087561101 -0.10506666 -0.29708901
0.15016665 -0.10088657 -0.29708901
0.08331345 -0.093961231 -0.29708901
-0.12700203 -0.078257471 -0.29708901
-0.11767557 -0.073978223 -0.29708901
0.025006875 -0.076107822 -0.29708901
0.088780478 -0.075877577 -0.29708901
-0.16024265 -0.068649836 -0.29708901
-0.023473214 -0.06068131 -0.29708901
-0.0056889243 -0.067467801 -0.29708901
0.027543064 -0.061871007 -0.29708901
0.068769649 -0.068803743 -0.29708901
-0.14617036 -0.042356759 -0.29708901
-0.011934351 -0.041545779 -0.29708901
-0.093530163 -0.022859514 -0.29708901
-0.069553629 -0.029452249 -0.29708901
0.087446228 -0.022854395 -0.29708901
-0.06228935 -0.019642452 -0.29708901
-0.023509406 -0.011046141 -0.29708901
0.010224953 -0.0072488636 -0.29708901
-0.14012343 0.0027134866 -0.29708901
-0.11493626 0.0068522841 -0.29708901
-0.061006393 0.0064776191 -0.29708901
-0.092311181 0.010180134 -0.29708901
0.039115418 0.016642977 -0.29708901
0.11625991 0.011190233 -0.29708901
0.019677877 0.028947696 -0.29708901
0.093551695 0.020788101 -0.29708898
-0.11801673 0.030524336 -0.29708901
-0.060201675 0.041012429 -0.29708901
-0.12852699 0.053429171 -0.29708901
-0.077687174 0.05104826 -0.29708901
-0.053950876 0.050641116 -0.29708901
-0.023465291 0.05326613 -0.29708901
-0.06368424 0.060928859 -0.29708901
-0.035774205 0.061783835 -0.29708901
-0.15627638 0.079076216 -0.29708901
-0.038786169 0.073669642 -0.29708901
0.058676034 0.076176375 -0.29708901
0.12107261 0.079574846 -0.29708901
-0.16251782 0.081708685 -0.29708901
-0.13887762 0.08165852 -0.29708898
-0.12473943 0.087303378 -0.29708901
-0.1153883 0.089122966 -0.29708901
0.06269531 0.085736975 -0.29708901
-0.12755947 0.093469881 -0.29708901
0.13045964 0.098016426 -0.29708901
0.14420611 0.09165173 -0.29708901
0.15910672 0.096430451 -0.29577455
-0.043600891 0.10862466 -0.29708901
-0.019319158 0.10462578 -0.29708901
-0.004577145 0.10306784 -0.29708901
0.027289718 0.1088451 -0.29708901
-0.12271914 0.11198185 -0.29708901
0.00038961321 0.11239413 -0.29708901
0.12666862 0.110082 -0.29708901
0.14093079 0.11140949 -0.29708898
-0.10558227 0.12913966 -0.29708901
0.082174003 0.12303153 -0.29708901
0.058131963 0.13260245 -0.29708901
0.082151636 0.13528751 -0.29708901
-0.167687 0.14726779 -0.29528823
0.0082047433 0.14821409 -0.29708901
0.070977792 0.14554925 -0.29708901
0.088443391 0.14393088 -0.29708901
0.090055138 0.14542779 -0.29708901
0.10326944 0.14075431 -0.29708901
0.040641174 0.15709025 -0.29708901
-0.167687 0.16980571 -0.2909292
-0.167687 0.17386609 -0.29063547
-0.11330326 0.18052664 -0.29708901
-0.0055258349 0.18645778 -0.29708901
0.032368198 0.18495415 -0.29708901
-0.16045821 0.19718567 -0.29708901
-0.039890569 0.19594267 -0.29708901
0.064304963 0.19137517 -0.29708901
0.025490567 0.2029411 -0.29708901
0.035251964 0.20650624 -0.29708901
0.1244853 0.20368886 -0.29708901
-0.15934303 0.22788765 -0.29708901
0.043509774 0.22629413 -0.29708901
0.083090872 0.22409841 -0.29708901
-0.167687 0.23418808 -0.29387933
-0.047526922 0.23560908 -0.29708901
0.098106071 0.23052239 -0.29708901
-0.10475801 0.24100292 -0.29708901
0.08451578 0.24933779 -0.29708901
-0.13144253 0.2563543 -0.29829103
-0.068543524 0.25348091 -0.298291
-0.01922874 0.26265106 -0.298291
0.10530496 0.26631984 -0.298291
-0.0649845 0.27506134 -0.29829097
-0.032934211 0.27290517 -0.29708901
0.10887796 0.27966434 -0.29829103
-0.12696591 0.28967524 -0.298291
-0.050816432 0.28024751 -0.29671416
0.020880554 0.28856185 -0.29382735
0.091546804 0.28690821 -0.29762828
0.14016937 0.28569472 -0.29527465
-0.11372613 0.29287049 -0.29230332
0.04644065 0.29375929 -0.2928212
-0.167687 -0.21602021 -0.28781164
0.17278206 -0.19998123 -0.28261042
0.16994178 -0.16283347 -0.28702018
0.17258888 -0.10362059 -0.28292805
0.17314115 -0.077112064 -0.28187647
0.16754454 -0.061979119 -0.28989062
-0.167687 0.0096387267 -0.28429258
0.16917846 0.040701434 -0.28798583
-0.167687 0.079047002 -0.28620094
-0.167687 0.26678753 -0.28548178
-0.10468763 0.28198427 -0.28543979
-0.03686434 0.298233 -0.28342798
0.014572525 0.298233 -0.28450483
0.086658761 0.298233 -0.28067702
0.11984697 -0.35886699 -0.27451006
-0.167687 -0.24589993 -0.27248046
0.17455383 -0.21947381 -0.27882743
-0.167687 -0.20106697 -0.2769261
-0.167687 -0.14531291 -0.27211517
0.1765532 0.11043439 -0.27271402
0.17517869 0.15231618 -0.27714565
-0.167687 0.16178998 -0.27366453
0.17542964 0.28773111 -0.27444062
0.015770728 0.298233 -0.27458566
0.026082207 0.298233 -0.27768189
0.091761529 0.298233 -0.27033582
0.16168812 0.298233 -0.27402821
-0.105711 -0.35212436 -0.26793396
-0.167687 -0.21382251 -0.26214862
0.17807662 0.034157373 -0.262739
-0.167687 0.12343262 -0.26080614
0.1776752 0.12299096 -0.26691145
0.17752908 0.17831722 -0.26797217
-0.167687 0.1922826 -0.26073727
0.17698529 0.28157938 -0.26658982
0.037858654 0.298233 -0.26016432
0.13861492 0.298233 -0.26222092
0.14860786 0.29823303 -0.26316369
-0.15844178 0.34672752 -0.26305223
0.13389406 -0.35886699 -0.25939155
-0.105711 -0.33785254 -0.25467706
-0.167687 -0.32796592 -0.25439149
-0.167687 -0.26142579 -0.25494829
-0.167687 -0.24805827 -0.25187755
0.178213 -0.24300683 -0.25897717
-0.167687 -0.18966894 -0.25203905
-0.167687 -0.09369003 -0.25621548
-0.167687 -0.022731185 -0.25470287
0.178213 0.27603155 -0.25848249
-0.17922799 0.30580196 -0.25391248
-0.17187202 0.32373494 -0.257559
-0.14544171 0.32815737 -0.25594169
-0.16264744 0.35179296 -0.2535851
0.12929884 -0.35886699 -0.2495212
-0.14163236 -0.33985317 -0.24434701
-0.1273873 -0.33707708 -0.24434701
0.178213 -0.33769196 -0.24230626
0.178213 -0.32262522 -0.24178731
0.178213 -0.31005716 -0.24583489
-0.167687 -0.28861046 -0.24607351
-0.167687 -0.26468709 -0.24394117
-0.167687 -0.22082531 -0.24994674
0.178213 -0.20882827 -0.24787354
-0.167687 -0.024358481 -0.24640971
0.178213 0.0044242144 -0.24198392
0.178213 0.012670383 -0.24247336
0.178213 0.18300956 -0.24324885
-0.167687 0.21167092 -0.2443644
-0.16852 0.26445436 -0.24418442
-0.1122509 0.29109353 -0.24310964
-0.08908473 0.298233 -0.24926749
-0.1676373 0.35333079 -0.24869964
0.178213 -0.28764036 -0.23390391
-0.167687 -0.13324237 -0.23415786
0.178213 0.0546204 -0.23704472
0.178213 0.086971737 -0.23010245
-0.167687 0.098956242 -0.23408183
-0.167687 0.13251871 -0.23128006
-0.167687 0.14797299 -0.23440814
0.178213 0.14550053 -0.230939
0.178213 0.17068857 -0.2383946
-0.167687 0.21666829 -0.23054518
-0.167687 0.25632811 -0.23948339
-0.10847305 0.28745991 -0.2371555
-0.011104964 0.298233 -0.23819782
0.1298821 0.298233 -0.23743781
-0.17913684 0.3134962 -0.23605283
0.178213 -0.22148697 -0.22965398
0.178213 -0.044560529 -0.22038633
-0.167687 0.070992127 -0.22870916
-0.167687 0.13236487 -0.22616947
0.178213 0.1731254 -0.22308809
0.11797579 0.298233 -0.2287104
0.14032452 0.298233 -0.22553118
-0.17229421 0.34961781 -0.22008862
0.178213 -0.14676809 -0.21649788
-0.167687 0.0039702207 -0.21882288
0.178213 0.031267781 -0.21828118
-0.167687 0.063435361 -0.21235086
0.178213 0.23164177 -0.21592638
-0.167687 0.25550562 -0.21026051
0.13972257 0.298233 -0.21237241
-0.15167299 0.34355828 -0.21200034
-0.167687 -0.29048669 -0.20677115
-0.167687 -0.16040988 -0.20655712
-0.167687 0.02141194 -0.20293331
0.178213 0.046073418 -0.20197432
-0.167687 0.13060045 -0.20279273
0.178213 0.15155882 -0.20656167
0.178213 0.24105756 -0.20478448
-0.16852 0.26338977 -0.2034151
-0.14738736 0.27882901 -0.20328611
-0.10239218 0.27921945 -0.20516336
0.018285494 0.29823303 -0.20125422
-0.17927173 0.30211109 -0.20382559
-0.13019383 0.32309294 -0.20684773
-0.17110911 0.34960371 -0.20382378
0.178213 -0.29601809 -0.19449243
0.178213 -0.082180329 -0.19885236
0.178213 -0.04030215 -0.19258961
-0.167687 -0.026461542 -0.19174068
0.178213 0.10364807 -0.19259666
0.178213 0.18603843 -0.19525665
-0.17954393 0.27913487 -0.19658689
-0.12299573 0.27882904 -0.1971539
-0.11526939 0.27882901 -0.19372208
-0.12584539 0.30746669 -0.19931765
-0.12611173 0.32611495 -0.19986328
-0.167687 -0.26606739 -0.18413953
0.178213 -0.25827566 -0.18737362
0.178213 -0.2122016 -0.18379386
-0.167687 -0.17409131 -0.18247271
0.178213 -0.10774919 -0.18520424
-0.167687 0.16839892 -0.18653002
0.178213 0.23137456 -0.18091483
-0.167687 0.25843877 -0.18907915
-0.12922536 0.31153783 -0.18924677
-0.17873804 0.34715897 -0.18523949
-0.16893643 0.34957793 -0.18749407
-0.167687 -0.2268153 -0.17361033
-0.167687 -0.17882101 -0.17681201
0.178213 -0.037266571 -0.17568387
-0.167687 0.088010289 -0.17626378
0.178213 0.089592129 -0.17737669
-0.167687 0.19585855 -0.17349356
-0.16852 0.26088518 -0.17857794
0.17592783 0.28747272 -0.17776088
-0.167687 -0.29646313 -0.16792253
0.178213 -0.27412415 -0.1641814
0.178213 -0.25617844 -0.16241258
0.178213 -0.2375361 -0.16345759
-0.167687 -0.17825103 -0.16360351
-0.167687 -0.10749857 -0.16469663
-0.167687 0.034210026 -0.16812629
0.178213 0.066050686 -0.16237031
-0.167687 0.22829817 -0.1676687
-0.16851701 0.25194457 -0.16054787
0.178213 0.26480788 -0.16159931
-0.16978964 0.27884409 -0.16135818
-0.13517827 0.27882901 -0.16604441
-0.091291584 0.298233 -0.16900198
0.10689446 0.298233 -0.16246518
0.17432436 0.29265875 -0.16276112
-0.15045731 0.33711025 -0.16928566
-0.14598793 0.33172715 -0.1614513
-0.167687 -0.31752846 -0.15068221
-0.167687 -0.27620018 -0.15097874
0.178213 -0.26622003 -0.1510607
-0.167687 -0.17015453 -0.15594524
0.178213 -0.16709967 -0.15333143
0.178213 -0.012243591 -0.15253118
0.178213 0.030694731 -0.1500099
0.178213 0.22542651 -0.15446872
-0.16529781 0.35255998 -0.15314418
0.178213 -0.28483561 -0.14892851
-0.167687 -0.19134691 -0.14821999
0.178213 -0.10287403 -0.14016025
-0.167687 -0.092975706 -0.14772972
0.178213 -0.094402947 -0.14380041
0.178213 -0.051361933 -0.14371552
-0.167687 0.086395055 -0.14873596
-0.167687 0.17732409 -0.14819166
-0.167687 0.23324865 -0.14336157
0.087391883 0.298233 -0.14466879
0.178213 -0.22026059 -0.1342466
-0.167687 -0.1911805 -0.13285567
0.178213 -0.17195599 -0.13015245
0.178213 -0.094264552 -0.13762613
0.178213 -0.088937767 -0.13217208
-0.167687 -0.0052657723 -0.13481316
-0.167687 0.067287877 -0.13057977
0.178213 0.060202725 -0.1398778
-0.167687 0.10738254 -0.1312834
0.178213 0.26983982 -0.1343706
0.10542245 0.298233 -0.13390471
-0.11984813 0.30024329 -0.13692653
0.178213 -0.26914391 -0.12270176
-0.167687 -0.21316329 -0.12201399
0.178213 -0.02341146 -0.12320651
0.178213 0.038000517 -0.12305873
0.178213 0.062126972 -0.12864937
-0.167687 0.083781824 -0.1297107
0.178213 0.13621087 -0.12342086
-0.167687 0.14218643 -0.12565583
-0.167687 0.1568467 -0.12579428
0.17904699 0.26109153 -0.12280367
-0.11072582 0.27882901 -0.12027314
0.087171316 0.298233 -0.12524706
-0.17927976 0.30143279 -0.12695739
-0.17387307 0.34963658 -0.12471944
-0.167687 -0.29608521 -0.11213867
0.178213 -0.28705034 -0.11010947
-0.167687 -0.17730278 -0.11378978
0.178213 -0.13526176 -0.11589476
-0.167687 -0.025086716 -0.11546542
0.178213 0.13852966 -0.11440577
-0.167687 0.24396855 -0.11601456
-0.1637159 0.35307989 -0.11212073
0.178213 -0.30424565 -0.10671854
-0.167687 -0.28979173 -0.10704529
0.178213 -0.1882486 -0.10420489
0.178213 0.022166833 -0.10740896
-0.16852 0.26460171 -0.10746751
-0.12475181 0.27882901 -0.10846455
-0.11334801 0.27882901 -0.10135326
-0.17950115 0.28274554 -0.10554339
-0.10834942 0.2863946 -0.10913461
0.178213 -0.32043108 -0.09089227
-0.167687 -0.24307355 -0.091961935
-0.167687 -0.19481695 -0.094871625
0.178213 -0.082648441 -0.099471897
-0.167687 -0.056022361 -0.097256944
0.178213 -0.032736659 -0.094163284
-0.167687 -0.016554758 -0.090400316
0.178213 -0.011188723 -0.09724851
0.178213 0.020290911 -0.096819289
-0.167687 0.13059664 -0.090840012
-0.11944999 0.27882901 -0.090267591
-0.17940047 0.29124406 -0.094012618
0.089857757 0.298233 -0.093646348
-0.16449153 0.35401419 -0.09326905
0.178213 -0.32220036 -0.089277253
-0.167687 -0.28244364 -0.087094322
0.178213 -0.26914006 -0.089487433
-0.167687 -0.22284697 -0.081634685
-0.167687 -0.21085942 -0.086827718
0.178213 -0.11773988 -0.080302827
0.178213 0.095979616 -0.089979902
-0.167687 0.1777267 -0.084640719
0.178213 0.18877441 -0.088339895
0.178213 0.21597496 -0.082435101
-0.167687 0.24849015 -0.088790573
-0.17948997 0.28368855 -0.084438153
-0.10468522 0.28198135 -0.088069029
0.080541976 0.298233 -0.086820193
0.1153964 0.298233 -0.086635366
0.17139927 0.29794106 -0.085036226
-0.06662596 0.30133101 -0.086648151
-0.044471599 0.30133101 -0.088682584
0.012289504 0.30133101 -0.084854998
-0.167687 -0.28190055 -0.072948352
-0.167687 -0.16034886 -0.075828589
0.178213 -0.16130835 -0.078573294
-0.167687 -0.10832093 -0.079011902
0.178213 0.094585001 -0.074380405
-0.167687 0.24826546 -0.071516
-0.15228371 0.27882901 -0.078978315
0.12754419 0.298233 -0.079274431
-0.027837031 0.30133101 -0.071543947
-0.16574645 0.3555257 -0.076579995
0.178213 -0.32167166 -0.069660902
0.178213 -0.28005925 -0.067556627
0.178213 -0.21840484 -0.069034994
0.178213 0.03264872 -0.065698847
0.178213 0.23096707 -0.062419884
-0.16852 0.26159358 -0.061779577
0.12131765 0.298233 -0.066080615
0.036481932 0.30133101 -0.069454454
-0.167687 -0.3021639 -0.052135207
0.178213 -0.078389511 -0.057601392
-0.167687 -0.0024708509 -0.056672849
-0.167687 0.018059449 -0.057793044
-0.167687 0.083478644 -0.057964105
0.178213 0.085366875 -0.057326987
-0.16833517 0.25126088 -0.054767903
-0.16918062 0.27883685 -0.05005338
-0.13323331 0.3163653 -0.056860253
-0.17904457 0.32129848 -0.052457653
-0.17871067 0.34946996 -0.050913513
-0.167687 -0.31801355 -0.043295875
-0.167687 -0.2529512 -0.048949927
-0.167687 -0.24603122 -0.046887565
-0.167687 -0.081886224 -0.045456111
-0.167687 -0.079884715 -0.045126736
-0.167687 0.048630528 -0.042345937
0.178213 0.26686519 -0.049352512
-0.167687 0.27006757 -0.040642928
-0.17938906 0.2922087 -0.042472437
-0.067597978 0.30133101 -0.047540888
-0.167687 -0.23001224 -0.036502868
0.178213 -0.19793895 -0.032860547
0.178213 -0.17299658 -0.032798655
0.178213 -0.061478794 -0.031071454
-0.167687 0.040971756 -0.039640173
0.178213 0.10157357 -0.039299529
-0.14819276 0.27882901 -0.034006923
-0.17952478 0.28075102 -0.0375496
0.14649847 0.298233 -0.035144776
-0.17922831 0.30577695 -0.034488659
0.007578833 0.30133101 -0.036074176
-0.167687 -0.28795493 -0.029685542
0.178213 -0.2407178 -0.022774212
0.178213 -0.19027862 -0.02992836
0.178213 -0.061755061 -0.028880281
0.178213 -0.059627477 -0.026933476
0.178213 -0.048020426 -0.029117016
0.178213 -0.030053042 -0.027336732
-0.167687 0.11558096 -0.021746524
-0.167687 0.17193726 -0.021442451
-0.1774334 0.2789349 -0.024683818
0.17727914 0.28236136 -0.024668895
0.076932676 0.298233 -0.027108442
0.093122199 0.298233 -0.027284017
0.1592935 0.298233 -0.024071008
0.178213 -0.31083226 -0.016540296
0.178213 -0.29386714 -0.01496271
-0.167687 -0.25140503 -0.017067304
-0.167687 -0.22349739 -0.018596031
0.178213 -0.19388953 -0.014069285
0.178213 -0.18096571 -0.019870982
0.178213 -0.13332778 -0.01336311
-0.167687 0.00069704279 -0.01907704
0.178213 0.1519144 -0.015457649
-0.167687 0.18615672 -0.010405213
-0.018648859 0.30133101 -0.018551573
0.036493666 0.30133101 -0.01292916
-0.167687 -0.31247038 -0.0010780543
0.178213 -0.30096298 -0.007352069
-0.167687 -0.28654116 -0.0070552751
0.178213 -0.16105159 -0.0046622902
-0.167687 -0.12286652 -0.0048337257
-0.167687 -0.10774768 -0.0058960617
0.178213 -0.076026611 -0.0071073696
0.178213 0.054579679 -0.0097280852
0.178213 0.10227851 -0.0064097904
0.178213 0.11643181 -0.0037725344
-0.16852 0.26425564 -0.0071309335
0.179047 0.27850372 -0.0067170709
-0.17940119 0.29118288 -0.0096864998
-0.10333203 0.298233 -0.0059794411
-0.098698422 0.298233 -0.0079498291
0.069086909 0.298233 -0.0065246373
0.17430447 0.29272836 -0.0064372644
-0.12424352 0.30553746 -0.0048445538
-0.1590271 0.3474324 -0.0067206211
0.178213 -0.23902336 0.0050453395
-0.167687 -0.074071221 0.0090898946
0.178213 -0.07781814 0.0041350499
-0.167687 -0.055622093 0.0098804981
0.178213 0.17796138 0.0029792804
-0.17531687 0.27890974 0.0070360284
0.179415 0.28263074 0.0040429458
-0.099655911 0.298233 0.0043370649
-0.012638489 0.30133098 0.009762302
-0.14599077 0.3317315 0.0055150446
0.178213 -0.28779861 0.01136829
-0.167687 -0.2744832 0.012045402
0.178213 0.17036608 0.013262391
0.178213 0.2343659 0.010456377
0.178213 0.26404798 0.014236763
-0.13226239 0.27882901 0.016881421
0.1479056 0.298233 0.01771833
-0.17924076 0.30472496 0.019170865
-0.12461353 0.3059831 0.011265293
-0.086120665 0.30133101 0.010137063
-0.073868364 0.30133101 0.01524708
-0.17449227 0.34964395 0.010789171
-0.15291306 0.34006861 0.012313283
-0.167687 -0.27989992 0.02518913
0.178213 -0.18515514 0.028996781
-0.167687 0.18146062 0.026844911
-0.167687 0.20309216 0.023142107
-0.1126923 0.27882901 0.020165674
-0.099069983 0.298233 0.027049258
0.00095257163 0.30133101 0.025845919
-0.167687 -0.30154878 0.03586977
0.178213 -0.27797177 0.037813939
0.178213 -0.22139126 0.036976628
-0.167687 -0.13726218 0.030598504
-0.167687 -0.065801524 0.03230758
-0.167687 -0.047158346 0.038246132
-0.167687 0.11028893 0.03612721
0.178213 0.23774409 0.039347149
-0.167687 0.26601595 0.032483898
-0.17644179 0.34966707 0.030833215
-0.167687 -0.27976242 0.042606965
0.178213 -0.26564446 0.044960961
0.178213 -0.051071711 0.042118322
0.178213 0.10314508 0.041965567
0.178213 0.22893229 0.040955808
-0.16829859 0.25119531 0.047404345
0.051267348 0.298233 0.044770129
-0.17874208 0.34681773 0.041151527
-0.167687 -0.30080235 0.054746389
0.178213 -0.30571026 0.056136843
-0.167687 -0.23543808 0.050386675
0.178213 -0.20638974 0.05188325
0.178213 -0.15574825 0.051653117
0.178213 -0.070198968 0.052908394
0.178213 0.094177805 0.057193343
0.178213 0.24567801 0.051941954
0.11503237 0.298233 0.050169259
-0.16638879 0.35629931 0.059579525
0.178213 -0.12465594 0.060553409
0.178213 -0.075238995 0.061460067
0.178213 0.030619934 0.060355272
-0.167687 0.11731154 0.069572136
0.178213 0.26612782 0.069747925
-0.13068537 0.27882901 0.061798081
-0.17050278 0.3495965 0.065952316
0.178213 -0.015428107 0.079140015
-0.167687 -0.008675456 0.073279582
0.178213 0.025316902 0.079130061
0.17637198 0.28579274 0.077544749
-0.109578 0.29408288 0.076437503
-0.080551758 0.30133101 0.079662979
0.178213 -0.28345534 0.0859906
0.178213 -0.024713963 0.089527741
0.178213 -0.016800888 0.080404453
0.178213 -0.0090984255 0.085606307
0.178213 0.0096956789 0.088542297
-0.167687 0.26325086 0.084104173
-0.11048411 0.28896475 0.082422778
0.178213 -0.29346126 0.091720849
-0.167687 -0.23827536 0.090112001
0.178213 -0.11286002 0.094629019
-0.167687 0.037060719 0.096194021
-0.167687 0.094561189 0.095021792
-0.167687 0.17964196 0.093480103
-0.167687 0.1991926 0.09707436
-0.16852 0.26724511 0.095955975
-0.17931211 0.2987034 0.093073808
-0.11532012 0.29479063 0.090275712
0.083363444 0.298233 0.094738364
-0.167687 -0.30882245 0.10867657
-0.167687 -0.28259185 0.10100247
-0.167687 -0.021115791 0.10517415
-0.167687 0.076867782 0.10274422
-0.167687 0.16537306 0.10529997
0.178213 0.18870002 0.10884146
-0.16254552 0.27882901 0.10739786
-0.10715336 0.298233 0.10653663
0.14675495 0.298233 0.10812651
0.16426173 0.298233 0.10919395
-0.12386839 0.30508569 0.10533904
-0.018797066 0.30133101 0.10978933
-0.167687 -0.23775963 0.11697737
0.178213 -0.19745998 0.11821231
-0.167687 -0.18502969 0.11977427
0.178213 -0.14610635 0.11685966
-0.167687 -0.13475552 0.11482847
-0.167687 -0.025807828 0.11407568
-0.167687 0.054010484 0.11784625
0.178213 0.13746725 0.11909722
0.10977376 0.298233 0.11341722
0.0072573293 0.30133104 0.11167313
-0.167687 -0.26256126 0.12513086
-0.167687 -0.18675575 0.12215436
0.178213 -0.13440606 0.12472235
0.178213 -0.09301015 0.12893014
0.178213 -0.073069021 0.12086535
0.178213 -0.040917821 0.1254676
-0.167687 0.024757139 0.12491955
-0.167687 0.16585033 0.1227296
0.179047 0.26543307 0.12680089
-0.12155686 0.27882901 0.12401406
-0.049058087 0.29920354 0.12089899
-0.17908049 0.31826437 0.12114628
-0.15330054 0.34053522 0.12446871
-0.167687 -0.30983064 0.13326766
0.178213 -0.16478646 0.13993418
0.178213 -0.15564679 0.13180952
-0.167687 -0.050302878 0.13138297
0.178213 -0.014415905 0.13119754
0.178213 0.17152251 0.1386162
-0.167687 0.19916379 0.13257214
-0.15589979 0.27882901 0.13690805
-0.10505135 0.298233 0.13153194
-0.13543543 0.32725736 0.13097976
-0.15098862 0.34765369 0.1398274
-0.167687 -0.19379267 0.14757586
-0.167687 -0.17755151 0.14662403
-0.167687 -0.16794887 0.14894122
0.178213 -0.11336322 0.1469768
0.178213 -0.09951099 0.14580378
0.178213 0.12473358 0.14316712
-0.167687 0.15205847 0.14528097
0.178213 0.16892534 0.14639758
-0.14410232 0.27882901 0.14229497
0.17653105 0.285191 0.14208254
-0.030648321 0.298233 0.14093146
0.17440376 0.29238084 0.14617172
-0.17897229 0.32739106 0.14012231
-0.1788886 0.33445075 0.14031193
-0.14070331 0.35232243 0.14998436
-0.167687 -0.32177684 0.15134154
-0.167687 -0.29710177 0.1555582
-0.167687 -0.015168415 0.15396164
-0.167687 0.069666266 0.15004978
-0.167687 0.10060525 0.15324934
0.178213 0.13497299 0.15204293
0.178213 0.14283639 0.15817781
-0.167687 0.15245496 0.15139565
0.178213 0.15106744 0.15471536
-0.069844447 0.298233 0.15543225
0.11307848 0.298233 0.15553299
0.178213 -0.31329709 0.16840608
0.178213 -0.26882684 0.16391
-0.167687 -0.25826141 0.16702583
-0.167687 -0.22137867 0.16298345
0.178213 -0.064775467 0.16155824
-0.167687 0.16973224 0.16650496
0.178213 0.16501586 0.16779402
0.178213 0.27871394 0.16462995
-0.11200915 0.29080129 0.16837472
0.16731301 0.298233 0.16734734
-0.15422368 0.34164706 0.16413586
-0.16590682 0.35571885 0.16211349
-0.16211341 -0.33537447 0.177324
-0.15955904 -0.33442891 0.177324
0.178213 -0.23934136 0.17449827
0.178213 -0.20482638 0.17867137
0.178213 -0.09646064 0.17806865
0.178213 -0.081229165 0.17540292
-0.167687 -0.058805451 0.17425288
-0.167687 -0.0044892207 0.17038837
-0.167687 0.0084626153 0.17598957
0.178213 0.046248592 0.1788996
0.178213 0.14101028 0.17804414
0.178213 0.18232431 0.17402706
-0.17641541 0.2789228 0.17983702
-0.10803894 0.27882901 0.17653947
0.179415 0.28362969 0.17243131
0.015812729 0.298233 0.17918041
0.16145396 0.298233 0.17886636
-0.14369586 0.32896703 0.17762376
-0.17353117 0.3496325 0.17748824
-0.14262199 -0.35352361 0.18251671
0.178213 -0.2385013 0.18888599
0.178213 -0.1580894 0.18053681
-0.167687 -0.12890181 0.18121135
-0.167687 0.024599925 0.18551116
-0.167687 0.25545079 0.18500654
-0.12267455 0.27882901 0.18762299
-0.17951983 0.28116909 0.18194272
0.022323798 0.298233 0.18838063
-0.17873618 0.34731448 0.18511203
0.178213 -0.12829041 0.1995233
-0.167687 0.0028475076 0.19360977
-0.167687 0.019289993 0.19632936
-0.12561768 0.27882898 0.19449997
-0.17949389 0.28335929 0.19275129
0.17940709 0.28522116 0.19403927
-0.013805917 0.298233 0.1925243
0.11505722 -0.35886699 0.20611599
0.16183308 -0.35886699 0.20599158
0.178213 -0.35588819 0.20597173
0.10896272 -0.34265298 0.20381901
-0.13252535 -0.32921368 0.20141599
0.099826261 -0.32352751 0.20381901
0.16841036 -0.32256499 0.208415
0.178213 -0.28402132 0.20646229
0.178213 -0.18155031 0.20084667
-0.167687 -0.081775419 0.20772852
-0.167687 -0.056567132 0.20729862
-0.167687 0.083376266 0.20720488
0.178213 0.13250132 0.20464246
-0.167687 0.17931923 0.20344064
-0.167687 0.24917936 0.20911695
0.10440191 0.298233 0.20403415
0.17153999 0.29777822 0.20131472
0.088981375 -0.32256499 0.21845841
0.178213 -0.24894105 0.21960813
-0.167687 -0.20212059 0.21583506
-0.167687 -0.19763163 0.21759117
-0.167687 -0.17212665 0.21269351
0.178213 -0.09561871 0.21248299
-0.167687 -0.081126362 0.21418726
0.178213 -0.062438712 0.21234439
0.178213 -0.052807726 0.21137634
0.178213 -0.046289034 0.21974918
0.17915544 0.2862612 0.21814936
0.15531653 -0.35886699 0.22134632
0.0805462 -0.34758699 0.22555694
0.17813542 -0.024960082 0.22982804
-0.167687 -0.0031807474 0.22394487
-0.167687 0.034993816 0.22232407
0.178213 0.036053851 0.2226136
-0.167687 0.096018165 0.22328386
-0.16852 0.26487279 0.22734515
-0.15469435 0.27882901 0.22901538
-0.038988471 0.298233 0.2264858
-0.17512411 0.32914054 0.22693057
-0.15883301 0.34719852 0.22178307
0.081552021 -0.35886699 0.23598319
0.12173092 -0.35886699 0.23634191
0.098196715 -0.32256499 0.23614687
0.17809856 -0.24213253 0.23064084
0.17754781 -0.19143786 0.23552719
0.17736816 -0.080596946 0.23638901
0.17781794 -0.05842001 0.23356973
-0.167687 0.12190288 0.23963471
0.17812042 0.1239924 0.23015907
0.17705089 0.15184067 0.23773736
-0.17948075 0.28449968 0.23540373
-0.109578 0.28847727 0.23747911
-0.090964034 0.298233 0.23304211
0.02561276 0.298233 0.23598632
0.047399864 0.298233 0.23234561
0.068132684 0.29823303 0.23545137
-0.13384521 0.31710231 0.2306546
-0.14763078 0.33370665 0.2334186
-0.122871 -0.33298934 0.24580073
-0.14749733 -0.32256499 0.24059945
-0.167687 -0.28608379 0.24487457
0.17184162 -0.26266828 0.24947765
0.17192385 -0.17987074 0.24937367
-0.167687 -0.084496982 0.24430957
-0.167687 0.10040186 0.2412135
0.17452382 0.16255277 0.24492839
-0.076369822 0.298233 0.24310474
-0.042403568 0.298233 0.24597898
-0.13603765 0.31974304 0.24104841
-0.14877188 0.3350811 0.24942124
0.11092005 -0.35886699 0.25233507
-0.13487858 -0.34300405 0.25766
0.11240456 -0.3463099 0.25765997
0.1552276 -0.32058561 0.25766
0.16080037 -0.32256499 0.25215152
-0.026680389 -0.30267632 0.25766
-0.062650524 -0.28886545 0.25766
0.041321408 -0.28208923 0.25766
-0.099005036 -0.27065909 0.25766
0.092546061 -0.27859843 0.25766
-0.15279491 -0.26823473 0.25766
-0.070685603 -0.26755732 0.25766
0.012323363 -0.26889843 0.25766
0.087673627 -0.26788738 0.25105
-0.073413923 -0.25723386 0.25766
0.072313994 -0.25346598 0.25285125
-0.11852939 -0.2446727 0.25766
-0.02527 -0.24245062 0.25678074
0.084085591 -0.24592197 0.25105
-0.12048727 -0.23837097 0.25766
0.035604909 -0.23634671 0.25766
-0.0075195502 -0.22461909 0.25688249
0.024556832 -0.22107725 0.25766
0.054012496 -0.22871307 0.25766
0.16977471 -0.21335681 0.25196368
-0.167687 -0.20964418 0.2540921
-0.010733329 -0.20747313 0.25766
0.11612973 -0.19282021 0.25105
0.12840511 -0.19808282 0.25766
-0.12993369 -0.18629576 0.25766
-0.10569456 -0.18022239 0.25766
-0.0013689387 -0.18782511 0.25105
0.0078966599 -0.18528549 0.25275579
0.045749303 -0.1845881 0.25766
-0.12521699 -0.17674513 0.25766
-0.068664789 -0.17159982 0.25766
-0.0075195497 -0.17781958 0.25591859
0.019252965 -0.17862913 0.25766
-0.051403921 -0.16144253 0.25766
0.049846917 -0.16689566 0.25766
0.082511716 -0.16088484 0.25105
-0.0075195506 -0.152877 0.2535333
0.038688652 -0.15881559 0.25766
0.087730899 -0.14836912 0.25493199
-0.14447203 -0.13719922 0.25766
0.14995588 -0.13520652 0.25766
-0.073056817 -0.12306423 0.25766
0.066533737 -0.12793668 0.25766
0.13698614 -0.12321354 0.25766
-0.11803582 -0.11671282 0.25766
0.0078966599 -0.11416931 0.25604457
0.067545384 -0.11448891 0.25766
0.15305628 -0.11094578 0.25765997
-0.167687 -0.10262095 0.25276309
-0.030899284 -0.10362838 0.25105
-0.02527 -0.10635401 0.25699672
0.025130263 -0.10846955 0.25766
0.084114015 -0.10677557 0.25234735
0.12518291 -0.10104326 0.25766
-0.14536636 -0.093127899 0.25766
-0.043296181 -0.090083718 0.25766
0.088993952 -0.090731397 0.25766
0.13280281 -0.095143437 0.25766
0.14012058 -0.092574164 0.25766
-0.14625609 -0.084929913 0.25766
-0.023739524 -0.089659832 0.25766
0.031014498 -0.086090714 0.25766
0.068834603 -0.083055161 0.25766
-0.040206589 -0.0796225 0.25105
-0.00022850401 -0.072919637 0.25105
0.044760212 -0.074007548 0.25766
-0.14733219 -0.066534013 0.25766
-0.1199294 -0.062338859 0.25766
-0.1550422 -0.05300919 0.25766
0.072314002 -0.05106096 0.25742102
0.16302788 -0.053525969 0.2566539
0.017653657 -0.038843185 0.25766
0.0911026 -0.023587033 0.25766
-0.040686902 -0.0013328381 0.25307375
-0.049825978 0.00028054416 0.25766
0.015517069 0.0091368034 0.25766
0.110141 0.0058344463 0.25105
-0.10848597 0.018592238 0.25766
-0.099236786 0.012261771 0.25766
-0.16388623 0.024182767 0.25766
0.0044230539 0.022486448 0.25105
0.017776914 0.025279325 0.25766
0.11787514 0.028694563 0.25105
0.14263125 0.023312248 0.25766
-0.13793939 0.031997167 0.25766
-0.12161638 0.044810183 0.25766
-0.083282709 0.049783193 0.25766
0.11619575 0.044288591 0.25412172
-0.084149435 0.05024875 0.25766
-0.053802427 0.056290701 0.25766
-0.049068734 0.055143762 0.25766
0.087891757 0.052664928 0.25766
0.12015803 0.053286456 0.25766
-0.1104923 0.068743676 0.25766003
-0.10474996 0.063255161 0.25766
-0.0010665534 0.066067457 0.25105
0.0063523659 0.06188225 0.25105
0.035406992 0.075868398 0.25766
-0.087100349 0.086500876 0.25766
-0.072855979 0.082653478 0.25766
-0.067223988 0.089124255 0.25766
-0.0075195506 0.083714411 0.25557995
0.072314002 0.087423898 0.25625217
-0.09220244 0.099916779 0.25766
0.14770293 0.090670593 0.25766
-0.02527 0.10557894 0.2536225
0.072207496 0.10547937 0.25766
0.090525582 0.10626603 0.25766
-0.167687 0.11602639 0.25053108
-0.15661766 0.11895355 0.25766
-0.075109579 0.11804139 0.25766
-0.066234641 0.11867496 0.25766
0.056684442 0.11774686 0.25766
0.10767517 0.11911182 0.25105
-0.02095875 0.1223064 0.25766
0.07916823 0.12102637 0.25105
0.087730899 0.12800317 0.25664628
0.12432353 0.1295674 0.25766
-0.027808063 0.13369976 0.25105
-0.15780821 0.14283249 0.25766
-0.13608538 0.14945716 0.25766
-0.034349527 0.14782625 0.25105
0.069088861 0.14864993 0.25766
0.14310619 0.14060469 0.25766
0.15163587 0.14848557 0.25766
0.16646586 0.14071415 0.25477281
-0.085561559 0.15369992 0.25766
0.058165152 0.15898284 0.25766
0.119064 0.15049294 0.25401646
0.13118127 0.15073499 0.25766
0.14325054 0.15206024 0.25766
-0.15234302 0.16340938 0.25766
0.17116408 0.16364834 0.2503345
-0.019874714 0.17850938 0.25766
0.12392328 0.17142086 0.25766
-0.11791328 0.18383913 0.25766
0.0047196979 0.18473217 0.25105
0.077441737 0.18701848 0.25105
0.16700691 0.1845427 0.25438765
-0.12046278 0.19742325 0.25766
0.045600273 0.19494972 0.25766
0.072314002 0.1987204 0.25481433
-0.11065866 0.20425321 0.25766
0.16148716 0.20939589 0.25709596
0.01791673 0.21104735 0.25766
0.02464154 0.21921197 0.25766
0.076525286 0.219511 0.25304571
0.082302354 0.219511 0.25150198
0.10785306 0.219511 0.25628304
-0.12707369 0.2210101 0.25766
-0.002931505 0.22467636 0.25766
0.12797558 0.22552255 0.25766
-0.045762233 0.23968455 0.25766003
0.037000105 0.23279665 0.25766
0.13390277 0.23006131 0.25766
0.14804897 0.24455516 0.25766
0.037338443 0.25772858 0.25766
0.061170608 0.25670403 0.25886199
0.10157605 0.25329143 0.25886199
0.1360058 0.25676045 0.25886199
-0.14580974 0.264496 0.25766
-0.13657454 0.26293051 0.25886199
-0.0033910489 0.26741803 0.25886199
0.068592831 0.26309401 0.25766
0.1109982 0.2689335 0.25766
-0.15441397 0.27361047 0.25886199
-0.11517215 0.27882901 0.25866795
-0.059922434 0.27895516 0.25886199
0.16163094 0.28908145 0.25364485
-0.14555943 0.29360744 0.25636703
-0.082742922 0.29358286 0.25345296
