# .PCD v0.7 - Point Cloud Data file format
VERSION 0.7
FIELDS x y z
SIZE 4 4 4
TYPE F F F
COUNT 1 1 1
WIDTH 979
HEIGHT 1
VIEWPOINT 0 0 0 1 0 0 0
POINTS 979
DATA ascii
0.053244565 -0.35397699 -0.25179541
-0.026975036 -0.33246419 -0.25651401
-0.0060269386 -0.33539516 -0.25651401
0.1188653 -0.33673051 -0.25651401
-0.19406745 -0.32664034 -0.25651401
-0.057017274 -0.31825453 -0.25651401
-0.042335846 -0.31403714 -0.25651401
0.014361147 -0.30329958 -0.25651401
0.04143976 -0.30316642 -0.25651401
0.20089237 -0.30997691 -0.25651401
-0.18737885 -0.2922233 -0.25651401
-0.17844865 -0.28164271 -0.25651401
0.078209013 -0.27481106 -0.25651401
0.093254112 -0.26004153 -0.25651401
-0.23673356 -0.23145115 -0.25651401
0.13243052 -0.23101458 -0.25651401
-0.11111872 -0.22708568 -0.25651401
-0.078238204 -0.20021492 -0.25651401
0.11618755 -0.2007287 -0.25651401
0.15281683 -0.20129299 -0.25651401
0.0021421686 -0.19282475 -0.25651401
-0.11842539 -0.18895598 -0.25651401
-0.0014471076 -0.18220383 -0.25651401
0.13874769 -0.18613803 -0.25651401
-0.19709563 -0.17678098 -0.25651401
0.08479733 -0.17431262 -0.25651401
-0.15076052 -0.16792566 -0.25651401
-0.17464581 -0.15081176 -0.25651401
0.087549172 -0.15326256 -0.25651401
0.17146005 -0.14395007 -0.25651401
0.02708674 -0.13789949 -0.25651401
-0.16795492 -0.10494223 -0.25651401
-0.081399329 -0.10094995 -0.25651401
0.023691125 -0.087849781 -0.25651401
-0.238685 -0.073304445 -0.25619859
-0.054890975 -0.065474093 -0.25651401
-0.19538736 -0.040366143 -0.25651401
-0.056942269 -0.045580499 -0.25651401
0.2105262 -0.046864271 -0.25651401
0.042945832 -0.034531847 -0.25651401
-0.074654378 -0.028149426 -0.25651401
0.218371 -0.019945733 -0.25572598
0.042947516 -0.0065903431 -0.25651401
-0.16549963 0.0019036457 -0.25651401
-0.13278119 0.0095088333 -0.25651401
0.049073167 0.009579163 -0.25085226
0.03754247 0.018372143 -0.25274265
0.074714199 0.017656291 -0.25258872
-0.064017683 0.026226552 -0.25651401
-0.049557779 0.022095654 -0.25354314
0.20371577 0.02693902 -0.25651401
0.18281707 0.038128056 -0.25651401
-0.14016838 0.047571234 -0.25321531
-0.10755415 0.044893652 -0.25651401
-0.0038540773 0.04379499 -0.25340444
-0.10504636 0.056850076 -0.25651401
-0.074722037 0.060614903 -0.25256211
0.046582974 0.060091257 -0.25651401
0.11409033 0.063103355 -0.25651401
-0.1868736 0.077647515 -0.25170913
-0.16611993 0.082640782 -0.25145909
-0.024189815 0.084223673 -0.25137985
0.13571753 0.083118796 -0.25651401
0.17377338 0.081490591 -0.25651401
-0.057109434 0.094946846 -0.25651401
0.042963102 0.092529267 -0.25651401
0.218371 0.091504484 -0.25105268
0.1928093 0.10564449 -0.25651401
-0.20344052 0.11779967 -0.25651401
-0.1624247 0.11046416 -0.25651401
-0.11865589 0.13815284 -0.25651401
0.068999767 0.13191724 -0.25651401
0.18159886 0.15732415 -0.25651401
0.21039398 0.17053358 -0.25651401
-0.20791736 0.18445458 -0.25651401
-0.1745002 0.18032922 -0.25651401
0.043018531 0.18339872 -0.25651401
0.10882561 0.19788668 -0.25651401
0.21098176 0.1970001 -0.25651401
-0.044664748 0.20469715 -0.25651401
0.054096695 0.21691598 -0.25651401
-0.16011639 0.22189794 -0.25651401
-0.082144469 0.22571939 -0.25651401
0.12396151 0.22741908 -0.25651401
0.18711767 0.22378018 -0.25651401
0.075133726 0.23443186 -0.25651401
-0.21619423 0.24168982 -0.25651401
-0.15459529 0.26307225 -0.25651401
0.1686964 0.26797849 -0.25651401
0.17247632 0.26366535 -0.25651401
0.12902039 0.27815825 -0.25651401
-0.055838764 0.28596696 -0.25651401
-0.049305521 0.28211606 -0.25651401
-0.0346452 0.28770256 -0.25651401
-0.021020137 0.28494751 -0.25651401
-0.14834626 0.29672208 -0.25651401
0.11642181 0.31216428 -0.25651401
-0.098900288 0.32415879 -0.25651401
-0.17228432 0.3425127 -0.25651401
-0.19350351 -0.35012463 -0.24642694
0.18768483 -0.35607591 -0.24631092
-0.238685 -0.2419512 -0.24017471
-0.238685 -0.12660626 -0.24569118
-0.1111487 -0.022380007 -0.24398142
0.019505601 -0.020975392 -0.24428338
-0.0061449334 -0.011102902 -0.24640587
0.1119917 -0.016639592 -0.24521554
-0.065240651 -0.00082293712 -0.24861592
-0.033795767 -0.0022829948 -0.24830201
0.059601925 0.0046705604 -0.24979696
-0.03554748 0.10924631 -0.24426915
0.0011125095 0.10647439 -0.24516274
0.097660884 0.10152901 -0.246757
0.038067862 0.12204152 -0.24014428
0.218371 0.13818692 -0.24749464
-0.238685 0.14825752 -0.2400049
-0.16208604 -0.35061514 -0.23380822
-0.14021912 -0.35095653 -0.23367986
-0.13027027 -0.35111186 -0.23651311
-0.053943992 -0.35230345 -0.23863605
-0.22477737 -0.34963635 -0.23858956
-0.20157632 -0.34999856 -0.23862794
-0.23868501 -0.3127777 -0.23496279
-0.238685 -0.21433978 -0.23917919
-0.238685 -0.083852224 -0.2319639
0.013905654 -0.052954171 -0.23209226
-0.19205201 0.027607013 -0.23939958
0.20554501 0.03434306 -0.23076862
-0.082001589 0.046168707 -0.23107451
0.16701666 0.044646427 -0.23120908
-0.16139181 0.12469853 -0.23928775
-0.044110604 0.12675545 -0.23862465
0.015594728 0.13434811 -0.236177
0.029022209 0.13716096 -0.23527019
0.11705841 0.13649225 -0.23548576
-0.037605688 0.14457096 -0.23286822
0.075175963 0.14627928 -0.23233068
-0.079332106 -0.3519071 -0.22825611
-0.23868498 -0.19949998 -0.22369421
-0.238685 -0.07047683 -0.22629991
-0.15833251 -0.068515405 -0.22411853
-0.093508974 -0.061072186 -0.22793248
0.13042119 -0.063695073 -0.2265885
0.20316243 -0.058298402 -0.22935382
-0.19205201 -0.048702955 -0.22339407
0.20554499 -0.032925285 -0.22667816
-0.19031741 -0.015977474 -0.22169156
-0.17082299 -0.013368933 -0.22277208
-0.074721724 -0.014848388 -0.22215927
-0.11666521 -0.0064568482 -0.22448149
-0.037840806 -0.005586796 -0.22459602
-0.238685 0.0023253076 -0.2296488
-0.15288447 0.0026586682 -0.22568153
0.056336105 0.01648351 -0.22750151
0.066666007 0.015979186 -0.22743514
-0.094128475 0.027119139 -0.22890165
0.13957839 0.029581061 -0.22922578
0.14024164 0.025650263 -0.22870831
0.22128738 0.021054266 -0.22915059
0.1054979 0.084734812 -0.22599743
0.1938448 0.0862142 -0.22580266
-0.11827917 0.097457409 -0.22432256
0.10291688 0.09965273 -0.22403353
0.22991401 0.098686352 -0.22330727
-0.19205201 0.12041581 -0.22741632
-0.23868501 0.15986726 -0.22023118
-0.080396608 0.16406111 -0.22103465
-0.060908161 0.16205817 -0.22232884
-0.010397494 0.16157553 -0.22264069
0.238892 0.3068952 -0.22213385
0.15899406 0.35655499 -0.22137564
-0.238685 -0.25641415 -0.21539658
0.14962585 -0.085069224 -0.21563618
-0.010494299 -0.037791893 -0.21265568
0.20554498 -0.005370114 -0.2165678
-0.238685 0.12115731 -0.21979293
0.06115786 0.12829004 -0.21236351
0.059619572 0.16764089 -0.21872161
0.024209447 0.17663378 -0.21291095
0.17494312 0.17907757 -0.21133193
-0.238685 0.3544127 -0.21026497
-0.16247645 0.35655501 -0.21686475
-0.11218768 0.35655501 -0.21987502
-0.238685 -0.10945137 -0.20123324
0.218371 -0.092579231 -0.20019448
-0.14095826 -0.061527856 -0.20282383
0.13366419 -0.062002517 -0.20262724
-0.238685 -0.051444054 -0.20113087
0.019973114 -0.055257142 -0.20542127
0.20554499 0.083421059 -0.20065239
-0.15175883 0.1396029 -0.20767745
-0.093454048 0.13932267 -0.2077935
-0.035906687 0.13459721 -0.20975092
-0.037082739 0.14708212 -0.20457938
0.10370906 0.14869338 -0.20391195
0.20554501 0.14682662 -0.20442107
0.044365056 0.15438703 -0.2007075
-0.041548736 0.18202448 -0.2094278
-0.238685 0.30910718 -0.20266598
-0.23520404 0.35655501 -0.20951673
0.15794159 0.35655499 -0.20754479
0.19669035 0.35655501 -0.20779842
-0.14844479 -0.35082808 -0.19167314
-0.0019403175 -0.35311541 -0.19104102
0.0073530432 -0.35326049 -0.19122094
-0.18273333 -0.10972176 -0.19541895
0.20084575 -0.10527114 -0.19944499
-0.19205201 -0.091949604 -0.19508684
-0.0071728006 -0.077064365 -0.19113916
-0.039237667 -0.068355113 -0.19782196
0.042013709 0.051911429 -0.19098046
0.10208583 0.072323635 -0.19354482
0.20554499 0.11745431 -0.19631857
0.14491189 0.19665411 -0.199975
-0.14602885 0.20662798 -0.19005899
0.052848786 0.20547251 -0.19133633
0.218371 0.20029314 -0.19256897
0.1417755 -0.35535917 -0.18313798
0.218371 -0.3381032 -0.18178368
0.16864109 -0.11593971 -0.18979418
-0.23868501 -0.025290392 -0.18692842
0.15538996 0.0037104459 -0.18428014
0.0079025496 0.022606581 -0.18610848
-0.012492524 0.032233942 -0.18677118
-0.0062816041 0.080012992 -0.18931599
0.083351061 0.12107612 -0.18437243
0.13525456 0.12110517 -0.18590078
0.021470852 0.170387 -0.1884305
-0.12610723 0.35655501 -0.18631893
-0.032103956 -0.13073501 -0.17641033
-0.010187682 -0.092638195 -0.179189
0.20554499 -0.042166259 -0.17973335
0.053938448 -0.0076041571 -0.17658064
0.20554501 0.14093283 -0.17671758
-0.18543874 0.18945085 -0.17380258
0.093712643 0.18286604 -0.17885518
0.02454441 0.22028372 -0.17496318
-0.017603911 0.35655501 -0.17463723
-0.068859667 -0.35207063 -0.16748627
-0.0099274367 -0.35299069 -0.16792122
0.14957157 -0.35548088 -0.16716355
0.218371 -0.33191812 -0.16333982
-0.1322602 -0.1415396 -0.16337302
0.16425818 -0.13946569 -0.16658282
0.075344205 -0.1120069 -0.16140693
0.11627232 -0.10949011 -0.16468683
0.22991399 -0.081242517 -0.16734919
0.20554499 -0.030473728 -0.16616498
0.14259878 0.1689965 -0.16247664
0.19105738 0.16667688 -0.16569559
0.20554499 0.18446548 -0.16539538
-0.12006573 0.201827 -0.16137162
0.11242882 0.22753137 -0.16695122
0.09776713 0.23207152 -0.16193232
0.14659789 0.2332384 -0.16064236
0.18536854 0.23245245 -0.1615112
0.14706676 -0.35544178 -0.15276662
0.17143705 -0.35582227 -0.15816715
-0.14721979 -0.14382306 -0.15983893
-0.046206031 -0.11878753 -0.15257034
0.20355985 -0.11745625 -0.15430528
0.20554498 -0.10196225 -0.15430929
-0.23868498 -0.095654435 -0.15979484
0.025755176 -0.042504638 -0.15618542
0.088090442 0.17247243 -0.15819034
0.077782527 0.18269129 -0.15003946
-0.17944595 0.2075422 -0.15392351
0.22319582 0.2195628 -0.15848695
-0.238685 0.24790236 -0.15311769
0.14130038 0.24172342 -0.15044412
0.20541173 0.24068852 -0.15240659
-0.23868498 0.27003038 -0.15157342
-0.16519022 0.35655501 -0.15540615
-0.09344279 0.35655501 -0.15612577
-0.238685 -0.14719072 -0.14964417
0.20554499 -0.12556204 -0.14992622
0.01088016 -0.056655314 -0.14488088
0.14956765 -0.058267765 -0.14775896
0.22115599 -0.043979947 -0.14673296
-0.01556951 0.036358371 -0.1404334
-0.015609092 0.10250055 -0.1417685
-0.015570946 0.18671097 -0.14048386
0.003629487 0.21750967 -0.14093377
0.17126349 0.21409801 -0.1453799
-0.19205201 0.23652294 -0.14240941
0.001787439 0.24557565 -0.14292666
0.218371 0.25030273 -0.14764449
0.096909925 0.35655501 -0.146817
0.18142129 0.35655501 -0.14295705
-0.19604684 -0.3500849 -0.13399011
0.0010247342 -0.35316169 -0.13618103
0.077249609 -0.35435176 -0.13850945
-0.18299085 -0.1616362 -0.13226959
-0.17828389 -0.16091582 -0.13338451
-0.238685 -0.090032637 -0.13347176
0.22991399 -0.072392747 -0.13196504
0.058511257 -0.068814889 -0.13580956
-0.015463807 -0.0079744235 -0.13686809
0.22991398 0.13660459 -0.13993374
0.03827446 0.20281363 -0.13056093
0.1245675 0.20117445 -0.13536318
0.16075513 0.20565051 -0.13031878
-0.080259256 0.21875048 -0.13931674
-0.030087635 0.22148171 -0.13575739
0.015339129 0.22063011 -0.1368672
-0.15326269 0.35655504 -0.13872433
-0.20771009 -0.34990281 -0.12205754
0.218371 -0.26856896 -0.12865683
-0.238685 -0.22744258 -0.12213826
-0.17670925 -0.16661708 -0.1245607
0.043053418 -0.16786608 -0.12262764
-0.15512918 -0.13819179 -0.12728252
-0.23868498 -0.076307081 -0.12280121
0.091217846 -0.07928881 -0.12312425
-0.01505297 -0.067438371 -0.12303
-0.238685 0.0055988356 -0.12207267
-0.238685 0.13387957 -0.12719092
-0.238685 0.16308105 -0.12297059
0.22991399 0.16845122 -0.12107287
0.046936721 0.22789544 -0.12739895
0.041682869 0.23105662 -0.12253857
0.22899067 0.24188563 -0.12663835
-0.10464296 0.25676677 -0.12108771
-0.1766919 0.35655499 -0.12969895
-0.23868501 -0.28728724 -0.11394173
-0.13305373 -0.14534177 -0.11269319
-0.018559599 -0.14333567 -0.11753633
0.218371 -0.14607136 -0.11029321
-0.238685 -0.11609433 -0.11645667
0.15416469 -0.084560648 -0.11811877
0.16344756 -0.085768722 -0.11681914
0.20554499 0.01581086 -0.11148882
-0.238685 0.1740081 -0.11015628
0.18683055 0.19887263 -0.11064914
0.11271413 0.2176989 -0.11035702
0.20554499 0.21385628 -0.11466679
-0.071201608 0.23211412 -0.11998542
0.10517907 0.23223238 -0.11969993
0.22880994 0.24756588 -0.11771987
-0.23868501 0.25845051 -0.11008163
-0.038080193 -0.35255116 -0.10049687
-0.23868501 -0.31658188 -0.1043869
0.20554499 -0.16683108 -0.10184178
0.22128813 -0.13884047 -0.10883458
0.06245596 -0.094701983 -0.10217474
-0.014506161 -0.03779427 -0.10459796
0.20554499 -0.0087528694 -0.10892306
0.22991399 0.17474967 -0.10913672
0.18064049 0.22460993 -0.10602251
-0.19057265 0.23768868 -0.10652676
0.094884276 0.23724037 -0.10760912
0.15638164 0.26484865 -0.10531631
0.013385195 -0.35335466 -0.09486863
-0.23868501 -0.29910898 -0.094402708
-0.043128837 0.2414225 -0.097512193
0.023812659 0.24438344 -0.090363555
0.060520303 0.24286073 -0.094039842
-0.08724831 0.35655501 -0.099469617
-0.043854255 0.35655501 -0.09795364
0.052905597 0.35655501 -0.093098834
0.18639693 0.35655501 -0.09330605
-0.22651339 -0.34960926 -0.08569283
0.21837102 -0.29394922 -0.081522077
-0.16258448 -0.18176377 -0.083125845
-0.039749086 -0.18211892 -0.082024164
-0.091519982 -0.15855221 -0.080800623
0.19578993 -0.091344349 -0.086294211
-0.013832161 -0.016399415 -0.081891485
0.20554501 -0.0097055342 -0.086680062
-0.013843345 0.026976086 -0.082271039
-0.23868498 0.15414326 -0.081659429
-0.055328749 0.2726469 -0.080508456
-0.238685 0.29077306 -0.088917911
0.218371 0.30275941 -0.088462457
-0.23868498 -0.24713632 -0.077994578
0.0040849186 -0.18279918 -0.079914004
0.023081366 -0.18502885 -0.07299757
0.073305488 -0.18438394 -0.074998058
0.024475403 -0.16223703 -0.070650548
-0.013722042 -0.069799617 -0.078172907
-0.01348844 -0.05034931 -0.070308812
0.20554499 -0.011606178 -0.07505738
-0.013571179 0.16007543 -0.073094271
0.20554499 0.16525763 -0.074907698
0.0038042557 0.23613608 -0.074980833
-0.17840715 0.27479008 -0.070539795
0.218371 0.31295407 -0.071194232
-0.238685 0.32008818 -0.070950389
0.18191946 -0.35598591 -0.061600372
-0.23868498 -0.24329886 -0.068459593
0.18243055 -0.18798134 -0.063838884
0.218371 -0.1553621 -0.063074701
0.10385367 -0.11093918 -0.06594146
0.20554499 -0.036929719 -0.062880389
-0.013443834 -0.0053171339 -0.068806976
-0.238685 0.04025244 -0.069494456
-0.013342007 0.13934809 -0.065375686
0.20554498 0.21324548 -0.067282349
0.12705517 0.25247043 -0.067298502
-0.14908971 0.27665994 -0.061842375
0.218371 0.29619643 -0.064673975
0.013565183 0.35655501 -0.066135794
0.063354872 0.35655501 -0.062057335
0.16289341 0.35655501 -0.063660197
-0.23868501 -0.29309803 -0.050036661
-0.073604152 -0.18957075 -0.053567849
-0.027086375 -0.1896463 -0.05205965
0.218371 -0.17467301 -0.059688002
-0.12913047 -0.16477093 -0.051402885
-0.0077564679 -0.16459846 -0.052713018
0.028503735 -0.16378559 -0.058887552
0.12561308 -0.16445956 -0.053768087
0.15749487 -0.1647362 -0.051666752
-0.013027474 -0.036996488 -0.054774642
-0.013051475 0.010878256 -0.055582657
-0.013049159 0.058907971 -0.055503719
-0.18756525 0.2771146 -0.059727557
0.05383458 0.27878991 -0.051935166
-0.19484541 0.35655501 -0.054437973
0.009450011 0.35655501 -0.059265871
-0.17447387 -0.35042173 -0.045625269
0.055919033 -0.16592215 -0.042658195
0.20554499 -0.089128569 -0.045227341
-0.012651026 0.21871482 -0.042087663
-0.070637852 0.25569588 -0.042801328
-0.016949214 0.2560271 -0.040285382
0.05490797 0.28093415 -0.041961379
-0.12932004 0.35655504 -0.046112642
-0.23868498 -0.2589387 -0.03809642
-0.056229126 -0.19059473 -0.033127047
0.06586808 -0.19040152 -0.036984134
0.050292924 -0.16758519 -0.030025665
-0.012446515 0.10356886 -0.035189621
0.20554501 0.11260187 -0.033690058
0.20554498 0.17916012 -0.036500402
-0.15193942 0.25648078 -0.036839675
-0.23687381 0.35655501 -0.035028644
0.218371 -0.28853175 -0.02598533
-0.238685 -0.20643088 -0.023996189
0.12188666 -0.19083622 -0.028306691
-0.10041315 -0.16762668 -0.029710611
0.20554499 0.19957748 -0.022493197
-0.012281946 0.24694955 -0.029664326
-0.1362997 -0.35101768 -0.010019571
-0.12453271 -0.35120142 -0.010517508
-0.17291921 -0.19172089 -0.010646709
0.218371 -0.19093382 -0.017517
-0.072155356 -0.1684389 -0.010565218
0.20554499 -0.14307477 -0.019447777
0.084406264 -0.12062514 -0.012266312
-0.011881855 -0.019407639 -0.016167112
-0.238685 0.0020495253 -0.014650285
-0.011965937 0.030994572 -0.019002894
-0.011973705 0.12524883 -0.019253261
-0.070629731 0.2812196 -0.017585931
0.13846014 0.28094685 -0.012140739
0.088472806 -0.35452697 -0.0099221393
0.218371 -0.35239074 -0.0078311712
-0.22953758 -0.34956202 -0.0027226284
-0.23868501 -0.21587813 -0.0081365108
-0.238685 -0.20638068 -0.0056139827
-0.09484379 -0.19202553 -0.0045652417
-0.038102321 -0.16764861 -0.0045620697
0.064870305 -0.12072383 -0.003030899
0.16859259 -0.12039708 -0.0036260386
0.20554499 0.1143805 -0.0076755364
0.15563716 0.25067258 -0.0040509915
0.19402735 0.25055462 -0.004293907
-0.17363566 -0.35043481 0.0018040389
-0.13342074 -0.35106266 0.0081404075
-0.030949559 -0.35266247 0.0020448687
0.2143036 -0.35649151 0.0064267442
-0.238685 -0.3186425 0.0065412447
-0.23868501 -0.14282472 0.001922626
0.20554498 -0.11578475 0.009038996
-0.0091941319 0.085015185 0.0024907649
0.20554499 0.10211714 0.0013084523
-0.238685 0.18092649 0.0021360219
0.22991398 0.23836416 0.0088273361
0.10149451 0.25559616 0.0094524678
-0.23868498 0.26111391 0.0086377859
-0.040984478 0.27989465 0.008863071
-0.012394443 0.2798568 0.0096193273
0.1377494 -0.35529628 0.013922051
0.15910776 -0.35562977 0.011983819
0.218371 -0.32669628 0.016375307
-0.23868501 -0.21647763 0.0121006
-0.068885133 -0.16498682 0.015656922
-0.011039888 0.17541546 0.012203446
-0.238685 0.19036356 0.014850736
0.20856853 0.21421042 0.014985225
-0.010993157 0.24092148 0.013774444
-0.10565378 0.25526842 0.011941646
0.035871819 0.25493234 0.014494042
-0.18378501 0.35655504 0.012045242
-0.032915145 0.35655504 0.015543498
0.16551223 0.35655501 0.013544252
0.11078424 -0.35487533 0.021582767
0.20358583 -0.3563242 0.023823708
-0.015729088 -0.16350481 0.026914343
0.1215904 -0.16328876 0.028555509
-0.010524897 -0.11787333 0.020867757
0.20554498 -0.086849853 0.027186189
-0.23868501 -0.014890844 0.025308767
-0.010667631 0.21187975 0.024744613
-0.16589575 0.25331619 0.026768727
-0.15259129 0.2536394 0.024314059
0.063510209 0.25355697 0.024939965
0.20554498 0.2639116 0.026034452
-0.238685 -0.29467821 0.033482283
-0.23868498 -0.2898736 0.036734864
-0.02295245 -0.18547969 0.034191091
-0.23868498 -0.16882391 0.032476157
-0.14208348 -0.16265722 0.033352677
0.048013568 -0.1625244 0.034361605
-0.010494332 -0.10500338 0.030582789
-0.010242807 0.16890995 0.039064988
0.20554498 0.20761435 0.03402124
0.0088743344 0.25283295 0.030439161
0.1034244 0.2526392 0.03191074
0.20554499 0.26026401 0.031861559
0.22991398 0.26148376 0.038410384
-0.11121555 0.27529207 0.037432075
0.067190655 0.27756444 0.030383201
-0.22614673 0.35655501 0.034015112
0.029815979 0.35655501 0.032659352
-0.22393934 -0.34964943 0.042735934
-0.23872831 -0.33895108 0.047461174
0.010734793 -0.18286628 0.046348132
0.16097577 -0.18239972 0.048518483
0.218371 -0.18569213 0.043741431
0.22991399 -0.12434068 0.049870733
-0.238685 -0.1141846 0.044303626
-0.23868501 0.035113622 0.042964954
0.20554501 0.11276262 0.048040222
-0.23868498 0.27828923 0.04095915
0.061041851 0.27328044 0.0436721
0.11028427 0.27174526 0.048434235
0.12336391 0.35655501 0.049287587
-0.14767388 -0.35084015 0.051831007
-0.0020162165 -0.35311422 0.059688948
0.218371 -0.31822836 0.056851208
-0.081482679 -0.1564776 0.05170285
-0.0097249951 -0.04136676 0.056497924
0.20554499 0.11836176 0.050236154
-0.0096331984 0.22991392 0.059603579
0.0010151248 0.23923217 0.057242893
-0.11306345 0.27022511 0.053149793
0.18651503 0.35655501 0.052882873
0.14231838 -0.35536766 0.069377132
0.218371 -0.26828432 0.068167999
0.218371 -0.24563299 0.067785643
-0.16698788 -0.17756356 0.06631802
-0.10635523 -0.17736611 0.066703342
0.069544524 -0.15243545 0.061461262
0.22991399 -0.14479543 0.063527092
-0.0012931675 -0.10664452 0.063152812
0.20554499 -0.045182273 0.063497886
-0.23868501 -0.034970611 0.066178344
0.20554498 -0.030983053 0.061993651
-0.23868501 0.041948542 0.065677874
0.15851027 0.23923627 0.068683863
0.0061100274 0.26629516 0.065340512
0.063547961 0.26506478 0.069157168
-0.20326386 0.35655501 0.066568345
-0.12084837 0.35655501 0.065719649
-0.03633073 0.35655501 0.067337945
0.056081153 0.35655504 0.066700228
0.14113612 0.35655501 0.065833598
-0.19629659 -0.35008103 0.079854354
0.062796205 -0.3541261 0.079355553
0.070970699 -0.35425374 0.070526943
-0.10284162 -0.17292607 0.07536754
0.020110622 -0.14596294 0.077086963
0.12967184 -0.14664702 0.075435482
0.035457261 -0.10272073 0.071538724
-0.238685 -0.075680271 0.072620772
-0.0092047201 0.035427026 0.074020438
0.20554498 0.12414017 0.072121233
0.2236965 0.18477428 0.076624319
-0.073965594 0.23504762 0.078796417
0.15404035 0.23843475 0.070618995
0.10737989 0.26466483 0.070397779
-0.13169381 -0.35108963 0.085028112
0.010875627 -0.3533155 0.087348461
0.12145986 -0.35504198 0.088200539
0.19156896 -0.35613656 0.082729921
-0.238685 -0.25911409 0.082567245
0.20285504 -0.14107773 0.088880636
0.22991398 -0.13506079 0.084240071
0.040806189 -0.097448029 0.084114566
0.15641771 -0.092139199 0.088903502
0.20554499 -0.073886335 0.088746026
-0.23868501 -0.066952333 0.089351475
0.21995808 -0.06695728 0.083069466
0.22991401 0.1903474 0.081326112
0.13412419 0.2309494 0.088690668
0.045636237 0.25819772 0.087687001
0.15159026 0.25739548 0.088928618
0.218371 -0.30203325 0.099443421
-0.238685 -0.17271236 0.091428846
-0.12597838 -0.16272697 0.095269948
0.051991552 -0.14020067 0.090557694
-0.15673465 -0.13696831 0.09477023
-0.14750975 -0.13716188 0.094517969
-0.008596655 -0.052523673 0.094526753
-0.0085503953 -0.038996749 0.096083194
-0.238685 -0.0073244125 0.090722948
-0.0084796883 -0.0038825963 0.098460555
0.20554499 0.12686867 0.096791402
-0.097900905 0.226882 0.094612941
0.10601336 0.2275034 0.09380313
0.12913482 0.22132927 0.090989381
0.20554499 0.23636185 0.096187517
0.22658876 0.24532126 0.095022209
0.17822248 0.25630933 0.090609662
0.10286662 0.35655501 0.097297058
-0.018512908 -0.35285667 0.10447592
0.048585065 -0.35390422 0.10690974
0.056795008 -0.3540324 0.10423108
-0.22428608 -0.34964404 0.10106925
-0.21057636 -0.34985808 0.10432777
-0.20997864 -0.3498674 0.10977707
-0.23868498 -0.19011657 0.109195
0.0062557608 -0.15899448 0.10255347
-0.23868501 -0.14695472 0.10161827
0.067027979 -0.13159202 0.1017768
-0.0092854984 -0.12788135 0.10661267
-0.23868498 -0.10226209 0.10476916
-0.238685 -0.023952954 0.10807368
-0.067193352 0.2162395 0.10848263
0.22991399 0.21749783 0.10453735
0.057262063 0.22232096 0.10055704
0.22991399 0.22419006 0.10732327
0.13508375 0.2469151 0.10514908
0.21543197 0.24822886 0.10905668
0.19489893 0.25397667 0.10871811
0.218371 0.33444822 0.10593072
-0.21500617 0.35655501 0.10567297
-0.19629964 -0.35008097 0.11817522
0.218371 -0.34572268 0.11217217
-0.23868501 -0.3284294 0.11557386
-0.15676965 -0.15511544 0.11012298
0.07440161 -0.12404729 0.11160937
0.14208187 -0.12340387 0.11244789
0.20554499 -0.036457829 0.11765778
-0.23868498 0.0429563 0.11261212
-0.12298031 0.20890589 0.11804004
-0.10662206 0.20757805 0.11977054
0.07821735 0.20814648 0.11902972
-0.15344033 0.21131985 0.11489408
-0.12767756 0.21073747 0.11565305
-0.19205201 0.23504794 0.11801936
-0.17215693 0.24277849 0.11155127
0.13137467 0.35655501 0.11435414
0.17133419 0.35655501 0.11700369
-0.056869213 -0.35225782 0.12874532
0.065282948 -0.1443969 0.12548485
0.13726026 -0.14401481 0.12590724
-0.238685 -0.12963149 0.12234569
-0.18427677 -0.11354722 0.1252934
-0.06692259 -0.11192056 0.12741335
0.062516339 -0.063311331 0.12747595
0.22476612 -0.024693638 0.12001771
0.21554041 0.13065432 0.12287976
0.03061023 0.19426559 0.12781982
-0.02808927 0.23322299 0.12634028
0.015490524 0.23521127 0.12326305
0.13545156 0.23359475 0.12576491
0.036188893 0.35655501 0.12829559
0.15918595 0.35655501 0.12986095
0.16767196 -0.35576347 0.13824174
-0.13998017 -0.13877776 0.13169685
0.048732489 -0.13331214 0.13773912
0.22991401 -0.1012606 0.1309327
-0.238685 -0.050100528 0.13326576
0.096442766 -0.047585361 0.13854147
0.20554498 -0.041053317 0.13048488
-0.0074130972 -0.013401483 0.13439545
0.2100119 0.00087576499 0.13060898
-0.007541284 0.095321499 0.13006464
0.22991399 0.17394908 0.13524969
0.030353609 0.18541475 0.13462207
-0.14184734 0.19485416 0.13555059
-0.11206242 0.19638123 0.13436261
0.015726415 0.19708982 0.13343917
-0.11677686 0.22395074 0.13920711
-0.053380556 0.22990532 0.13147505
0.034524024 0.22976959 0.13168511
0.19568278 0.29790965 0.13206813
-0.072232321 0.35655501 0.13996351
0.1147052 0.35655499 0.13075159
-0.23868498 -0.13946916 0.14911976
0.218371 -0.13228785 0.14195295
-0.1678164 -0.12526418 0.14663617
0.13698539 -0.12386942 0.1481781
0.14030489 -0.12313997 0.14898451
0.20554499 -0.10666827 0.14719345
-0.1011467 -0.093712315 0.1442591
-0.061067924 -0.09330257 0.14457351
0.13634974 -0.097611725 0.1412669
0.16730461 -0.086293384 0.14995196
0.052300055 -0.044982933 0.14184934
-0.0071337135 0.025339514 0.14380586
0.20712683 0.068998471 0.14008617
-0.0071536615 0.1365834 0.14313208
0.034442775 0.1655947 0.1497162
0.1790714 0.16785015 0.14369248
0.18845883 0.16128613 0.14845295
0.12602922 0.21507664 0.1472345
0.15824991 0.21613595 0.14627627
0.218371 0.32472092 0.14363573
-0.19396845 -0.35011736 0.1507829
0.070949331 -0.35425338 0.15119867
0.17202495 -0.35583144 0.1511935
-0.1743938 -0.11748542 0.15523565
-0.11417873 -0.11866802 0.15392828
-0.067661919 -0.11953178 0.15297338
0.218371 -0.10704976 0.15000778
0.218371 -0.096070915 0.15313533
0.14201295 -0.081261113 0.15381347
0.20093802 -0.010752835 0.15759432
-0.0067904992 0.092662297 0.15537606
0.19053313 0.09573777 0.15917207
0.049107052 0.15530625 0.15613961
-0.14442243 0.16352034 0.15959415
-0.07249254 0.16426902 0.15901965
-0.059463464 0.1730867 0.15225352
0.01024659 0.17074695 0.15404889
-0.14059019 0.20374277 0.15748698
0.096490651 0.35655501 0.15190974
0.10610612 0.35655501 0.15126427
0.218371 -0.35299379 0.16218384
-0.12877464 -0.11192957 0.16137768
0.22098386 -0.073947161 0.16241464
0.17847538 -0.06857577 0.1635475
0.13017175 0.095612943 0.16079322
0.1987185 0.10654061 0.16999397
0.20554501 0.11297414 0.16090927
-0.11272577 0.14995041 0.16928622
-0.092369504 0.15039633 0.16910152
-0.042514123 0.15218149 0.16829482
0.014576286 0.15736604 0.16431653
-0.058263704 0.16040379 0.16198558
-0.032147117 0.16130023 0.16129771
0.084156439 0.1623278 0.16050921
-0.18477583 0.19728714 0.16332665
-0.238685 0.25670671 0.16947961
-0.083277121 0.35655499 0.1681765
-0.16177937 -0.35061991 0.17205495
-0.010638643 -0.35297963 0.17738199
0.218371 -0.12039866 0.17976394
0.14711039 -0.09968318 0.17050834
-0.055136018 -0.05255872 0.17243381
-0.066371411 -0.042607717 0.17655551
-0.018312886 -0.040602278 0.17738615
-0.085662693 -0.038716923 0.17816707
-0.238685 -0.0035262108 0.17444974
0.093569458 0.034435295 0.1745379
0.045443099 0.076296583 0.17852625
0.03480164 0.087326057 0.17683953
0.004565536 0.09827549 0.17684479
-0.23868498 0.10292393 0.17906006
-0.0063375812 0.10676779 0.17063905
0.20844162 0.10080374 0.17046097
-0.17105466 0.1296436 0.17769742
-0.23868501 0.2676205 0.17513993
0.16577429 0.35655501 0.17917679
-0.1391464 -0.35097325 0.1829187
0.12478791 -0.35509393 0.18769994
0.16811362 -0.35577038 0.18206814
-0.041792803 -0.071272522 0.18886486
0.030519037 -0.076345675 0.18558703
0.1933147 -0.079823717 0.18333983
-0.23868501 -0.053065754 0.18573374
-0.024829417 -0.023020213 0.1846686
0.049600359 -0.022062061 0.18506546
-0.025255233 -0.016349023 0.1874318
0.028565701 0.066113159 0.18036829
0.22991399 0.09231852 0.18654457
-0.13023888 0.10288365 0.18878151
0.075191811 0.10709658 0.1870365
0.14656407 0.10956 0.18601616
-0.065859482 0.11627498 0.18323475
0.062272228 0.12029213 0.18157083
-0.238685 0.13758333 0.18048093
0.20554498 0.15465954 0.18019873
-0.014820062 0.17263085 0.18267249
-0.17819388 0.35655501 0.18503079
-0.080254652 0.35655501 0.18396722
-0.047234513 -0.35240823 0.19892508
0.1926571 -0.35615355 0.19843894
-0.238685 -0.33447057 0.19391777
0.218371 -0.1978831 0.19043446
-0.10922802 -0.066172689 0.19215994
0.046875164 -0.061581187 0.19512656
0.14754826 -0.061076142 0.1954529
-0.238685 -0.026044846 0.19420344
-0.0028199106 -0.0014669527 0.19103241
0.14136492 -0.0085648848 0.19009799
0.11637297 0.0063541629 0.19206204
0.16882096 0.014720567 0.19316344
0.1973182 0.02608321 0.19465931
0.068765178 0.037616186 0.1961776
-0.13205327 0.049464982 0.19653457
-0.04360003 0.047279943 0.19682223
0.064501084 0.046379551 0.19694075
0.072296843 0.058632635 0.19532768
0.22991399 0.05912964 0.19442809
-0.0019569993 0.075218961 0.19314416
0.017952036 0.077666238 0.19282201
0.15145649 0.075804286 0.1930671
-0.13049504 0.085642576 0.19177195
-0.19205201 0.10373982 0.19200207
0.068799362 0.14099234 0.19888565
0.082697421 0.14074035 0.19901478
0.087425947 0.15268877 0.19289181
0.11221384 0.15832315 0.19000447
0.218371 0.20076448 0.19311032
0.218371 0.35639161 0.19559351
-0.16919808 -0.3505041 0.20275113
0.218371 -0.17410991 0.20623629
0.218371 -0.057805326 0.20845816
-0.19205201 -0.041410722 0.2003423
-0.032886975 -0.038464494 0.20403424
0.014177747 -0.034442257 0.20533082
-0.238685 -0.013749346 0.20715672
-0.19205201 0.029152632 0.20827249
-0.14028668 0.11588977 0.20907715
0.099915169 0.11485056 0.20930058
0.12532359 0.1128158 0.20973799
-0.08320044 0.13193379 0.2035277
0.14879178 0.13709973 0.20088041
0.219653 0.33343178 0.2090327
-0.13522959 0.35655501 0.20054694
-0.21466924 -0.34979415 0.21441689
-0.23868498 -0.25851232 0.21684627
-0.23868501 -0.14942609 0.21023667
-0.238685 -0.017594466 0.21950617
0.11062582 -0.0012804408 0.2160207
0.1901287 -0.0089198817 0.21355809
-0.10782231 0.0046961363 0.21722913
-0.043663017 0.0086883176 0.21742913
-0.021476537 0.028893337 0.21844129
0.091961488 0.027488872 0.21837093
0.20299169 0.071093999 0.21870711
6.3933432e-05 0.080359422 0.21671529
0.010656741 0.08879146 0.21490261
0.11698241 0.098977864 0.21271281
0.18735354 0.092607729 0.21408221
-0.018691078 0.10118901 0.21223746
0.13916557 0.10906082 0.21054523
0.18282463 0.10053677 0.21237767
0.10261413 0.1101957 0.21030127
0.218371 0.18310025 0.21214093
-0.238685 0.25683999 0.21742262
0.15365557 0.35655501 0.21552478
-0.1622033 -0.3506133 0.22908673
0.19807272 -0.3562381 0.22203562
0.218371 -0.3380768 0.22618645
0.218371 -0.058469467 0.22139126
0.218371 0.10139565 0.22096905
-0.238685 0.26046079 0.22173667
-0.15830299 -0.35067418 0.23975846
0.1543766 -0.35555589 0.23493275
-0.238685 -0.1693341 0.2321865
-0.23868501 -0.070196241 0.23816541
0.218371 -0.064827025 0.23654065
-0.23868501 -0.010879425 0.2308946
0.218371 0.15295269 0.23210204
0.218371 0.28752488 0.23260452
0.077087864 0.35655501 0.23298755
-0.089358181 -0.35175058 0.24444181
0.028389484 -0.35358894 0.24564628
0.16420005 -0.35570925 0.24006489
-0.21104676 -0.34985071 0.24717687
0.218371 0.19731747 0.24277291
0.218371 0.20453671 0.24904799
-0.238685 0.30347419 0.24334228
-0.13952449 0.35655499 0.24336067
0.11518931 -0.35081059 0.25651401
-0.21764113 -0.34160978 0.25651401
-0.16976541 -0.34936601 0.25651401
0.029390953 -0.34060568 0.25651401
0.0043492913 -0.32197016 0.25651401
0.13823518 -0.31186777 0.25651401
-0.238685 -0.30440059 0.25575411
0.13361406 -0.3046937 0.25651401
-0.1156608 -0.29390824 0.25651401
-0.097282074 -0.28236192 0.25651401
-0.13472725 -0.27865621 0.25651401
-0.074328847 -0.27399531 0.25651401
0.099050924 -0.2724233 0.25651401
-0.1624625 -0.26640737 0.25651401
0.11546447 -0.2598232 0.25651401
-0.013688996 -0.24128577 0.25651401
-0.22658513 -0.2304831 0.25651401
0.093701199 -0.23469979 0.25651401
0.10103673 -0.23799999 0.25651401
0.1313809 -0.22128561 0.25651401
-0.12394267 -0.20722076 0.25651401
0.14421843 -0.20800376 0.25651401
-0.12004117 -0.19392672 0.25651401
-0.064800955 -0.19081958 0.25651401
-0.020389117 -0.19677989 0.25651401
0.12443008 -0.18537194 0.25651401
0.14683327 -0.18857972 0.25651401
0.072154202 -0.17281471 0.25651401
0.11955039 -0.17641829 0.25651401
-0.17737603 -0.15975374 0.25651401
-0.076229073 -0.15809548 0.25651401
-0.049946554 -0.15145908 0.25651401
-0.20646837 -0.14884278 0.25651401
0.024678327 -0.13260466 0.25651401
0.023217179 -0.1205835 0.25651401
0.12709197 -0.12896004 0.25651401
0.17709842 -0.12184311 0.25651401
-0.20743252 -0.093651779 0.25651401
-0.056127865 -0.095712952 0.25651401
-0.10979819 -0.088527024 0.25651401
-0.015778253 -0.088387623 0.25651401
0.1771214 -0.087695137 0.25651401
0.15016946 -0.061810926 0.25651401
-0.09687791 -0.056603495 0.25651401
-0.0088197775 -0.056653854 0.25651401
0.043618258 -0.056653187 0.25651401
-0.1026371 -0.040035564 0.25651401
0.046265792 -0.044161938 0.25651401
0.098553777 -0.043238427 0.25651401
0.218371 -0.042806529 0.2553319
-0.22001036 -0.0387826 0.25651401
-0.16592036 -0.031260647 0.25651401
-0.2274885 -0.02978912 0.25651401
0.18022907 -0.020411842 0.25651401
0.0061839297 -0.019845188 0.25651401
0.033299994 -0.002348064 0.25651401
0.0013724566 0.0098136216 0.25651401
0.20880786 0.011786044 0.25651401
-0.23217849 0.022973537 0.25651401
0.21622922 0.025571555 0.25651401
0.061420813 0.037420154 0.25651401
-0.16590059 0.049542934 0.25651401
-0.23369133 0.055398047 0.25651401
-0.17251608 0.057762191 0.25651401
-0.16236706 0.057573408 0.25651401
-0.05695907 0.059993714 0.25651401
-0.045274477 0.051623385 0.25651401
0.10627103 0.059846062 0.25651401
-0.19617122 0.074971758 0.25651401
-0.028958671 0.078254908 0.25651401
0.21280485 0.072709076 0.25651401
-0.22060619 0.083821297 0.25651401
-0.21767816 0.083471246 0.25651401
-0.055972353 0.1231817 0.25651401
0.0043180026 0.12537865 0.25651401
0.218371 0.12777001 0.25483114
-0.18423471 0.15731539 0.25651401
-0.037457008 0.16516751 0.25651401
-0.12014478 0.17119852 0.25651401
-0.019583747 0.18854485 0.25651401
0.0139693 0.19295755 0.25651401
0.19104837 0.21026513 0.25651401
-0.18218735 0.24871913 0.25651401
-0.15164074 0.25490674 0.25651401
0.20741911 0.25692022 0.25651401
-0.15804619 0.26922294 0.25651401
0.016408905 0.26189974 0.25651401
0.20102759 0.27016264 0.25651401
-0.22873853 0.28324789 0.25651401
0.16625285 0.30748671 0.25651401
0.11366622 0.31622791 0.25651401
-0.22111991 0.32657614 0.25651401
0.048477456 0.32754308 0.25651401
0.060257383 0.32404637 0.25651401
-0.10171054 0.33510745 0.25651401
0.1496084 0.34260479 0.25651401
-0.17725185 0.35497037 0.25651401
-0.029980985 0.35655501 0.25230619
0.2040121 0.35655501 0.25524387
