# .PCD v0.7 - Point Cloud Data file format
VERSION 0.7
FIELDS x y z
SIZE 4 4 4
TYPE F F F
COUNT 1 1 1
WIDTH 980
HEIGHT 1
VIEWPOINT 0 0 0 1 0 0 0
POINTS 980
DATA ascii
-0.19547081 -0.31074977 -0.33901799
-0.16379507 -0.30118483 -0.33901799
-0.074371457 -0.30313894 -0.33901799
0.098309398 -0.30815607 -0.33901799
-0.15949103 -0.29899159 -0.33901799
0.0081306808 -0.29871732 -0.33901799
-0.18339181 -0.28859356 -0.33901799
-0.048358753 -0.28708661 -0.33901799
0.15485954 -0.28734463 -0.33901799
-0.1522797 -0.27185437 -0.33901799
-0.067814127 -0.26590419 -0.33901799
-0.020495936 -0.26867348 -0.33901799
0.10041608 -0.26483196 -0.33901799
0.14908463 -0.26046982 -0.33901799
-0.063884743 -0.25271264 -0.33901799
-0.19619101 -0.24240091 -0.33760023
-0.052150715 -0.24743378 -0.33901799
0.015634794 -0.24722548 -0.33901799
-0.022709038 -0.23271067 -0.33901799
0.020969383 -0.23086396 -0.33901799
0.042715833 -0.23478332 -0.33901799
0.14458686 -0.23469678 -0.33901799
0.15738443 -0.23726356 -0.33901799
-0.17773266 -0.22877105 -0.33901799
-0.10016815 -0.21435969 -0.33901799
0.0023891851 -0.21366179 -0.33901799
0.12834924 -0.21815851 -0.33901799
-0.018385373 -0.20541541 -0.33901799
0.095297664 -0.20923187 -0.33901799
-0.055703066 -0.19312158 -0.33901799
-0.08150129 -0.1881676 -0.33901799
0.13221951 -0.17039952 -0.33901799
0.041321926 -0.16720429 -0.33901799
0.075734273 -0.150564 -0.3329666
-0.1726 -0.145239 -0.33102536
0.15979071 -0.145239 -0.3343558
-0.10979421 -0.12251063 -0.33901799
-0.17124589 -0.1172341 -0.33901799
0.034100503 -0.11316995 -0.335879
0.072500296 -0.11908123 -0.33901799
-0.014141281 -0.093628258 -0.33901799
0.12982121 -0.098767444 -0.33587903
-0.196191 -0.070099957 -0.33834672
-0.11917759 -0.073443696 -0.335879
-0.093442917 -0.079152718 -0.33901799
-0.0785143 -0.071999446 -0.33820039
-0.040773708 -0.073608898 -0.335879
-0.032013357 -0.077654824 -0.335879
-0.0251502 -0.074426539 -0.33810055
0.028642979 -0.079817221 -0.335879
0.073409684 -0.070863612 -0.33901799
-0.0070505515 -0.051392943 -0.33901799
0.10103229 -0.056320976 -0.335879
-0.14370444 -0.043140247 -0.335879
-0.01535796 -0.043066241 -0.33901799
0.10939186 -0.045642193 -0.335879
0.1505217 -0.043777227 -0.33901799
-0.12290577 -0.034228411 -0.335879
0.17117797 -0.035296094 -0.33901799
-0.17975022 -0.021578379 -0.33901799
-0.15253191 -0.020177886 -0.335879
-0.13720903 -0.020405278 -0.335879
0.078550145 -0.010724146 -0.33901799
-0.080830581 -0.0083796754 -0.33901799
-0.15855843 0.0059967996 -0.335879
0.061765563 0.003461387 -0.33901799
-0.093528599 0.018537156 -0.33901799
-0.0043202443 0.022172075 -0.33901799
0.16994601 0.024121083 -0.33901799
0.19582589 0.027169425 -0.33881617
-0.196191 0.038256206 -0.33112115
-0.059099339 0.038867317 -0.335879
0.073686406 0.03860154 -0.33901799
0.084034242 0.036493998 -0.335879
-0.0251502 0.04878372 -0.3382459
0.0053650583 0.04224249 -0.335879
0.016626876 0.049086735 -0.335879
0.030341957 0.043235838 -0.335879
0.054934531 0.047458425 -0.33587897
-0.024337772 0.058120675 -0.33901799
0.012616173 0.064463288 -0.335879
0.19482346 0.068584263 -0.3320761
-0.092356324 0.077805705 -0.33901799
0.1941103 0.086260498 -0.3377566
-0.075736158 0.094252571 -0.335879
0.00182051 0.096021578 -0.33888933
0.085296065 0.091567814 -0.335879
-0.082263365 0.10421418 -0.33901799
-0.18355682 0.11345882 -0.33901799
-0.17795217 0.11882233 -0.33901799
-0.16722268 0.11490177 -0.33901799
-0.1118833 0.11219814 -0.335879
-0.10538565 0.11169535 -0.33901799
-0.065011181 0.11369315 -0.33587903
0.0098384209 0.11268684 -0.335879
-0.13595583 0.12718305 -0.335879
-0.15819851 0.13746177 -0.335879
-0.0785143 0.13537312 -0.33683899
-0.03863629 0.13674667 -0.335879
0.1646004 0.13406394 -0.33901799
-0.067179307 0.14970697 -0.335879
0.068461411 0.1521733 -0.33901799
-0.13158759 0.16423969 -0.335879
0.055184599 0.16638267 -0.3389495
0.00089296245 0.17681545 -0.33901799
0.022056168 0.17357457 -0.335879
-0.13274513 0.1861759 -0.335879
-0.0785143 0.18593648 -0.33860829
-0.10189836 0.19664906 -0.33901799
-0.0069358866 0.20813301 -0.33901799
-0.063691802 0.21833086 -0.335879
-0.023456628 0.23082401 -0.33901799
-0.18968256 0.24914768 -0.33901799
0.00182051 0.24843329 -0.33765429
0.059129559 0.24713373 -0.33901799
0.067607127 0.24791877 -0.33901799
0.098872542 0.24676955 -0.335879
-0.18623196 0.25186342 -0.33901799
-0.1275243 0.25744867 -0.335879
-0.074953392 0.26231402 -0.33679539
-0.041667335 0.26570541 -0.335879
-0.0079715485 0.26485717 -0.33901799
0.083623007 0.26128501 -0.33695105
0.13350108 0.27429485 -0.335879
0.044632703 0.28971228 -0.33901799
-0.027153011 0.29830956 -0.33901799
0.15173422 0.29786927 -0.33901799
-0.16040909 0.30648118 -0.33901799
0.15183711 0.30111146 -0.33901799
-0.12230287 0.31076699 -0.33872393
-0.069229916 0.31076699 -0.33193991
0.013982823 0.31076699 -0.33750364
0.10510504 0.31076699 -0.33036011
0.15559918 0.31076699 -0.33778778
-0.13083094 -0.31076699 -0.32688871
0.17053401 -0.31076699 -0.32346404
0.18579386 -0.19943321 -0.3245562
-0.011738878 -0.150564 -0.32975927
0.13842498 -0.15056401 -0.32903168
0.045118224 -0.14644554 -0.326462
0.11561979 -0.145239 -0.32731819
-0.196191 -0.074307598 -0.32290676
0.18033838 0.2461649 -0.3290416
-0.196191 0.27943066 -0.32485592
0.17261097 0.30047405 -0.32046157
0.13252902 -0.31076699 -0.31579757
-0.19619101 0.030402333 -0.31599975
-0.196191 0.1216623 -0.31782603
0.1586692 0.31076699 -0.31391734
0.18725851 -0.18390866 -0.30697808
0.19045277 -0.14771418 -0.30588216
0.19524209 0.0582081 -0.30030599
0.18303595 0.22397031 -0.30670372
-0.19619101 0.26122895 -0.30387056
0.17217526 0.30339986 -0.30412409
-0.17439283 0.31076699 -0.3006098
-0.14733845 0.31076699 -0.30850589
-0.19582729 -0.31076699 -0.29131284
-0.030436467 -0.31076699 -0.29846767
-0.018707726 -0.31076699 -0.29976153
-0.196191 -0.27582091 -0.29038489
0.17690425 -0.27164319 -0.29040936
0.19592014 -0.020146191 -0.29138145
-0.196191 0.087236702 -0.29979742
-0.196191 0.11462218 -0.29913259
-0.196191 0.21060823 -0.2968671
-0.19619098 0.28793645 -0.29227144
-0.12235615 0.31076699 -0.29375851
-0.098904148 0.31076699 -0.296413
-0.027193237 0.31076699 -0.29205155
-0.040581927 -0.31076699 -0.28873152
0.08208894 -0.31076699 -0.28456867
0.10395685 -0.31076699 -0.28388983
0.13759133 -0.31076699 -0.28447822
-0.196191 -0.23079798 -0.28672615
-0.19619098 -0.21208958 -0.28694862
0.18929783 -0.16229278 -0.28821883
-0.196191 0.27186376 -0.28789556
0.066733807 0.31076699 -0.28438354
-0.10885724 -0.31076699 -0.27294233
-0.19619101 -0.062677585 -0.27545911
0.19598275 0.015495568 -0.27256233
0.1915046 0.13207801 -0.27865744
-0.14773321 0.31076699 -0.27374074
0.094300263 0.31076699 -0.27163196
-0.196191 -0.17634374 -0.26433262
-0.196191 -0.12296906 -0.26421165
-0.19619101 0.041694365 -0.26468745
0.1893322 0.16192961 -0.26064029
-0.196191 0.20012638 -0.26974121
-0.196191 0.23037648 -0.26475599
0.04148405 0.31076699 -0.26537797
0.078432046 -0.31076699 -0.25520477
-0.196191 -0.26898748 -0.25078839
0.18028179 -0.24663043 -0.25531581
0.18195733 -0.23284423 -0.25864509
-0.19619101 -0.18209489 -0.25300819
-0.196191 -0.094952449 -0.25080851
0.19434255 -0.080503255 -0.25071681
-0.196191 -0.046135813 -0.25452173
-0.19619101 -0.025103558 -0.25719455
-0.19619098 0.013803989 -0.25115633
-0.15180606 0.31076699 -0.25465041
-0.064386979 0.31076699 -0.25897351
-0.035862364 0.31076699 -0.25409487
0.15657032 0.31076699 -0.25986394
-0.18819661 -0.31076699 -0.24968164
-0.058771711 -0.31076699 -0.24712241
0.094196081 -0.31076699 -0.2427485
0.14651938 -0.31076699 -0.2487354
0.18054971 -0.24442595 -0.24625546
0.18200725 -0.23243348 -0.24711931
0.19380897 -0.093728416 -0.24034929
0.19419177 -0.084240682 -0.24658574
0.19590096 0.021580998 -0.24113671
0.19396782 0.089792244 -0.24689284
-0.19619098 0.092792578 -0.24807256
-0.196191 0.13945122 -0.24549232
0.17276832 0.29941726 -0.24287044
0.15974051 0.31076699 -0.24576738
-0.14176007 -0.31076699 -0.23185578
0.075028919 -0.31076699 -0.23793407
-0.196191 -0.20717245 -0.23838674
-0.196191 -0.12651704 -0.23823738
0.022795618 0.31076699 -0.23611562
0.065698512 0.31076699 -0.23669569
-0.19619098 -0.2732099 -0.22569707
-0.196191 -0.22326042 -0.2272304
0.1837247 -0.21830267 -0.22171891
0.19619016 -6.2030471e-05 -0.22928946
-0.17457072 0.31076699 -0.22033161
-0.14056246 0.31076699 -0.22103575
-0.1172775 0.31076699 -0.2297897
0.064025052 0.31076699 -0.22511971
0.10142615 0.31076699 -0.22758293
0.0058920132 -0.31076699 -0.21041457
-0.196191 -0.24939987 -0.21214721
0.18041342 -0.24554724 -0.21794175
0.1768693 0.27187815 -0.21593688
-0.13238798 0.31076699 -0.21687101
-0.097935349 0.31076699 -0.2141583
0.031707637 0.31076699 -0.21314402
0.15142246 0.31076699 -0.21664944
0.16950084 0.31076699 -0.21446477
0.051408865 -0.31076699 -0.20725961
0.15794252 -0.31076699 -0.20884715
-0.19619098 -0.27880853 -0.20375983
0.19181398 -0.12748219 -0.20115303
-0.196191 0.1332963 -0.20599923
-0.196191 0.27144936 -0.20798375
0.037299752 0.31076699 -0.20254259
0.094004296 0.31076699 -0.20582989
0.11342707 0.31076699 -0.20029268
0.1241854 0.31076699 -0.20607015
-0.072334096 -0.31076699 -0.19085091
-0.196191 -0.30552831 -0.19774966
0.17338848 -0.29525179 -0.1971101
-0.196191 -0.077767059 -0.19075048
0.19573079 -0.034244835 -0.19281864
-0.19619101 0.031499267 -0.19463994
-0.196191 0.17214599 -0.197853
-0.196191 0.19932386 -0.19971675
0.1859035 0.1982719 -0.19462469
-0.13672692 0.31076699 -0.19905138
0.050871644 0.31076699 -0.19494331
-0.15221715 -0.31076699 -0.18170828
-0.067302912 -0.31076699 -0.1828053
0.021257538 -0.31076699 -0.18664902
-0.196191 -0.2043138 -0.1819862
-0.196191 -0.15568778 -0.18784569
0.18282095 0.22573923 -0.1851837
0.1822094 0.23077083 -0.18238197
0.18050587 0.2447869 -0.18069631
-0.057978243 0.31076699 -0.18605646
-0.0056231767 0.31076699 -0.18440077
0.040486224 -0.31076699 -0.17732148
0.17884946 -0.2584154 -0.1772736
-0.196191 -0.11316618 -0.17335862
-0.196191 0.040394433 -0.17698498
0.18859605 0.16973233 -0.175207
-0.087112017 0.31076699 -0.17829506
0.021937814 0.31076699 -0.17669153
0.12183359 0.31076699 -0.1732225
-0.14052731 -0.31076699 -0.1609396
-0.196191 -0.27070099 -0.16255884
0.18081844 -0.24221489 -0.16896629
0.18270275 -0.22671112 -0.16245265
0.1946975 -0.071705133 -0.16015773
0.19606158 -0.0096250372 -0.16648729
-0.196191 0.097319223 -0.16015014
0.18441927 0.2125887 -0.16749316
0.17513852 0.28350091 -0.16072875
-0.17541546 0.31076699 -0.16640043
-0.15933707 0.31076699 -0.16016915
0.020117912 0.31076699 -0.16714653
0.043556929 0.31076699 -0.16159855
0.13012537 0.31076699 -0.16109934
0.16177852 0.31076699 -0.1608268
0.057759088 -0.31076699 -0.15176319
0.18477832 -0.20963365 -0.15025836
-0.19619098 -0.050670333 -0.15510938
-0.196191 -0.044687614 -0.15833364
0.19582847 0.026976598 -0.15907054
-0.19619098 0.097932518 -0.15576547
0.19156961 0.13111219 -0.15449382
0.17196384 0.30481908 -0.15873238
-0.12510762 0.31076699 -0.15508543
-0.16224182 -0.31076699 -0.14765456
0.18204778 -0.23210002 -0.14418568
-0.196191 -0.087944284 -0.14595418
-0.196191 0.17115448 -0.14773703
-0.19619098 0.25682262 -0.14328198
-0.196191 0.28613657 -0.14142312
-0.15206081 0.31076699 -0.14778399
-0.080856353 0.31076699 -0.14552207
0.054393552 0.31076699 -0.14339454
-0.053998228 -0.31076699 -0.13771561
0.19513819 -0.060782775 -0.13185169
0.19598183 -0.015561357 -0.13232693
-0.19619098 0.012932941 -0.13880222
0.19107813 0.13841474 -0.13314003
-0.196191 0.22995463 -0.13393597
-0.196191 0.25169605 -0.13073523
-0.10120469 0.31076699 -0.13792276
0.12657651 0.31076699 -0.13982917
-0.196191 -0.23350008 -0.12994927
-0.196191 -0.0050973333 -0.12732932
-0.196191 0.091027625 -0.12955981
0.19343337 0.10303882 -0.12589325
0.18681727 0.18858647 -0.12140745
0.18549713 0.20257929 -0.12978916
0.17749657 0.26766601 -0.12660119
-0.096107498 0.31076699 -0.12143961
0.10479163 0.31076699 -0.12403516
0.14652613 0.31076699 -0.12758328
0.19156313 0.1312086 -0.11305393
-0.17273882 0.31076699 -0.11799901
0.010676593 -0.31076699 -0.10086207
-0.19619098 -0.29222298 -0.1007089
-0.196191 -0.090706199 -0.10346375
0.19616884 0.0016494044 -0.10071199
0.19012497 0.15257694 -0.10847361
0.18640779 0.19292676 -0.10673292
-0.196191 0.26499847 -0.102465
-0.19619101 0.28381026 -0.10499701
0.085496783 0.31076699 -0.10895825
0.10761378 0.31076699 -0.10839775
-0.16306177 -0.31076699 -0.091396675
-0.19619101 -0.049600668 -0.094825424
0.19573756 -0.033740655 -0.094790109
0.19604579 0.010804701 -0.099193662
-0.196191 0.13358349 -0.093162209
-0.19619101 0.27959958 -0.097874463
0.17201474 -0.3044768 -0.087975249
-0.196191 -0.2957561 -0.080965944
-0.19619098 -0.26747844 -0.0846745
0.196134 -0.0042397236 -0.082510747
-0.196191 0.0090199411 -0.080436148
-0.196191 0.014516182 -0.087820284
-0.196191 0.053394374 -0.088884845
0.1907586 0.14316235 -0.084071241
0.18631598 0.19389994 -0.088530675
0.1774552 0.26794377 -0.080309331
0.13021836 0.31076699 -0.083293118
0.0094291531 -0.31076699 -0.0791476
0.074983388 -0.31076699 -0.075282462
0.17404473 -0.29084516 -0.076388091
0.17690504 -0.27163792 -0.073809467
-0.19619101 -0.10212612 -0.073340476
0.19552565 -0.049510159 -0.070019156
-0.196191 0.14270343 -0.079614982
-0.19619101 0.18385334 -0.070234269
0.081646889 -0.31076699 -0.062975354
0.17255075 -0.30087733 -0.061561268
0.19111905 -0.13780771 -0.06937553
0.1958264 0.027131079 -0.064976752
-0.196191 0.15993196 -0.060156099
0.18924141 0.16289181 -0.06434197
0.18499219 0.20787501 -0.060003545
0.17906554 0.25663751 -0.062903672
-0.13649948 0.31076699 -0.065988325
-0.01688521 -0.31076699 -0.054257583
0.18843566 -0.17143142 -0.058806442
-0.19619101 -0.043292411 -0.055082358
0.19398151 0.089452632 -0.055694487
0.19349349 0.10154893 -0.05952755
-0.19619098 0.14690445 -0.058231015
0.18676713 0.18911786 -0.053223543
-0.16604826 0.31076699 -0.056630313
-0.1418834 0.31076699 -0.050967623
-0.10811625 0.31076699 -0.053707272
-0.038967304 -0.31076699 -0.047655676
-0.196191 -0.11489353 -0.049478907
0.19327715 0.10574127 -0.042807881
0.19080983 0.14240101 -0.04061218
0.17532367 0.28225723 -0.04816363
0.17017011 0.31076699 -0.047439314
-0.18340987 -0.31076699 -0.03801113
-0.1134778 -0.31076699 -0.032308329
-0.07621149 -0.31076699 -0.032192934
-0.010165967 -0.31076699 -0.038137525
0.047300931 -0.31076699 -0.039373036
0.17345151 -0.29482859 -0.033960585
-0.196191 -0.19756567 -0.031283546
0.19566292 -0.039296385 -0.036798976
0.18064786 0.24361868 -0.033385392
0.015792198 0.31076699 -0.036328558
0.10629892 -0.31076699 -0.025658961
0.19577084 0.031264655 -0.024845172
-0.196191 0.053457912 -0.026872573
0.19450712 0.076424718 -0.026903469
-0.196191 0.17308483 -0.026868368
-0.0082427915 0.31076699 -0.021197848
0.012196392 0.31076699 -0.025340341
-0.063348807 -0.31076699 -0.017846446
0.080181882 -0.31076699 -0.012013074
0.12778533 -0.31076699 -0.019527387
0.1879369 -0.17671792 -0.017927499
-0.196191 -0.089258932 -0.015684534
-0.196191 0.017919309 -0.01748912
0.19599476 0.014602052 -0.019257715
-0.196191 0.19307768 -0.015081868
0.17207804 0.30405155 -0.011142168
0.06942483 0.31076699 -0.01577401
0.09035629 -0.31076699 -0.009305737
-0.19619098 0.064581625 -0.00071214983
0.1940614 0.087472662 -0.0034262962
0.19035621 0.14914125 -0.009410983
-0.19619098 0.18616131 -0.0052030156
-0.085757896 0.29861507 -0.0078512104
0.0074981153 0.29937643 -0.0078512104
0.16539633 0.29821101 -0.0068262536
-0.02849682 0.30278817 -0.0078512104
-0.039741553 -0.31076699 0.0093001807
-0.0079556927 -0.31076699 0.0030156078
0.012110583 -0.31076699 0.001343444
0.13664652 -0.31076699 0.0025819808
-0.196191 -0.30664691 0.0076164375
-0.0069920905 -0.2962352 5.13946e-09
0.046163425 -0.2964088 5.13946e-09
0.093395405 -0.2957294 5.13946e-09
-0.17866565 -0.28713077 5.13946e-09
-0.12151557 -0.28368676 5.1394604e-09
-0.057609171 -0.27052808 5.13946e-09
0.039896764 -0.27276805 5.13946e-09
0.16271472 -0.27265635 5.13946e-09
0.17667486 -0.27318355 0.0030450656
0.00061928667 -0.26614648 5.13946e-09
0.025030753 -0.26638362 5.13946e-09
0.075573251 -0.26829824 5.13946e-09
0.077250175 -0.25798029 5.13946e-09
0.16366129 -0.25602549 5.13946e-09
-0.18906786 -0.24086139 5.1394604e-09
-0.077020124 -0.24523745 5.13946e-09
0.022558413 -0.23413636 5.13946e-09
-0.1620183 -0.22946151 5.13946e-09
0.16786134 -0.22342864 5.13946e-09
-0.042000808 -0.21210316 5.13946e-09
0.17226222 -0.21436702 5.13946e-09
-0.0045718178 -0.20850939 5.13946e-09
0.17907217 -0.20703453 5.13946e-09
-0.16643517 -0.18484715 5.13946e-09
-0.073197782 -0.18872686 5.13946e-09
0.062311165 -0.18819398 5.13946e-09
0.020765044 -0.16049212 5.13946e-09
-0.087413937 -0.15300126 5.1394604e-09
0.044453729 -0.1545929 5.1394595e-09
0.068382874 -0.15771973 5.13946e-09
0.030938633 -0.14557505 5.13946e-09
-0.098693274 -0.13952072 5.13946e-09
0.13434778 -0.11834849 5.13946e-09
0.019161887 -0.10824772 5.13946e-09
-0.11868037 -0.091214463 5.13946e-09
0.0047328025 -0.070644632 5.1394595e-09
0.094974719 -0.0713434 5.13946e-09
0.14495403 -0.074616842 5.13946e-09
0.19459057 -0.074355997 0.0088851182
0.019040965 -0.069036417 5.13946e-09
0.08243978 -0.069976427 5.13946e-09
0.11766379 -0.069899365 5.1394604e-09
0.050383307 -0.054480568 5.13946e-09
0.095198058 -0.054624841 5.13946e-09
0.13664916 -0.054822363 5.13946e-09
-0.18525898 -0.048947364 5.13946e-09
0.092892058 -0.027753927 5.13946e-09
0.12177505 -0.024395803 5.13946e-09
-0.10798372 -0.0059513301 5.13946e-09
0.089910671 -0.0041593798 5.1394604e-09
0.14531815 0.0011991933 5.13946e-09
-0.13506874 0.019076865 5.13946e-09
-0.19517702 0.037112188 5.13946e-09
-0.16451447 0.038410649 5.13946e-09
0.14712587 0.033104695 5.13946e-09
-0.038259372 0.043674015 5.13946e-09
-0.17070138 0.058534525 5.13946e-09
-0.074356064 0.058629408 5.13946e-09
-0.033222437 0.056024726 5.13946e-09
0.16549738 0.069543071 5.13946e-09
-0.059843902 0.0759435 5.13946e-09
-0.12178671 0.086284854 5.1394595e-09
-0.030692995 0.082503475 5.13946e-09
-0.018980227 0.085635647 5.13946e-09
0.052451234 0.084000587 5.13946e-09
-0.15264612 0.10439397 5.13946e-09
-0.091162398 0.10633748 5.13946e-09
-0.027508996 0.10319705 5.13946e-09
-0.16633764 0.11493882 5.13946e-09
0.12581116 0.11083514 5.1394595e-09
-0.050940029 0.12836111 5.13946e-09
-0.16081642 0.13553156 5.1394595e-09
0.15575354 0.13853766 5.1394604e-09
0.017869465 0.14447607 5.13946e-09
0.1181531 0.14702693 5.13946e-09
0.13688469 0.14161783 5.13946e-09
-0.18520007 0.15252244 5.13946e-09
-0.12496343 0.15825194 5.13946e-09
-0.099079147 0.15611808 5.1394595e-09
0.073642552 0.15197548 5.13946e-09
0.11213405 0.15694273 5.1394604e-09
0.12105124 0.15073767 5.1394595e-09
-0.15722197 0.17854038 5.13946e-09
-0.019449845 0.17219561 5.13946e-09
0.019408755 0.17468034 5.13946e-09
0.091427267 0.17651561 5.13946e-09
-0.12750664 0.18551123 5.1394595e-09
-0.034268349 0.1840425 5.1394604e-09
0.09476842 0.18107563 5.13946e-09
0.041444078 0.19617809 5.13946e-09
-0.082406759 0.20552364 5.13946e-09
0.0070658177 0.20167841 5.13946e-09
-0.18299285 0.2116529 5.13946e-09
-0.17138647 0.21235362 5.1394595e-09
-0.1417882 0.21877435 5.13946e-09
0.062233947 0.21978711 5.13946e-09
0.077148445 0.21378954 5.13946e-09
-0.1546009 0.22574231 5.13946e-09
0.037816834 0.2411194 5.13946e-09
0.17998745 0.24905242 0.0037581895
-0.18763702 0.25845808 5.13946e-09
-0.12193347 0.25867817 5.13946e-09
-0.061071631 0.25382301 5.13946e-09
0.11107915 0.25668991 5.1394595e-09
-0.13065986 0.26328754 5.13946e-09
-0.046753824 0.26999831 5.1394604e-09
0.0029410534 0.26539138 5.13946e-09
0.064683199 0.26762557 5.13946e-09
-0.14573856 0.27295694 5.13946e-09
-0.15277983 0.28307134 5.13946e-09
-0.14039731 0.30649793 5.13946e-09
-0.060655862 0.30373827 5.13946e-09
0.051050223 0.3022826 5.13946e-09
-0.093558513 -0.31076699 0.017563608
0.12950292 -0.31076699 0.019064471
0.17558224 -0.28052056 0.010562123
-0.196191 -0.22792888 0.010797297
-0.196191 -0.203656 0.011455157
0.19408542 -0.08687637 0.016413935
-0.196191 -0.077187747 0.019966023
-0.196191 -0.013188235 0.017753007
0.19413657 0.085609123 0.018066958
0.19230069 0.12024957 0.016712062
0.18386228 0.21717151 0.012496858
0.17967819 0.25159681 0.019420356
-0.18888676 -0.31076699 0.022750938
-0.056655284 -0.31076699 0.027025437
0.17437775 -0.28860894 0.021718781
-0.196191 -0.2406431 0.027171127
-0.196191 0.091275588 0.024265941
-0.196191 0.12530509 0.023976354
-0.196191 0.16147682 0.029202979
0.17811255 0.26352933 0.026359102
0.064723432 0.31076699 0.020661598
0.08640866 -0.31076699 0.037588626
0.17923395 -0.25525185 0.034257043
0.18971345 -0.15788747 0.035898525
-0.196191 -0.10246235 0.035492897
0.19601147 0.013359644 0.039581019
0.18182966 0.23389527 0.039582215
0.18044603 0.24527918 0.035963688
0.17893299 0.25772795 0.039593935
-0.15869057 -0.31076699 0.044868853
-0.03358902 -0.31076699 0.040721681
-0.0039774701 -0.31076699 0.043938186
0.066280186 -0.31076699 0.045982935
0.18255344 -0.22793967 0.048674066
0.19584525 0.025728628 0.04858043
0.17711037 0.27025911 0.044521969
-0.073111519 0.31076699 0.044028495
-0.055836454 0.31076699 0.047800843
0.051854357 -0.31076699 0.051008381
0.082083762 -0.31076699 0.054514222
-0.19619101 -0.20617893 0.0565085
-0.196191 0.098789454 0.054269318
0.18800145 0.17603488 0.054736588
0.1757976 0.27907449 0.056897093
-0.075050995 0.31076699 0.053008415
0.055493228 0.31076699 0.053409372
0.067445412 -0.31076699 0.063361384
-0.19619101 -0.20575793 0.06021136
-0.196191 -0.070585683 0.061757233
-0.196191 0.27249062 0.065139174
0.0041349977 0.31076699 0.063386761
0.15799467 0.31076699 0.06680119
-0.17950989 -0.31076699 0.0767373
0.0028942823 -0.31076699 0.079765581
-0.19619098 -0.22040252 0.075173557
-0.196191 -0.14462607 0.07062149
0.19571747 -0.035235174 0.079856299
0.18815847 0.17437056 0.079660125
-0.196191 0.27155685 0.076866902
-0.196191 0.28956285 0.072278172
-0.0862398 -0.31076699 0.087404467
-0.0042658448 -0.31076699 0.08112067
0.18979065 -0.15706928 0.085971385
-0.196191 -0.094379045 0.081308499
-0.196191 -0.082313068 0.088359788
0.19557036 -0.046182584 0.080385886
-0.196191 -0.026747111 0.085014939
0.19581279 -0.028143326 0.080452092
0.1959413 0.018581195 0.082210675
0.19556138 0.046851475 0.086038388
-0.19619098 0.1026917 0.084477603
-0.196191 0.12813024 0.088247858
0.095890231 0.31076699 0.088993803
0.15388091 0.31076699 0.085654169
0.12860315 -0.31076699 0.090710074
-0.19619101 -0.29679057 0.093836404
-0.19619098 -0.26778328 0.094214283
-0.19619098 -0.23504688 0.09422911
-0.196191 -0.08738254 0.092857584
0.18596748 0.19759396 0.093942218
-0.196191 0.25730291 0.091533452
-0.196191 0.27482641 0.098996371
-0.196191 0.28644049 0.099364467
0.03793266 -0.31076699 0.10928362
-0.196191 -0.29353586 0.10052828
0.19346762 -0.10218915 0.10495302
0.19580768 -0.028522763 0.10221823
-0.196191 0.10145113 0.10552932
-0.02641207 0.31076699 0.10655339
0.008574564 0.31076699 0.10388386
0.031796586 0.31076699 0.10716374
-0.19559926 -0.31076699 0.11644178
-0.1800672 -0.31076699 0.11751457
0.04416474 -0.31076699 0.1142467
-0.19619098 -0.23248707 0.1179688
0.19577673 0.030825611 0.11219238
-0.19619101 0.17897902 0.11569823
0.18586895 0.19863838 0.11076341
-0.19619098 0.26955169 0.11555925
-0.16139901 0.31076699 0.11265364
-0.13756874 0.31076699 0.11712536
-0.10746078 0.31076699 0.11452781
-0.030735694 0.31076699 0.11429429
0.024258584 0.31076699 0.11857259
0.061330993 0.31076699 0.11168585
0.10254326 0.31076699 0.1167438
0.033950023 -0.31076699 0.12683859
-0.19619098 -0.24571276 0.12652645
0.18309502 -0.22348341 0.12986034
0.19480714 -0.068987727 0.12832923
0.19581421 0.028037515 0.12415644
0.1945166 0.076190129 0.12034544
-0.18636508 0.31076699 0.12026352
0.097008236 0.31076699 0.12737273
-0.19619101 -0.25635824 0.13149086
0.19502565 0.063572779 0.13417694
-0.19619098 0.19657829 0.13899812
0.18644539 0.19252831 0.13340744
-0.19619101 0.25025406 0.13208809
0.19171971 -0.12888074 0.14924224
-0.196191 -0.046247281 0.14657044
-0.196191 0.048256543 0.14723943
-0.196191 0.075936295 0.14274168
0.19192821 0.12578413 0.14280228
-0.19619098 0.15612015 0.14624156
-0.19619098 0.27753878 0.14201814
-0.18850648 0.31076699 0.14644432
-0.15488961 0.31076699 0.14222217
-0.10518806 0.31076699 0.14139879
0.01753892 0.31076699 0.14814168
-0.10650255 -0.31076699 0.15009481
0.0031987801 -0.31076699 0.1576561
-0.196191 0.036781561 0.15446159
-0.19619101 0.085917607 0.15141873
0.19362792 0.09821713 0.15495723
-0.196191 0.13457811 0.15482011
-0.032234076 0.31076699 0.15397733
0.022001207 0.31076699 0.15582781
-0.14931987 -0.31076699 0.16334035
0.0065055415 -0.31076699 0.16397274
0.046514228 -0.31076699 0.16022275
-0.196191 -0.19665927 0.16579917
0.19258028 -0.11609432 0.16795512
-0.196191 -0.095935136 0.16602008
0.19552645 -0.049448907 0.16032103
-0.19619098 0.04731708 0.16642039
-0.196191 0.1611653 0.16902179
0.18250749 0.22831826 0.16707049
0.17244175 0.3016091 0.1661161
-0.046639342 0.31076699 0.16548285
0.023685187 0.31076699 0.16779807
0.16054574 -0.31076699 0.17801462
0.17740934 -0.26825145 0.17978358
0.18045233 -0.24522717 0.17290968
-0.196191 -0.19455616 0.1784703
0.19228822 -0.12043409 0.1743129
0.19522057 0.0587411 0.17338431
0.19418851 0.084322229 0.17216676
-0.196191 0.16318175 0.1758415
-0.196191 0.23886934 0.17490439
0.059154682 0.31076699 0.17934802
0.0652771 0.31076699 0.17070603
-0.007929787 -0.31076699 0.18895471
0.03811767 -0.31076699 0.18876418
0.1852605 -0.20508659 0.18990104
0.18942574 -0.16093704 0.18906309
0.19613919 -0.0038546366 0.18070617
0.19154057 0.13154356 0.18038547
0.18304662 0.2238825 0.18394822
-0.096628353 -0.31076699 0.19915865
-0.084500685 -0.31076699 0.1901347
-0.196191 -0.27428058 0.19163468
-0.19619098 -0.16364354 0.19096981
-0.196191 0.19760445 0.19261658
-0.196191 0.27629924 0.19106895
-0.027664661 0.31076699 0.19629876
0.10528614 0.31076699 0.19978575
-0.19619098 -0.05967962 0.20010495
0.19599643 0.014476859 0.20289522
-0.196191 0.089911461 0.20535655
-0.11427276 0.31076699 0.20604908
-0.13245741 -0.31076699 0.21295483
-0.12693465 -0.31076699 0.21864067
0.1759437 -0.27809322 0.21522997
0.19375756 -0.095002398 0.21491869
-0.196191 -0.051635828 0.217223
-0.196191 -0.040214755 0.2136735
0.19441077 0.078813165 0.21203607
-0.196191 0.085991308 0.21405029
0.19310883 0.10824219 0.2199516
-0.19619101 0.12784615 0.21290018
0.19220661 0.12164747 0.21287319
0.18980446 0.15692376 0.21570711
-0.18039998 0.31076699 0.21243784
-0.0382175 0.31076699 0.217178
-0.1759616 -0.31076699 0.22071916
-0.19619101 -0.21084222 0.22628064
-0.19619098 -0.16642089 0.22741681
0.19463499 -0.073254816 0.22380911
0.19314191 0.10775068 0.22372255
-0.19619098 0.24176839 0.22583632
-0.053388 -0.31076699 0.23460683
0.19552651 -0.049444173 0.23407346
-0.196191 0.30861551 0.23210472
-0.1286204 0.31076699 0.23089565
-0.071551986 0.31076699 0.23098117
-0.07948111 -0.31076699 0.24671495
-0.196191 -0.26591596 0.24976954
0.18391606 -0.21672818 0.24354419
0.18477139 -0.20969062 0.24040926
-0.196191 -0.18236166 0.24166699
-0.196191 -0.04092627 0.2418015
-0.19619098 -0.030507214 0.24620192
0.19411206 0.086216897 0.24369594
0.19265503 0.11498462 0.24887192
0.18507595 0.2070435 0.24735022
-0.12468358 0.31076699 0.24797854
0.077373087 0.31076699 0.24893205
0.13793172 0.31076699 0.24531181
-0.18187265 -0.31076699 0.25848508
-0.15941378 -0.31076699 0.25334343
0.17739318 -0.26835993 0.25682667
0.18460503 -0.21105941 0.25189498
-0.196191 -0.1308188 0.25259846
0.19558975 0.044740062 0.25755537
-0.196191 0.13957891 0.25772184
0.18219107 0.23092161 0.25201884
-0.086472683 0.31076699 0.25974575
-0.034493525 0.31076699 0.25009087
-0.13328457 -0.31076699 0.26586121
-0.12967771 -0.31076699 0.26854718
-0.0053646117 -0.31076699 0.26895645
0.17838588 -0.26169384 0.26497614
0.18660209 -0.19086617 0.2645199
-0.196191 -0.075051941 0.26308453
-0.19619098 0.034734599 0.26263645
0.19570446 0.036204122 0.2632902
-0.020131398 0.31076699 0.26782089
-0.14977242 -0.31076699 0.27195978
-0.10572873 -0.31076699 0.27447638
-0.013990734 -0.31076699 0.27502194
0.029157516 -0.31076699 0.2758157
0.098087497 -0.31076699 0.27268666
0.17874038 -0.25931284 0.27446285
-0.19619098 0.1917197 0.27930129
-0.196191 0.2366931 0.27095979
0.0068302732 0.31076699 0.27604994
0.044483434 0.31076699 0.27687505
-0.14553994 -0.31076699 0.28172958
0.18532258 -0.20442843 0.28277835
0.19539493 -0.054418951 0.28731811
0.17561455 0.28030354 0.28353384
-0.196191 0.30892721 0.2891573
-0.16592404 0.31076699 0.28785902
-0.13870661 0.31076699 0.28365067
-0.12624627 0.31076699 0.28857955
-0.038364951 0.31076699 0.28484631
0.12251974 -0.31076699 0.29399276
0.15365642 -0.31076699 0.29422593
-0.196191 -0.089498699 0.2924464
-0.196191 0.25039133 0.29404065
-0.18898378 -0.31076699 0.3047477
-0.1521271 -0.31076699 0.30100778
-0.13495336 -0.31076699 0.30256206
-0.094543621 -0.31076699 0.30532989
-0.196191 -0.12539986 0.30074593
-0.19619101 -0.092398122 0.30149344
0.19363146 -0.098128304 0.30327418
-0.196191 -0.080125652 0.30367172
-0.196191 -0.035902902 0.30100709
-0.196191 -0.024025049 0.30753759
-0.196191 0.11555548 0.30998203
0.18791141 0.17699072 0.30680227
-0.196191 0.30882391 0.30610952
0.003299199 0.31076699 0.30641162
-0.196191 -0.20450386 0.31819332
0.18923895 -0.16291687 0.31900489
0.19595851 -0.017299201 0.31285757
0.19589311 0.022167396 0.31018907
0.19208512 0.1234525 0.31287503
-0.196191 0.22787246 0.31947654
-0.14339185 0.31076699 0.31336164
-0.032832056 0.31076699 0.31340405
0.12597843 0.31076699 0.31369644
-0.055626649 -0.31076699 0.32053718
0.086524948 -0.31076699 0.32029423
-0.196191 -0.14469346 0.32166761
-0.031429026 -0.13255981 0.32646099
0.1083926 -0.13776806 0.32786775
-0.196191 -0.031133421 0.32222483
-0.19619101 -0.016863415 0.32586652
0.19292904 0.11091317 0.32604414
-0.196191 0.13942131 0.32661369
-0.196191 0.23078024 0.32354215
-0.13139339 0.31076699 0.32159233
0.03663642 0.31076699 0.32141295
-0.031427436 -0.30030176 0.33901799
0.0022173673 -0.30151919 0.33901799
0.026118614 -0.30703467 0.33901799
0.094885603 -0.30164596 0.33901799
0.17152342 -0.30777588 0.33609745
0.094494641 -0.29180157 0.33901799
-0.196191 -0.28684801 0.33548036
0.11649106 -0.28702876 0.33901799
0.16822669 -0.2839818 0.33901799
0.01586511 -0.27965748 0.33901799
-0.075010203 -0.26493326 0.33901799
0.13930388 -0.2607252 0.33901799
0.014331501 -0.25258839 0.33901799
-0.019971898 -0.24100013 0.33901799
-0.0098460503 -0.24732436 0.33901799
0.095844947 -0.24443823 0.33901799
0.12173883 -0.24440303 0.33901799
0.16049841 -0.24258278 0.33901799
-0.091659665 -0.23972726 0.33901799
-0.032624945 -0.23357439 0.33901799
0.12398221 -0.23628803 0.33901799
0.16895534 -0.23311867 0.33901799
-0.048046097 -0.22236083 0.33901799
0.030491486 -0.22253448 0.33901799
0.070629522 -0.21273334 0.33901799
-0.14504975 -0.20181109 0.33901799
-0.056699194 -0.20192537 0.33901799
-0.16365018 -0.19524312 0.33901799
-0.039356038 -0.19674525 0.33901799
-0.079654835 -0.18879548 0.33901799
-0.10027243 -0.1725201 0.33901799
0.17921893 -0.17214154 0.33901799
-0.1535348 -0.16900574 0.33901799
-0.13485594 -0.16564336 0.33901799
0.04625497 -0.16583213 0.33901799
0.14869659 -0.16073868 0.33901799
-0.17016673 -0.15737963 0.33901799
0.079162225 -0.15085621 0.33901799
0.12551609 -0.15984103 0.33901799
-0.11099734 -0.14631352 0.33901799
-0.038169347 -0.14607935 0.33901799
0.11731678 -0.14498731 0.33252057
-0.095803306 -0.13265362 0.33181885
-0.046935342 -0.13815345 0.33901799
0.0096387342 -0.13875577 0.33345503
0.19126433 -0.13565168 0.33715525
-0.13165581 -0.12387661 0.33223313
-0.055235669 -0.12320177 0.33901799
-0.017506622 -0.12237982 0.33901799
0.034689412 -0.12782258 0.33901799
0.13144368 -0.12498472 0.33901799
0.17233482 -0.12720525 0.33901799
-0.10345337 -0.11374731 0.33901799
-0.082965776 -0.11403854 0.33901799
-0.038559645 -0.11005235 0.33587801
-0.0019203024 -0.11443222 0.33901799
-0.10258355 -0.10061778 0.33901799
-0.072665416 -0.10915013 0.33587801
0.12397531 -0.10412101 0.33587801
-0.098096862 -0.093119949 0.33901799
0.19371036 -0.096172705 0.33898529
-0.12125986 -0.083159976 0.33587801
0.14524743 -0.070728675 0.33901799
-0.0023711568 -0.062770694 0.33901799
0.14241923 -0.052863687 0.33901799
-0.15394449 -0.044805437 0.33587801
0.132292 -0.036684535 0.33752835
0.17814903 -0.037117202 0.33901799
-0.014882516 -0.028986644 0.33901799
0.0070889047 -0.022759795 0.33587801
0.15044773 -0.0250904 0.33901799
0.16316724 -0.022011481 0.33901799
0.035663381 -0.015585683 0.33587801
-0.11036763 0.0021108203 0.33901799
-0.10860623 0.00069678202 0.33901799
-0.02632907 0.0005505085 0.33901799
0.088752702 0.013041198 0.33587801
-0.17775616 0.039776184 0.33901799
-0.001281 0.036213499 0.33735132
0.071673796 0.030431103 0.33901799
-0.17141683 0.045189381 0.33901799
-0.117762 0.047873341 0.33610696
-0.054343805 0.043966405 0.33587801
-0.0085833408 0.040673848 0.33901799
0.16561517 0.040050782 0.33901799
-0.15065293 0.057771176 0.33587801
-0.048134428 0.058628298 0.33587801
-0.01356763 0.050133638 0.33901799
0.027169662 0.056331806 0.33587801
0.12962711 0.056441579 0.33587801
-0.17112499 0.062705308 0.3389214
0.051382296 0.067368098 0.33587801
-0.046064567 0.070483655 0.33587801
0.045750976 0.0709503 0.33587801
0.035977416 0.084136501 0.33587801
0.078927599 0.083087258 0.33795494
-0.1702095 0.09879671 0.33587801
0.0090096043 0.11216361 0.33587801
0.11283146 0.12745835 0.33587801
-0.11834164 0.13683538 0.33587801
0.09221793 0.13192028 0.33587801
0.132292 0.13147348 0.33827364
0.14525642 0.13190228 0.33901799
0.17915097 0.13157754 0.33901799
-0.19619098 0.14514937 0.33727524
0.18026643 0.14807166 0.33901799
-0.17112499 0.15521891 0.3380214
0.132292 0.15694752 0.33689421
-0.16565044 0.16135313 0.33587801
-0.12786105 0.16311376 0.33587801
-0.09965612 0.1618534 0.33901799
-0.071060106 0.16003035 0.33587801
0.062827811 0.19266711 0.33901799
0.14554559 0.2039263 0.33901799
0.18571737 0.20024583 0.33698645
-0.045470051 0.21082005 0.33587801
0.030273562 0.21619038 0.33587801
0.08531817 0.21196899 0.33587801
0.096222624 0.21598223 0.33587801
0.046865933 0.22979762 0.33587801
0.10140573 0.22514364 0.33587801
-0.15652373 0.23357248 0.33587801
0.14258164 0.2369453 0.33901799
0.0061214836 0.24157883 0.33587801
0.039230131 0.24894777 0.33587801
-0.076440044 0.25593773 0.33587801
0.15537058 0.25851226 0.33901799
-0.053711243 0.26203054 0.33587801
-0.1910442 0.28577125 0.33901799
-0.016214266 0.28375417 0.33901799
-0.047077548 0.29217482 0.33901799
0.091656879 0.29596546 0.33901799
-0.19515665 0.3019582 0.33901799
