# .PCD v0.7 - Point Cloud Data file format
VERSION 0.7
FIELDS x y z
SIZE 4 4 4
TYPE F F F
COUNT 1 1 1
WIDTH 976
HEIGHT 1
VIEWPOINT 0 0 0 1 0 0 0
POINTS 976
DATA ascii
-0.080656953 -0.31156665 -0.26520899
0.19001248 -0.31132594 -0.26520899
-0.22258551 -0.30027619 -0.26520899
0.18862936 -0.30082566 -0.26520899
-0.23425242 -0.29846814 -0.26520899
-0.20060451 -0.29081622 -0.26520899
-0.18919626 -0.28325871 -0.26520899
0.15876269 -0.28207996 -0.26520899
0.21460469 -0.28368658 -0.26520899
0.2541084 -0.28019661 -0.26520899
-0.21575017 -0.27169311 -0.26520899
0.20617127 -0.27206933 -0.26520899
-0.13992944 -0.26337451 -0.26520899
0.11300921 -0.26353523 -0.26520899
-0.16421956 -0.25427753 -0.26520896
0.17389485 -0.25623709 -0.26520899
0.24656548 -0.25550747 -0.26520899
-0.24809079 -0.24403663 -0.26520899
-0.20499744 -0.24835518 -0.26520899
-0.18907996 -0.24948591 -0.26520899
-0.14820635 -0.24081583 -0.26520899
-0.040726352 -0.24211988 -0.26520899
0.11910187 -0.24111888 -0.26520899
-0.25006387 -0.23793325 -0.26520899
-0.18884301 -0.23088652 -0.26520899
0.18220229 -0.23797613 -0.26520899
-0.19554874 -0.21962349 -0.26520899
0.14569269 -0.20675276 -0.26520899
-0.22834092 -0.19520485 -0.26520899
-0.20696115 -0.19565155 -0.26520899
-0.17163317 -0.18997076 -0.26520896
0.12382139 -0.17639042 -0.26520899
-0.11115767 -0.16722846 -0.26520899
-0.14300755 -0.15092993 -0.26520899
-0.010166075 -0.15192118 -0.26520899
-0.22694787 -0.13951303 -0.26520899
-0.012942266 -0.13333692 -0.26520899
0.23822013 -0.13206372 -0.26520899
-0.12464443 -0.12762301 -0.26520899
0.23124355 -0.12227375 -0.26520899
0.25506863 -0.12279543 -0.26520899
0.20978366 -0.11406023 -0.26520899
-0.00064158067 -0.10991387 -0.26520899
0.013799861 -0.10304453 -0.26520899
0.12188394 -0.10760763 -0.26520899
0.23246768 -0.10178089 -0.26520899
-0.11373167 -0.098857999 -0.26520899
0.011567317 -0.092905372 -0.26520899
-0.24059027 -0.087911539 -0.26520899
-0.12914738 -0.082936436 -0.26520899
-0.029436424 -0.088921443 -0.26520899
0.048794657 -0.084229514 -0.26520899
0.14724992 -0.079934478 -0.26520899
-0.24319753 -0.069299281 -0.26520899
0.16202869 -0.065691106 -0.26520902
-0.24044436 -0.052348077 -0.26520899
-0.079262942 -0.05018346 -0.26520899
-0.020049775 -0.058512613 -0.26520899
0.10305194 -0.05996716 -0.26520899
0.16068049 -0.051842768 -0.26520899
0.17849673 -0.054215841 -0.26520899
-0.10425802 -0.04276529 -0.26520899
0.099447735 -0.047353536 -0.26520899
-0.19536236 -0.039063871 -0.26520899
0.0081191659 -0.035749525 -0.26520899
0.017687961 -0.030187532 -0.26520899
0.029582925 -0.035531133 -0.26520899
0.065240592 -0.034174338 -0.26520899
0.15294066 -0.034769941 -0.26520899
0.1843946 -0.024363339 -0.26520902
-0.02972506 -0.011469185 -0.26520899
0.041815966 -0.0014095139 -0.26520899
0.21691301 -0.0096901953 -0.26520899
0.07220412 0.00277704 -0.26520899
-0.1904898 0.010743022 -0.26520899
-0.027920775 0.011709825 -0.26520899
0.22061548 0.014141895 -0.26520899
0.050736368 0.032068647 -0.26520899
0.10856992 0.03483475 -0.26520899
-0.1422849 0.044902705 -0.26520899
0.080620281 0.049991794 -0.26520899
0.10000874 0.048716072 -0.26520899
0.17082611 0.044943802 -0.26520899
-0.058333527 0.051931042 -0.26520899
-0.1676228 0.061665088 -0.26520899
-0.098881662 0.064991988 -0.26520899
0.084351361 0.064515568 -0.26520899
0.10635368 0.069593981 -0.26520899
-0.071591839 0.076424815 -0.26520899
0.011938728 0.076258972 -0.26520899
0.12164586 0.07532575 -0.26520899
-0.17696619 0.083933055 -0.26520899
0.16451594 0.081544444 -0.26520899
-0.083982185 0.091718674 -0.26520899
-0.17977944 0.10465269 -0.26520899
-0.16283214 0.10630002 -0.26520899
-0.11722378 0.10888083 -0.26520899
-0.036150187 0.10948098 -0.26520899
-0.17102344 0.11335562 -0.26520899
0.038506668 0.11117173 -0.26520899
-0.20433716 0.12335957 -0.26520899
-0.16249576 0.12005539 -0.26520896
-0.08921098 0.12860329 -0.26520899
0.046698693 0.12585098 -0.26520899
0.1267277 0.12083884 -0.26520899
0.17428121 0.12661818 -0.26520899
-0.20601721 0.13421613 -0.26520899
-0.082762927 0.13165244 -0.26520899
-0.15927847 0.15302959 -0.26520899
0.096930116 0.15409695 -0.26520899
-0.20410794 0.16441849 -0.26520899
0.12548417 0.1604863 -0.26520899
-0.10362707 0.17785591 -0.26520899
-0.06230621 0.17226455 -0.26520899
0.052489989 0.18261793 -0.26520899
-0.07246533 0.19541964 -0.26520899
0.1682324 0.19933587 -0.26520899
-0.20182435 0.20218569 -0.26520899
0.079493418 0.20537013 -0.26520899
-0.036356375 0.21817403 -0.26520899
-0.062790245 0.22087753 -0.26520899
0.060252361 0.22840728 -0.26520899
0.25432229 0.22518471 -0.26520899
-0.22816999 0.23525837 -0.26520902
0.1845582 0.23576863 -0.26520899
-0.11440137 0.2436409 -0.26520899
0.20096524 0.24082448 -0.26520899
-0.0054072663 0.25558054 -0.26520899
0.021904066 0.25281364 -0.26520899
-0.18321913 0.26397717 -0.26520899
-0.15665236 0.26035929 -0.26520899
-0.024893336 0.26653153 -0.26520899
0.1934507 0.26451498 -0.26520899
-0.14249611 0.27029303 -0.26520899
0.068520665 0.27690971 -0.26520899
0.10045964 0.27202341 -0.26520896
0.15771981 0.27767938 -0.26520899
-0.150968 0.29421735 -0.26520899
-0.13396075 0.29939896 -0.26520899
0.052302163 0.29328373 -0.26520899
0.18190476 0.29414952 -0.26520899
0.033569809 0.31256199 -0.26798284
0.074030124 0.31079346 -0.26520899
0.082278997 0.31256199 -0.26450756
0.24497715 0.31256196 -0.26162043
0.2545656 0.31125686 -0.26520899
-0.15566896 -0.31256199 -0.25114551
-0.25705001 -0.28640774 -0.25870743
0.256515 -0.28517208 -0.25297651
-0.25705001 -0.13069901 -0.25082737
-0.25705001 0.033947773 -0.2549462
-0.25705001 0.076327734 -0.25347802
-0.25705001 0.30669001 -0.25892112
-0.11818612 0.31256199 -0.25870019
0.11436594 0.31256199 -0.2530356
-0.25495934 -0.31256199 -0.24883626
0.17433777 -0.31256202 -0.24731112
0.256515 -0.26440635 -0.24555045
-0.25705001 -0.16374226 -0.24596626
-0.25705001 -0.099840119 -0.2448535
-0.25705001 -0.03433463 -0.24406303
-0.25705001 -0.019656837 -0.24849457
-0.25705001 0.066218801 -0.24316084
-0.25705001 0.30190903 -0.24491532
-0.12642592 0.31256199 -0.24266584
-0.088202462 0.31256199 -0.24839178
0.20196871 0.31256199 -0.24065714
-0.12551135 -0.31256199 -0.23134947
0.07715103 -0.31256199 -0.23166998
0.10471272 -0.31256199 -0.23385349
0.18716855 -0.31256199 -0.237111
0.22499359 -0.31256199 -0.23177204
0.256515 -0.29079512 -0.23443031
-0.25705001 -0.010436729 -0.23902592
0.256515 0.060191274 -0.23195963
0.256515 0.17844981 -0.23870397
0.27642262 0.305188 -0.23158953
-0.1617597 0.31256199 -0.2376954
-0.0054606944 0.31256199 -0.23866783
0.14891914 0.31256199 -0.23031503
0.20203033 0.31256199 -0.23901929
0.11557837 -0.31256199 -0.22895566
0.256515 -0.31061307 -0.22037435
-0.25705001 -0.2407385 -0.22447398
0.256515 -0.24602474 -0.22752908
-0.25705001 -0.22604738 -0.22228211
-0.12185105 0.31256199 -0.22614394
0.054757044 0.31256199 -0.22589764
-0.21135262 -0.31256199 -0.21013004
-0.18251848 -0.31256199 -0.21550936
-0.17943181 -0.31256199 -0.2199575
-0.031206705 -0.31256199 -0.2136988
0.0563455 -0.31256199 -0.21480531
0.10783602 -0.31256199 -0.21197198
-0.25705001 -0.17058508 -0.21451825
0.256515 -0.071872316 -0.21571429
0.256515 -0.040173952 -0.21528496
0.256515 0.033255544 -0.21071902
-0.25705001 0.11629545 -0.21543092
0.25305799 0.24477559 -0.21076053
-0.25705001 0.28606221 -0.2199226
-0.22076096 0.31256199 -0.21595185
-0.075743534 0.31256199 -0.21256615
0.057324678 0.31256199 -0.21781921
-0.25214466 -0.31256199 -0.20281777
-0.20465955 -0.31256199 -0.20758733
0.20752014 -0.31256199 -0.20545466
0.256515 -0.2029964 -0.20416063
-0.25705001 -0.13892999 -0.2088279
-0.25705001 -0.015380614 -0.20897195
-0.25705001 0.02461208 -0.2085574
-0.25705001 0.10242745 -0.20254837
0.256515 0.15241718 -0.20687811
-0.25705001 0.17106721 -0.20037556
-0.25705001 0.26633215 -0.20308651
0.256515 0.29922217 -0.20192298
0.064845063 0.31256199 -0.20854706
0.16340187 0.31256199 -0.2038115
0.19231041 0.31256199 -0.20575112
-0.11829036 -0.31256199 -0.19048508
0.027589418 -0.31256199 -0.19285917
0.20991355 -0.31256199 -0.19854812
0.256515 -0.26549339 -0.19037974
-0.25705001 -0.20156278 -0.19269517
-0.25705001 -0.15512089 -0.19948681
-0.25705001 -0.13211086 -0.19511083
-0.25705001 -0.10120969 -0.19077477
0.256515 0.0036234185 -0.19059767
-0.25705001 0.27336243 -0.19957492
0.25946778 0.27663499 -0.19608095
-0.27831423 0.31256199 -0.19585499
-0.021435313 0.31256199 -0.19576144
0.12442064 -0.31256199 -0.18436527
-0.25705001 -0.082183927 -0.18650962
0.26276901 -0.043404419 -0.18442601
0.256515 0.066836625 -0.18944022
0.26134795 0.26496601 -0.18374918
0.26131174 0.27663499 -0.18435051
-0.25705001 0.30220273 -0.18932027
-0.042852145 -0.31256199 -0.17819642
-0.022125401 -0.31256199 -0.17306343
0.08536014 -0.31256199 -0.17575967
0.14292774 -0.31256199 -0.17625144
0.19887383 -0.31256199 -0.17328447
0.256515 -0.2957226 -0.17483784
0.256515 -0.20377065 -0.17961913
-0.25705001 -0.17029592 -0.17537528
-0.25705001 -0.091232188 -0.17970261
0.26276901 0.016632296 -0.1780511
0.256515 0.034445625 -0.17282498
0.256515 0.15230557 -0.17396438
0.256515 0.19029808 -0.17151862
0.12007589 0.31256199 -0.17770363
0.18033098 0.31256199 -0.17046757
-0.25705001 -0.30549523 -0.16580452
-0.25705001 -0.20721591 -0.16072223
-0.25705001 -0.11917417 -0.1613171
0.256515 -0.11363599 -0.1620483
-0.25705001 -0.065257385 -0.16256975
0.26097459 -0.039204493 -0.16035798
0.22595042 -0.020937605 -0.16226387
0.26613599 -0.011437571 -0.16003555
-0.25705001 0.04680508 -0.16499045
0.256515 0.14235315 -0.16950575
0.256515 0.30548871 -0.16576236
-0.23811902 0.31256199 -0.16770171
-0.17443067 0.31256199 -0.16917521
-0.013842627 0.31256199 -0.1639899
-0.050831906 -0.31256199 -0.15939757
-0.023220941 -0.31256199 -0.15124059
0.15273862 -0.31256199 -0.15849833
0.22141537 -0.31256199 -0.15088463
0.25365457 -0.31256199 -0.15432513
0.256515 -0.26884779 -0.15191773
0.256515 -0.17158283 -0.15560159
-0.25705001 -0.12346213 -0.15742573
0.256515 -0.082383864 -0.15362906
0.22482786 -0.045289055 -0.15902148
0.26276901 -0.047115371 -0.15736058
0.22130859 -0.034345448 -0.15999864
0.256515 -0.012445264 -0.15340771
0.25485551 0.03905832 -0.15295696
0.256515 0.132263 -0.15873203
0.25305799 0.2531386 -0.15571901
0.25305799 0.27585691 -0.15392238
0.15289524 0.31256199 -0.15993831
-0.25672078 -0.31256199 -0.14619726
-0.11769909 -0.31256199 -0.14149287
-0.03554773 -0.31256199 -0.14086097
0.070815533 -0.31256199 -0.14950585
0.25540888 -0.31256199 -0.14295754
0.26276901 -0.072799154 -0.14709923
0.256515 -0.036667522 -0.14451198
-0.26459476 0.081229597 -0.14986226
-0.25705001 0.26006073 -0.14911324
-0.25705001 0.2851027 -0.14858679
0.25413409 0.28019199 -0.14064369
0.256515 0.29012892 -0.14467733
-0.25705001 0.30116618 -0.14492561
0.011559494 0.31256199 -0.14994884
-0.25563753 -0.31256199 -0.13513254
-0.045783799 -0.31256199 -0.13558055
-0.25705001 -0.1866513 -0.13889398
-0.25705001 -0.069691367 -0.13901395
0.20185485 -0.028833903 -0.13493769
0.19812396 -0.018258251 -0.13013403
0.25305799 0.26975507 -0.13041091
-0.084187537 0.31256199 -0.13892597
-0.060369045 0.31256199 -0.13812576
-0.0020552874 0.31256199 -0.13565674
0.24140218 0.31256199 -0.13012046
-0.25705001 -0.21147715 -0.12965333
0.256515 -0.080969498 -0.12554543
0.256515 -0.05111555 -0.12527047
0.19629076 -0.042858124 -0.1243431
0.19669241 -0.016051749 -0.12814319
0.26613599 0.0045187199 -0.12853798
-0.25705001 0.077596568 -0.12135717
0.26276901 0.070623286 -0.12931167
-0.25705001 0.15096794 -0.12694944
-0.25705001 0.30579606 -0.12195177
0.26261944 0.305188 -0.12015167
-0.037640497 0.31256199 -0.12715375
0.010538742 0.31256199 -0.12688094
0.12293771 0.31256199 -0.12591854
0.14952341 0.31256199 -0.12142719
0.26902449 0.31256199 -0.12435742
0.2285203 -0.31256199 -0.11355125
0.256515 -0.30934253 -0.11873937
-0.25704998 -0.28655198 -0.11442862
-0.25705001 -0.15682337 -0.11950511
0.25097054 -0.13125464 -0.11419031
0.21591124 -0.12316369 -0.11004972
0.26276901 -0.093944095 -0.11444066
-0.25705001 0.006392343 -0.11593017
0.256515 0.017909799 -0.11585131
0.016679712 0.31256199 -0.11596566
0.062961221 0.31256199 -0.11607111
0.27347961 0.31256199 -0.11287648
-0.14525896 -0.31256199 -0.10767502
0.033622187 -0.31256199 -0.10281451
-0.25705001 -0.23372582 -0.10710159
0.256515 -0.19115593 -0.10381339
0.256515 -0.11377279 -0.10962456
0.26276901 -0.11466496 -0.10029434
0.26276901 -0.099100426 -0.10960764
-0.25705001 -0.083850026 -0.10836521
-0.25705001 -0.079035558 -0.10274095
-0.25705001 -0.020961 -0.10974059
-0.25705001 0.09116815 -0.10744375
0.256515 0.1854395 -0.10846704
-0.21566798 0.31256199 -0.10398772
-0.094050616 0.31256199 -0.10151903
-0.20482999 -0.31256199 -0.098640457
-0.1728884 -0.31256199 -0.095457166
-0.042150158 -0.31256199 -0.098297365
0.076484509 -0.31256199 -0.09175241
0.26276901 -0.14416276 -0.092098199
0.20433757 -0.11907037 -0.093117088
0.256515 -0.10596341 -0.098298728
0.256515 -0.090199627 -0.091110662
0.26276901 -0.0036949562 -0.092587046
-0.25705001 0.032837462 -0.090339839
-0.25705001 0.14192116 -0.096285746
-0.25705001 0.22072299 -0.090182528
0.25305799 0.23979664 -0.099723741
0.27559474 0.305188 -0.096551508
-0.17614226 0.31256199 -0.098279238
0.10507429 0.31256199 -0.091981955
0.11022455 0.31256199 -0.098217979
-0.2282842 -0.31256199 -0.086611986
0.23776951 -0.31256199 -0.083631173
0.256515 -0.19835681 -0.081784219
0.24387705 -0.15721834 -0.081198439
-0.25705001 -0.004343383 -0.083516583
0.26276901 0.044410702 -0.08363878
0.18669485 0.062962748 -0.087477297
-0.25705001 0.13752587 -0.084391579
0.256515 0.22755289 -0.089248389
-0.25705001 0.30186743 -0.084596269
-0.13347672 0.31256199 -0.08021339
-0.12118696 0.31256199 -0.080419421
0.20274821 0.31256199 -0.08377663
-0.24169627 -0.31256199 -0.072280616
0.13175887 -0.31256199 -0.078853421
0.18949836 -0.31256199 -0.07804691
-0.25705001 -0.24647765 -0.078714505
-0.25705001 -0.19967324 -0.070864446
0.256515 -0.16705927 -0.070411421
0.256515 -0.14886475 -0.071889535
0.26225662 0.033284876 -0.077097088
0.256515 0.11103297 -0.074299827
-0.25705001 0.18241864 -0.072590277
0.256515 0.2458837 -0.07131765
-0.25705001 0.30759525 -0.072901428
-0.28027099 0.31146777 -0.070541188
-0.25830424 0.31256199 -0.079179324
0.063300602 0.31256199 -0.075776875
0.11584869 0.31256199 -0.070642173
-0.119328 -0.31256199 -0.065937929
-0.25705004 -0.27168855 -0.061537832
-0.25705001 -0.20753059 -0.06770806
0.256515 -0.1931459 -0.069663905
-0.25705001 -0.15488875 -0.064021267
0.256515 0.057867408 -0.060561005
-0.25705001 0.1250737 -0.066539258
0.21929875 0.13121423 -0.066919327
-0.28000894 0.305188 -0.067983225
-0.27228588 0.305188 -0.060719449
-0.25107056 0.31256199 -0.060359977
0.071453556 0.31256199 -0.060271461
0.13186702 0.31256199 -0.062028233
0.18407601 0.31256199 -0.066537023
0.2059437 0.31256199 -0.062144928
-0.066961043 -0.31256199 -0.055627566
-0.05834591 -0.31256199 -0.058778651
0.24773011 -0.31256199 -0.05423753
0.256515 -0.21003747 -0.051529258
0.256515 -0.1908125 -0.057208464
0.256515 -0.10856901 -0.059728768
-0.25705001 0.034083273 -0.059827395
0.26276901 0.098524563 -0.056631312
-0.25705001 0.12319838 -0.058088478
0.256515 0.17982069 -0.050417047
-0.25705001 0.18992484 -0.056784343
-0.25705001 0.3018229 -0.058292501
0.2731646 0.305188 -0.058841798
-0.033124506 0.31256199 -0.058425449
-0.021975216 0.31256199 -0.05273078
0.26804101 0.31256199 -0.054275073
-0.24501334 -0.31256199 -0.042605549
0.22115457 -0.31256199 -0.048436005
-0.25705001 -0.20358998 -0.042192966
-0.25705001 -0.17960918 -0.044497259
0.22117405 -0.17142621 -0.046038829
0.256515 -0.15420714 -0.046252578
0.20267385 -0.14644256 -0.044090521
0.152789 -0.06014001 -0.042409018
0.152789 -0.036024276 -0.04479529
0.256515 0.071178518 -0.047800612
0.26276901 0.11960316 -0.045449514
-0.25705001 0.191745 -0.049083628
0.25651497 0.24976727 -0.048834473
-0.15133332 0.31256199 -0.046473376
0.12211069 0.31256199 -0.04913931
0.24538447 -0.31256199 -0.03720732
0.26276901 -0.19914742 -0.034968097
0.26276901 -0.11409768 -0.03720969
-0.25705001 0.037698753 -0.035736956
-0.25705001 0.11779414 -0.038554847
0.256515 0.24577142 -0.037237786
-0.035740159 0.31256199 -0.038855329
0.036187403 0.31256199 -0.035866871
0.076249644 0.31256199 -0.039120041
-0.070549145 -0.31256199 -0.021850884
0.039664946 -0.31256199 -0.023651876
0.13275975 -0.31256199 -0.02950504
-0.25705001 -0.22787902 -0.023504931
-0.25705001 -0.19529232 -0.023734234
0.26276901 -0.19210884 -0.021921469
0.26276901 -0.11256474 -0.028396551
0.152789 -0.021495165 -0.027831245
0.16295671 0.069874644 -0.021242684
-0.25705001 0.14885533 -0.026913477
0.22886571 0.15025845 -0.020536749
0.26247641 0.31256199 -0.029569097
-0.12976469 -0.31256199 -0.015910834
0.01121946 -0.31256199 -0.016930835
-0.25705001 -0.30497584 -0.018403105
0.256515 -0.26046577 -0.01029253
-0.25705001 -0.22449365 -0.017122395
0.256515 -0.17686938 -0.019979298
0.21313256 -0.16793253 -0.017616877
-0.25705001 -0.008606147 -0.012093503
-0.25705001 0.0063583292 -0.016342834
-0.25705001 0.14838412 -0.010228183
0.256515 0.29083282 -0.018485181
-0.077663869 0.31256199 -0.011474192
0.12772921 0.31256199 -0.017828997
-0.20577252 -0.31256199 -0.0052030385
-0.15130372 -0.31256199 -0.0015857406
-0.11150704 -0.31256199 -0.00065515935
0.07207486 -0.31256199 -0.0060636848
-0.25705001 -0.16638261 -0.0070909224
0.15347433 -0.090565011 -0.0042668823
-0.26193595 0.305188 -0.0033882633
-0.14553934 0.31256199 -0.0053211041
-0.064321034 0.31256199 -0.0066487771
0.17016265 0.31256199 -0.0035511889
0.1900388 0.31256199 -0.0041587483
0.256515 -0.23392066 0.0059509929
0.152789 0.054166257 0.0071753822
-0.25705001 0.121948 0.0030543506
-0.25705001 0.17759594 0.0096527133
0.256515 0.21818686 0.0017863344
-0.25705001 0.23842755 0.003276892
0.27129582 0.305188 0.004598435
-0.26470923 0.31256199 0.0052198768
0.076073565 0.31256199 0.0028381869
0.17063341 0.31256199 0.00084859505
0.27076417 0.31256199 0.0025388747
-0.24590325 -0.31256199 0.011979247
-0.18408155 -0.31256199 0.012964536
0.0015301937 -0.31256199 0.011296002
0.073307596 -0.31256199 0.01934728
0.1340127 -0.31256199 0.014386375
0.256515 -0.26146984 0.016595617
-0.25705001 -0.25086626 0.015424483
0.26276901 -0.12196887 0.015424076
-0.25705001 -0.056085821 0.013165481
0.2575886 0.079508871 0.018017022
0.256515 0.1041149 0.018042393
0.256515 0.22404276 0.014533819
-0.27947408 0.305188 0.016320042
-0.12532169 0.31256199 0.011664547
0.1092621 0.31256199 0.011462592
0.23301759 0.31256199 0.016497187
-0.17709404 -0.31256199 0.028301574
-0.0005499348 -0.31256199 0.022030747
0.052099809 -0.31256199 0.021138169
0.256515 -0.18408361 0.02701892
0.2277687 -0.17956132 0.029021185
0.25499845 -0.17981456 0.02786825
0.256515 -0.16305652 0.022165429
0.26276901 -0.1660375 0.027800642
0.256515 -0.15836038 0.023906559
0.26276901 -0.12059109 0.020991046
-0.25705001 -0.11809771 0.022785455
-0.25705001 -0.011239193 0.027605757
0.152789 -0.017492564 0.024586717
0.17637874 0.089117825 0.027377166
0.256515 0.11665455 0.028654329
-0.25705001 0.14458625 0.026413586
-0.25705001 0.18034688 0.020745769
0.256515 0.18646884 0.025991116
-0.25705001 0.27581906 0.02885209
-0.22168201 0.31256199 0.024917103
-0.17140737 0.31256199 0.021387108
0.078816757 0.31256199 0.022766754
0.1427055 0.31256199 0.021791156
0.035583984 -0.31256199 0.039382789
0.092716284 -0.31256199 0.033885643
0.10496314 -0.31256199 0.033430923
-0.25705001 -0.27846286 0.031334221
-0.25705001 -0.26568812 0.0338725
0.256515 -0.176631 0.037152309
-0.25705001 -0.079465322 0.033009879
0.152789 0.016521124 0.035462692
0.256515 0.14480542 0.032036401
-0.20418362 0.31256199 0.038337946
-0.15520574 -0.31256199 0.049069375
0.084104329 -0.31256199 0.043321647
0.25584847 -0.31256199 0.042472377
0.256515 -0.29014778 0.048537079
0.18682858 -0.12718938 0.047025032
0.17026642 -0.10247178 0.047244735
-0.25705001 0.03341189 0.043174863
0.152789 0.041618202 0.048661917
0.256515 0.18429452 0.049868129
-0.25705001 0.27917299 0.049906168
0.256515 0.29795498 0.04642196
-0.26620838 0.305188 0.043122791
-0.23226084 0.31256199 0.045245226
0.014206382 0.31256199 0.048332565
0.028858699 0.31256199 0.046606615
0.10980232 0.31256199 0.047868997
-0.25643998 -0.31256199 0.051770076
-0.097539842 -0.31256199 0.055479988
-0.016316414 -0.31256199 0.055052154
0.063664719 -0.31256199 0.058092915
-0.25705001 -0.22850673 0.050784692
0.24922816 -0.17474088 0.050966751
-0.25705001 -0.14217626 0.055470683
-0.25705001 0.0036203116 0.054635175
0.256515 0.16008765 0.052503876
-0.058054835 0.31256199 0.059830382
0.077122964 0.31256199 0.05188062
0.089282081 0.31256199 0.053615563
-0.23332551 -0.31256199 0.060905546
-0.056940831 -0.31256199 0.068239324
-0.040308185 -0.31256199 0.061719861
-0.02486027 -0.31256199 0.066301681
0.16835009 -0.31256199 0.064608306
0.17850301 -0.31256199 0.06658864
0.2099314 -0.31256199 0.061717905
0.256515 -0.091196351 0.061870884
-0.25705001 -0.032382198 0.068168886
-0.25705001 0.062045977 0.069300063
0.26276901 0.11465678 0.063465089
-0.25705001 0.14768772 0.062300161
0.256515 0.15929729 0.069038592
-0.25705001 0.2456051 0.065953761
-0.030973831 0.31256199 0.069465533
0.13815939 0.31256199 0.06150258
-0.22802177 -0.31256199 0.077782713
-0.25705001 -0.23770185 0.078455478
0.256515 -0.20633177 0.070408829
0.26276901 -0.17989428 0.073121674
0.256515 -0.16305983 0.079153717
0.26276901 0.1472968 0.073735505
-0.25705001 0.3025578 0.077895731
-0.25695598 0.31256199 0.071630247
-0.20330089 0.31256199 0.071843401
0.19759032 0.31256199 0.075725541
-0.068539396 -0.31256199 0.081848353
-0.011596102 -0.31256199 0.087383524
0.10876737 -0.31256199 0.084749028
0.256515 -0.28956974 0.081550881
-0.25705001 -0.27024847 0.089971974
-0.25705001 -0.18595693 0.08049091
0.22342704 -0.15868817 0.088120706
0.2144013 -0.14820284 0.085524619
-0.25705001 0.037150312 0.08220423
-0.25705001 0.056612767 0.085241914
0.256515 0.077665567 0.085541263
0.256515 0.089048661 0.08260686
0.24099788 0.13021812 0.087006435
-0.25705001 0.21809612 0.080355734
-0.27628294 0.305188 0.08885248
-0.19035298 0.31256199 0.087454237
-0.0061334819 0.31256199 0.081059426
0.12533434 0.31256199 0.08879298
-0.015240025 -0.31256199 0.093001142
0.256515 -0.29975861 0.093112864
0.256515 -0.23112664 0.090866685
0.256515 -0.1931179 0.096876316
0.256515 -0.17439654 0.098198846
0.26276901 -0.10920055 0.09733101
0.26276901 -0.065181836 0.098742843
-0.25705001 -0.036534026 0.094832391
0.17069703 0.022737695 0.095890649
0.256515 0.022388596 0.096363857
0.256515 0.076513559 0.094419315
0.256515 0.081167936 0.090151809
0.256515 0.11864652 0.095844038
0.279735 0.30690628 0.098778218
-0.27715075 0.31256199 0.090196908
0.1300299 0.31256199 0.095113769
0.22170356 -0.31256199 0.10262259
-0.25705001 -0.14338863 0.1063961
0.17119944 -0.019921347 0.10334277
0.26276901 -0.012636809 0.10220173
-0.25705001 0.037581123 0.10339723
0.26276901 0.14345294 0.10325672
0.256515 0.18477464 0.10139368
0.25062701 0.24794208 0.10637244
0.27306369 0.305188 0.10922593
-0.1969465 0.31256199 0.10525905
-0.044054076 0.31256199 0.10396685
0.045978203 0.31256199 0.1008964
0.27893159 0.31256199 0.10686188
0.10591705 -0.31256199 0.11345699
0.12583718 -0.31256199 0.11026491
-0.25705001 -0.23761559 0.11001686
0.256515 -0.23501767 0.11544487
0.25319111 -0.14121899 0.11264584
0.256515 -0.071281515 0.11897538
0.19088113 0.034993239 0.11952512
0.256515 0.045471895 0.11547007
0.256515 0.063024111 0.11092815
0.21945198 0.10640597 0.11423119
0.256515 0.1036067 0.11194506
0.256515 0.15578347 0.11868138
-0.25705001 0.18274085 0.11717141
-0.25705001 0.26705575 0.11165638
-0.17184278 0.31256199 0.11866962
-0.09262941 0.31256199 0.11758031
0.021876909 0.31256199 0.11583265
-0.18509428 -0.31256199 0.12735058
-0.14450201 -0.31256199 0.12546889
-0.054939687 -0.31256199 0.12470445
0.20925397 -0.31256199 0.12007461
-0.25705001 -0.23429637 0.12961742
-0.25705001 -0.20835593 0.12849876
0.256515 -0.15563679 0.1234425
-0.25705001 -0.1145127 0.12430617
0.26276901 -0.095611989 0.1234414
0.26276901 -0.040034011 0.12055448
0.256515 -0.0090336464 0.12667291
0.26276901 -0.0011090664 0.121214
0.26276901 0.12105633 0.12609421
0.256515 0.16713963 0.1291125
-0.25705001 0.21552546 0.12699422
-0.25705004 0.27700725 0.12064821
-0.20257002 0.31256199 0.12102136
0.040911447 0.31256199 0.12465021
0.18456841 0.31256199 0.12897334
-0.15894355 -0.31256199 0.13637972
0.256515 -0.19012767 0.13320503
-0.25705001 -0.10718088 0.13052605
0.256515 -0.036192022 0.13272297
0.198816 0.0012280119 0.13966531
0.2002625 0.032566588 0.13471855
0.256515 0.054500148 0.13860552
0.256515 0.062825672 0.13647516
0.26276901 0.073976725 0.13676023
-0.21282977 0.31256199 0.13131416
-0.1543417 0.31256199 0.13651308
-0.18374346 -0.31256199 0.1479359
-0.25705001 -0.26622021 0.1414012
0.256515 0.0091961473 0.14073822
0.26276901 0.03753034 0.14330918
-0.19596028 0.31256199 0.14870535
-0.084805235 -0.31256199 0.15816891
-0.057565272 -0.31256199 0.15320781
-0.011696532 -0.31256199 0.15284331
-0.25705001 -0.2459275 0.15012747
-0.25705001 -0.2125122 0.153291
-0.25705001 -0.20394294 0.15363039
0.21731643 0.025395507 0.15934037
0.26276901 0.086794645 0.15331969
0.26276901 0.10335453 0.15418088
0.256515 0.25696436 0.15661526
0.256515 0.28903246 0.15912671
-0.2513569 0.31256199 0.15978014
0.27717105 0.31256199 0.15895246
-0.17822413 -0.31256199 0.1699286
0.18642245 -0.31256199 0.16313863
0.256515 -0.30175138 0.1685876
-0.25705001 -0.25838128 0.16292992
0.256515 -0.20286763 0.16230938
0.256515 -0.10938067 0.16574681
0.26276901 -0.098158695 0.16263993
-0.25705001 -0.0475225 0.16354731
0.256515 -0.047425386 0.16659272
0.25747746 0.01223549 0.16904923
0.25012845 0.031991627 0.16470924
-0.25705001 0.12825072 0.16794303
0.256515 0.28432742 0.16418803
-0.23713723 0.31256199 0.16675025
-0.14275435 -0.31256199 0.17207304
-0.068206258 -0.31256199 0.17163767
-0.029040433 -0.31256199 0.17807016
0.12950467 -0.31256199 0.17059198
0.24982618 -0.31256199 0.17900032
-0.25705001 -0.28633779 0.1778271
0.256515 -0.26999748 0.17907389
-0.25705001 -0.17288728 0.17319877
0.256515 -0.12404659 0.17752884
0.26276901 -0.042854156 0.17198184
0.23360109 -0.023728281 0.17072727
0.22879529 0.0024491125 0.17119908
0.26276901 0.016550645 0.17281951
-0.25705001 0.10025127 0.17144838
-0.25705001 0.1190135 0.17400767
0.256515 0.27036542 0.17122211
0.25723118 0.305188 0.17815381
-0.28027099 0.31129044 0.17510939
-0.14531906 0.31256199 0.17169937
0.057535253 0.31256199 0.17120871
-0.17976905 -0.31256199 0.18544234
-0.086609691 -0.31256199 0.18916634
0.061170414 -0.31256199 0.1812671
0.256515 -0.30525839 0.18961033
0.256515 -0.23475325 0.18982023
0.256515 -0.13056403 0.18317682
-0.25705001 0.22303824 0.1892367
-0.26524177 0.305188 0.18390486
-0.22763088 0.31256199 0.1859165
-0.079621419 0.31256199 0.1805446
-0.088059515 -0.31256199 0.19522434
-0.25705001 -0.20547892 0.19356769
-0.25705001 0.020451799 0.19138321
0.256515 0.026494022 0.19224596
0.256515 0.045675531 0.19031763
0.256515 0.19660667 0.19412699
0.256515 0.20081003 0.1911369
-0.25705001 0.23479161 0.19984458
0.25491598 0.26670873 0.19945425
-0.26727659 0.305188 0.19348183
-0.14781989 0.31256199 0.19555034
0.059128955 0.31256199 0.19159292
0.063427255 0.31256199 0.1964979
0.11549446 0.31256199 0.19939767
0.21714018 0.31256199 0.19322932
-0.14499462 -0.31256199 0.2053993
-0.064149924 -0.31256199 0.20110643
0.10121958 -0.31256199 0.20147432
0.25896201 -0.26455262 0.20058611
-0.25705001 0.064513259 0.2071978
-0.25705001 0.10469599 0.20599684
0.256515 0.10429484 0.20730971
-0.25705001 0.11208207 0.2076526
0.256515 0.2835786 0.20691407
0.256515 0.30307215 0.20390411
0.044188954 0.31256199 0.202461
0.14715339 0.31256199 0.20578611
0.25321698 0.31256199 0.20433235
0.26857638 0.31256199 0.20460626
0.10673359 -0.31256199 0.21079212
0.256515 -0.15683641 0.2156527
-0.25705001 0.1958008 0.21007374
-0.25949433 0.31256199 0.2110741
-0.055524305 0.31256199 0.21947452
0.0073188841 0.31256199 0.21950939
0.07963942 0.31256199 0.21447501
0.15614855 0.31256199 0.21809262
-0.067019932 -0.31256199 0.22396606
0.056070812 -0.31256199 0.22311567
0.16612777 -0.31256199 0.22040759
0.22301924 -0.31256199 0.22167528
-0.25705001 -0.13680287 0.2252728
-0.25705001 -0.10005309 0.22734515
-0.25705001 -0.064524218 0.22621876
-0.25705001 -0.053906687 0.22734243
0.256515 0.10567848 0.22093509
0.256515 0.22238095 0.22556505
-0.23642585 0.31256199 0.22875823
-0.18213724 0.31256199 0.22464199
-0.034449376 0.31256199 0.22278076
0.10496274 0.31256199 0.22096778
-0.042761803 -0.31256199 0.23398361
-0.036102593 -0.31256199 0.2330544
0.039692067 -0.31256199 0.23520356
-0.25705001 0.080277532 0.23370582
-0.25705001 0.17691216 0.23748857
0.256515 0.20781313 0.23696755
-0.26930001 0.31256199 0.23005599
-0.1855315 0.31256199 0.23865199
0.1049178 0.31256199 0.2352639
0.22223452 0.31256199 0.23437202
-0.18285094 -0.31256199 0.24473989
-0.013980512 -0.31256199 0.24522944
0.11530971 -0.31256199 0.24684054
-0.25705001 -0.27129057 0.24045473
-0.25705001 -0.11438631 0.24414897
0.256515 -0.1100321 0.24318153
-0.25705001 -0.098775052 0.24003655
0.256515 0.072625056 0.24951844
0.256515 0.087796122 0.24087666
-0.26469532 0.31256199 0.2410073
-0.21650264 -0.31256199 0.25663662
-0.1151113 -0.31256199 0.25311992
-0.088655941 -0.31256199 0.25984731
0.017930426 -0.31256199 0.25610816
-0.25705001 -0.10963599 0.25222394
-0.25705001 -0.035885081 0.25405696
-0.25705001 0.0096792132 0.25689229
-0.25705001 0.043696761 0.25191572
-0.25705001 0.11284699 0.25420395
0.256515 0.26005414 0.25373685
-0.25705001 0.29583547 0.25243774
-0.27028897 0.31256199 0.25460345
0.1510649 0.31256199 0.2548354
0.08144708 -0.31256199 0.26487079
-0.12028448 -0.30766737 0.26520801
-0.083631501 -0.30949551 0.26520801
0.10645599 -0.3090018 0.26520801
0.12067971 -0.30332381 0.26520801
-0.19946986 -0.29950047 0.26520801
0.012887057 -0.29747036 0.26520801
0.024026927 -0.29303202 0.26520801
0.16111611 -0.29473805 0.26520801
0.23831685 -0.29444608 0.26520801
0.256515 -0.29669026 0.26159731
-0.22187431 -0.28502032 0.26520801
-0.026232254 -0.28270227 0.26520801
-0.014222618 -0.2873275 0.26520801
0.19437054 -0.2853469 0.26520801
0.21365732 -0.28250244 0.26520801
-0.17649978 -0.27347022 0.26520801
0.19874194 -0.27643943 0.26520801
0.033308543 -0.26965794 0.26520801
0.064372219 -0.26627845 0.26520801
0.16034149 -0.25441408 0.26520801
0.18259075 -0.25547785 0.26520801
0.033997633 -0.22952148 0.26520801
-0.19111794 -0.20518017 0.26520801
0.19893341 -0.19980609 0.26520801
0.030977584 -0.1880825 0.26520801
-0.023814842 -0.17191049 0.26520801
0.025041595 -0.17266493 0.26520801
0.17025204 -0.17523681 0.26520801
0.04442624 -0.16288476 0.26520801
-0.11199898 -0.15177053 0.26520801
0.11806177 -0.14828061 0.26520801
0.23011757 -0.14328818 0.26520801
-0.026824653 -0.13356975 0.26520801
0.13282068 -0.13749972 0.26520801
0.1801078 -0.13565652 0.26520801
-0.027149942 -0.12918705 0.26520801
0.12335657 -0.12178434 0.26520801
-0.23936975 -0.11033435 0.26520801
-0.16650161 -0.11646271 0.26520801
-0.13384308 -0.1164457 0.26520801
-0.22905417 -0.10581643 0.26520801
-0.1601049 -0.10889388 0.26520801
-0.15091655 -0.10412741 0.26520801
0.046624519 -0.10203768 0.26520801
-0.17485733 -0.098119847 0.26520801
-0.13715243 -0.093838774 0.26520801
0.19580731 -0.081338324 0.26520801
0.23558286 -0.083747275 0.26520801
0.012713939 -0.074479558 0.26520801
-0.18629423 -0.068310991 0.26520801
-0.19902726 -0.044736996 0.26520801
-0.16130735 -0.035043091 0.26520801
0.020327697 -0.033487923 0.26520801
-0.018747723 -0.021457141 0.26520801
0.076894052 -0.021673962 0.26520801
0.25453609 -0.029144924 0.26517731
0.015349473 -0.014496242 0.26520801
0.057681903 -0.018156542 0.26520801
-0.098552585 -0.0049649477 0.26520801
0.2090427 -0.0021919385 0.26520801
0.2559827 -0.0060386956 0.26402655
0.018323351 0.0050868131 0.26520801
0.12180278 0.00038585067 0.26520801
-0.10695032 0.011602223 0.26520801
0.040315263 0.010511048 0.26520801
-0.013152353 0.02885893 0.26520801
0.14866132 0.021680646 0.26520801
-0.25705001 0.039757341 0.26359722
-0.19740532 0.03375034 0.26520801
-0.092660695 0.042060394 0.26520801
0.098495029 0.048738763 0.26520801
0.076286316 0.054269381 0.26520801
0.083375081 0.059866406 0.26520801
0.095101461 0.05345574 0.26520801
0.023260795 0.062088065 0.26520801
0.083321579 0.067192748 0.26520801
0.16112718 0.061656889 0.26520801
0.24041341 0.066453427 0.26520801
-0.15656726 0.075871691 0.26520801
0.01092948 0.079554871 0.26520801
0.19557595 0.076056033 0.26520801
-0.020992599 0.08415091 0.26520801
0.22977877 0.085225344 0.26520801
-0.026064711 0.098617122 0.26520801
0.0098020118 0.10617041 0.26520801
0.15261975 0.11819223 0.26520801
-0.22868614 0.13289371 0.26520801
-0.12171789 0.14824373 0.26520801
-0.24295311 0.15446585 0.26520801
-0.21818025 0.15501392 0.26520801
-0.10479486 0.15846977 0.26520801
0.064356819 0.15757954 0.26520801
-0.12749997 0.17056188 0.26520801
0.06966944 0.17162828 0.26520801
0.16617392 0.17282824 0.26520801
-0.19290452 0.18796898 0.26520801
-0.18581004 0.18777338 0.26520801
-0.12223681 0.19370663 0.26520801
-0.11913793 0.19916351 0.26520801
0.10151721 0.19563812 0.26520801
0.13439316 0.19905312 0.26520801
-0.22746874 0.20100319 0.26520801
-0.10871417 0.20477358 0.26520801
0.03798753 0.20017789 0.26520801
-0.17317624 0.21995553 0.26520801
-0.16319218 0.21663773 0.26520801
-0.13261351 0.21772814 0.26520801
0.047210678 0.21231636 0.26520801
0.038921416 0.22441468 0.26520801
0.12656376 0.22393036 0.26520801
0.25600639 0.22856103 0.26520801
-0.18809612 0.23432174 0.26520801
-0.21769826 0.24760149 0.26520801
0.0083339661 0.24213181 0.26520801
0.024734683 0.2400535 0.26520801
-0.25705001 0.25102952 0.26211217
0.085860424 0.2536017 0.26520801
0.1145632 0.2560418 0.26520801
0.14742941 0.25601444 0.26520801
-0.1910004 0.27263489 0.26520801
0.16511977 0.28570518 0.26520801
-0.088512614 0.29855633 0.26520801
0.034672245 0.29379416 0.26520801
-0.17516379 0.305188 0.26729333
0.032702155 0.305188 0.2654039
0.20630604 0.30377877 0.26520801
-0.25832179 0.31256199 0.26481032
-0.20725067 0.31256199 0.26513618
-0.15254593 0.31256199 0.26682967
-0.095186286 0.31256199 0.26255971
0.21535453 0.31112188 0.26520801
