# .PCD v0.7 - Point Cloud Data file format
VERSION 0.7
FIELDS x y z
SIZE 4 4 4
TYPE F F F
COUNT 1 1 1
WIDTH 967
HEIGHT 1
VIEWPOINT 0 0 0 1 0 0 0
POINTS 967
DATA ascii
0.081770532 -0.35312617 -0.25088701
0.10981731 -0.34571967 -0.25088701
-0.14637379 -0.3393234 -0.25088701
-0.081029803 -0.33880639 -0.25088701
0.17434585 -0.3364937 -0.25088701
-0.13356769 -0.32979125 -0.25088701
-0.033986919 -0.3246516 -0.25088701
0.036156625 -0.32599473 -0.25088701
0.067097187 -0.32748628 -0.25088701
0.10870799 -0.32175046 -0.25088701
-0.16871433 -0.31889874 -0.25088701
-0.011093713 -0.31268656 -0.25088701
0.19211315 -0.31110078 -0.25088701
-0.18541089 -0.30479848 -0.25088701
-0.045997724 -0.30353624 -0.25088701
0.028482988 -0.30231804 -0.25088701
0.17454521 -0.29318181 -0.25088701
-0.072521694 -0.28197971 -0.25088701
-0.052181803 -0.28845558 -0.25088698
0.088498123 -0.28886059 -0.25088701
0.091665119 -0.28994688 -0.25088701
0.11294282 -0.28338182 -0.25088704
-0.18653719 -0.2750769 -0.25088701
0.22056586 -0.27121025 -0.25088701
0.039104536 -0.26447958 -0.25088701
0.054428279 -0.26661354 -0.25088701
0.098413222 -0.26309383 -0.25088701
0.21491782 -0.26411793 -0.25088701
-0.20017739 -0.25167766 -0.25088701
-0.04421192 -0.25607997 -0.25088701
0.020757519 -0.25758064 -0.25088701
0.12876049 -0.25553975 -0.25088701
0.20008937 -0.25649136 -0.25088701
-0.12799938 -0.24154522 -0.25088701
-0.068742372 -0.24162993 -0.25088701
-0.068352878 -0.23076478 -0.25088701
-0.046580233 -0.23572174 -0.25088701
0.021689497 -0.23355484 -0.25088701
0.10443741 -0.23532042 -0.25088701
0.10206211 -0.22282311 -0.25088701
-0.02290548 -0.21734172 -0.25088701
0.2194064 -0.21582073 -0.25088701
-0.04434666 -0.20434104 -0.25088701
-0.14430955 -0.19682607 -0.25088701
-0.1879226 -0.18457487 -0.25088701
-0.11639287 -0.18992329 -0.25088701
0.097723693 -0.18151003 -0.25088701
0.1255073 -0.18559144 -0.25088701
-0.14745373 -0.17524718 -0.25088701
0.1467872 -0.17399351 -0.25088701
0.1761844 -0.17564487 -0.25088701
-0.20724216 -0.16085084 -0.25088701
0.058046117 -0.16035224 -0.25088701
0.19613691 -0.1624022 -0.25088701
-0.10070322 -0.15558448 -0.25088701
-0.055915922 -0.15715875 -0.25088701
0.15424316 -0.1403586 -0.25088701
0.18691778 -0.14004269 -0.25088701
0.20754658 -0.14662407 -0.25088701
0.21261273 -0.14217593 -0.25088701
-0.21119529 -0.13350011 -0.25088701
-0.18869893 -0.13756932 -0.25088701
0.056550175 -0.13100526 -0.25088701
0.14560607 -0.13817838 -0.25088701
-0.011489809 -0.12765753 -0.25088701
-0.032253753 -0.11380789 -0.25088701
-0.014016516 -0.11686065 -0.25088701
-0.18537667 -0.10784873 -0.25088701
-0.15684812 -0.1006461 -0.25088701
-0.098348476 -0.10808317 -0.25088701
0.017133981 -0.10784508 -0.25088701
0.081264347 -0.10435435 -0.25088701
0.091682769 -0.10385372 -0.25088701
-0.099378653 -0.09358713 -0.25088701
-0.054964565 -0.099285826 -0.25088701
0.046711892 -0.090320043 -0.25088701
0.06195163 -0.091103628 -0.25088701
0.064753368 -0.088348389 -0.25088701
-0.063678131 -0.079679437 -0.25088701
-0.052327357 -0.074366912 -0.25088701
-0.042009093 -0.072891787 -0.25088701
0.10461618 -0.079890087 -0.25088701
0.16406038 -0.060372248 -0.25088701
0.15853369 -0.052773703 -0.25088701
0.21112545 -0.053858459 -0.25088701
-0.14342576 -0.043500878 -0.25088701
-0.02099517 -0.041836798 -0.25088701
0.20611843 -0.041008592 -0.25088701
-0.18619442 -0.039614543 -0.25088701
0.11532935 -0.034564562 -0.25088701
-0.20801747 -0.019195512 -0.25088701
-0.10176358 -0.013643503 -0.25088701
0.014475944 -0.013835365 -0.25088701
0.072139159 -0.013722576 -0.25088701
0.13037467 -0.015883327 -0.25088701
-0.17537504 -0.009422889 -0.25088701
0.037993662 0.011169687 -0.25088701
0.16359693 0.018877469 -0.25088701
-0.1595428 0.029235519 -0.25088701
-0.010067478 0.023646511 -0.25088701
-0.0028271899 0.02219516 -0.25088701
0.17335603 0.021262653 -0.25088701
-0.14797045 0.032319307 -0.25088704
-0.11829746 0.046973921 -0.25088701
-0.20290436 0.050434262 -0.25088701
-0.12215134 0.056708608 -0.25088701
-0.16993585 0.066191137 -0.25088701
-0.14379618 0.063602015 -0.25088701
-0.03770408 0.077355325 -0.25088701
-0.006953083 0.075941354 -0.25088701
0.037193958 0.070186302 -0.25088701
0.15939522 0.073159277 -0.25088701
-0.06986542 0.0802375 -0.25088701
-0.032533422 0.083851151 -0.25088701
-0.14237294 0.094682261 -0.25088701
0.15630142 0.099067934 -0.25088701
0.21966702 0.090340622 -0.25088701
-0.21143886 0.10886251 -0.25088701
-0.18132475 0.1006906 -0.25088701
-0.14024843 0.10716141 -0.25088701
0.21817465 0.10285573 -0.25088701
-0.19934216 0.11653624 -0.25088704
-0.14736158 0.11596215 -0.25088701
-0.07985083 0.12936115 -0.25088701
-0.037083179 0.12032335 -0.25088701
0.15355079 0.12003541 -0.25088701
-0.19125514 0.13763726 -0.25088701
-0.065343402 0.13172308 -0.25088701
0.15991691 0.13409829 -0.25088701
-0.12335989 0.14824358 -0.25088701
0.052691586 0.14388669 -0.25088701
-0.011803314 0.15926342 -0.25088701
0.10064176 0.15247932 -0.25088701
0.12757401 0.15951265 -0.25088701
0.13432752 0.15322427 -0.25088701
0.18096413 0.15154293 -0.25088701
0.07013987 0.16907866 -0.25088701
0.12171341 0.16176885 -0.25088701
-0.18635832 0.17680825 -0.25088701
-0.02691552 0.17822285 -0.25088701
0.091682404 0.17622687 -0.25088701
0.13522622 0.17306146 -0.25088701
0.21988215 0.18812066 -0.25088701
-0.12635714 0.19758946 -0.25088701
-0.071943521 0.19982514 -0.25088701
0.09164419 0.19196612 -0.25088701
-0.14575924 0.20413038 -0.25088701
0.053936712 0.2093097 -0.25088701
0.13090153 0.21351331 -0.25088701
-0.17394605 0.22229978 -0.25088701
-0.12399031 0.22328839 -0.25088701
-0.078584448 0.22201735 -0.25088701
-0.030301586 0.22956268 -0.25088701
0.029764734 0.22592327 -0.25088701
0.087789901 0.24344009 -0.25088701
0.11950675 0.24346618 -0.25088701
0.13582142 0.24986179 -0.25088701
-0.19802843 0.29856905 -0.25088701
-0.20813888 0.30912197 -0.25088701
-0.18938838 0.306348 -0.25088701
-0.20187059 0.33468971 -0.25088701
-0.15273976 0.3349168 -0.25088701
-0.16359611 0.36235809 -0.25088701
0.065829724 -0.35902798 -0.24552049
0.220608 -0.17621602 -0.24911653
-0.216282 -0.022901952 -0.24378249
0.220608 0.053027146 -0.24107037
0.220608 0.14625886 -0.24055882
0.220608 0.16639842 -0.24689358
0.010410629 0.224933 -0.24374391
0.030817315 0.224933 -0.24540475
0.220608 0.2391327 -0.2403882
0.10169207 0.25088701 -0.2487855
0.18286954 0.25088701 -0.24968852
-0.14638734 -0.35902804 -0.23214331
0.11827672 -0.35902801 -0.23800616
0.20242183 -0.35902804 -0.2351959
0.21613704 -0.35902801 -0.23283458
-0.216282 0.11994595 -0.23008719
-0.14927997 0.224933 -0.23760331
-0.096941143 0.224933 -0.23645371
-0.025464276 0.224933 -0.23449016
0.049110867 0.224933 -0.23103938
0.1746549 0.224933 -0.23996739
0.20219496 0.224933 -0.23160337
0.14284681 0.25088701 -0.23557466
-0.210886 0.30523401 -0.23392439
-0.21628201 -0.1799414 -0.22603962
0.220608 -0.17161556 -0.22721292
0.220608 -0.0753197 -0.22892722
-0.216282 -0.022341929 -0.22795367
0.220608 -0.024545409 -0.22303167
-0.216282 0.08481279 -0.22084863
-0.21628201 0.099302374 -0.22536191
-0.21628201 0.14573544 -0.22081554
0.220608 0.19579369 -0.22477062
0.048972413 0.224933 -0.22782487
-0.0035583787 0.24832383 -0.2265761
-0.13478816 0.25088701 -0.22718312
-0.210886 0.32233411 -0.22670871
-0.059070401 -0.35902801 -0.21610671
-0.216282 -0.18948072 -0.21692821
0.220608 -0.15203592 -0.21673745
-0.21628201 0.0094422251 -0.21898247
-0.21628201 0.1284178 -0.21088991
0.220608 0.19253333 -0.2119891
-0.216282 0.22408719 -0.21804757
-0.097226262 0.224933 -0.21551834
-0.062445991 0.224933 -0.21657681
-0.0088577569 0.224933 -0.21049903
0.00035304204 0.246562 -0.21323982
0.017951805 0.246562 -0.2138225
0.1247386 0.246562 -0.21265489
-0.216282 -0.33866897 -0.20993893
-0.21628201 -0.31254509 -0.20108031
-0.216282 -0.19116794 -0.20025299
0.220608 -0.091065116 -0.20316961
-0.216282 -0.04492484 -0.20886147
-0.076273985 0.224933 -0.20413285
-0.013456941 0.224933 -0.20553413
0.04421661 0.224933 -0.20421371
-0.095311552 0.246562 -0.20687234
-0.013771141 0.246562 -0.20306602
0.058361117 0.246562 -0.20974654
-0.19616118 0.25088701 -0.20274517
-0.21088599 0.35523629 -0.20327577
-0.087417148 -0.35902801 -0.19813485
0.068514064 -0.35902801 -0.19762109
0.13088933 -0.35902801 -0.19325846
0.216282 -0.31904206 -0.19726193
-0.21628198 -0.23688281 -0.19364932
0.220608 -0.10343023 -0.19602351
-0.216282 0.027035262 -0.19353405
0.096483901 0.224933 -0.19110933
0.045565039 0.246562 -0.19671789
0.14549881 0.24656202 -0.19165555
-0.1937715 0.25088704 -0.19607843
-0.210886 0.29555911 -0.19253366
-0.13139337 0.29065892 -0.19567907
-0.21088599 0.34162268 -0.19498464
-0.14800626 0.34388077 -0.19064946
-0.15942653 -0.35902798 -0.18351622
-0.036808334 -0.35902801 -0.18475769
-0.216282 -0.29293144 -0.18455997
0.220608 -0.28085047 -0.18807037
-0.216282 -0.26324812 -0.18522075
-0.216282 -0.19049248 -0.18719132
-0.21628198 -0.1729461 -0.18949865
0.220608 -0.074957959 -0.1826736
-0.21628198 -0.046488449 -0.18340741
0.220608 0.10547062 -0.18212408
0.220608 0.19674832 -0.18382007
-0.1032897 0.224933 -0.18357962
0.15418714 0.224933 -0.18886168
-0.11474222 0.25088701 -0.18186
-0.15480475 -0.35902798 -0.17978266
0.025779657 -0.35902801 -0.17556125
0.220608 -0.3002128 -0.17693248
0.220608 -0.25600976 -0.17223585
-0.216282 -0.13245809 -0.17170551
-0.216282 0.054884948 -0.1798985
-0.216282 0.19051057 -0.17838122
-0.021930762 0.224933 -0.1710031
0.029030282 0.224933 -0.17098142
0.03402796 0.224933 -0.17824414
-0.1362731 0.30629399 -0.17303555
-0.210886 0.34170422 -0.17278111
-0.00069244206 -0.35902801 -0.16414058
-0.216282 -0.33318284 -0.16660458
0.22060801 -0.26642978 -0.16949536
0.220608 -0.2120872 -0.16964297
0.220608 -0.11942598 -0.16753814
-0.216282 -0.032948077 -0.16312447
-0.21205132 0.051609851 -0.16848899
0.220608 0.050701682 -0.16698916
-0.17013381 0.224933 -0.16720697
0.034194194 0.224933 -0.16710219
-0.1424555 0.25088701 -0.16831677
-0.20716316 0.36364487 -0.16406615
0.15215075 -0.35902801 -0.15190129
0.16621129 -0.35902798 -0.1508864
0.216282 -0.33770436 -0.15518028
-0.216282 -0.31732571 -0.15163544
0.220608 -0.30510142 -0.15374266
-0.216282 -0.2427305 -0.15835953
0.220608 -0.21981838 -0.15988497
-0.21628201 0.20794013 -0.1507847
-0.216282 0.22051221 -0.15561543
-0.049239606 0.224933 -0.15967405
0.220608 0.22684941 -0.1531914
0.00090028718 0.246562 -0.15431431
0.13111693 0.246562 -0.15675887
-0.210886 0.28756467 -0.15335549
-0.210886 0.29555562 -0.15787476
-0.210886 0.3521184 -0.15466432
0.099025518 -0.35902798 -0.14094904
-0.216282 -0.33303675 -0.14260909
0.220608 -0.20152543 -0.14448121
-0.216282 -0.18259338 -0.14391188
-0.21628198 -0.12933634 -0.14277883
0.220608 0.13343179 -0.14521804
-0.216282 0.20264922 -0.14352112
0.15772061 0.224933 -0.14042613
0.017077111 0.246562 -0.14769277
0.022732448 0.246562 -0.14442122
0.220608 0.24407396 -0.1481632
-0.16965964 0.25088701 -0.14207962
-0.14008364 0.25088701 -0.14574318
-0.1209027 0.25088701 -0.1450794
-0.050156787 -0.35902804 -0.13657875
-0.216282 -0.24307577 -0.13169178
-0.21599749 0.172593 -0.13633686
-0.1770792 0.224933 -0.13675812
-0.046852197 0.246562 -0.13781713
0.0086217299 0.246562 -0.13049057
0.025253803 0.246562 -0.13905197
-0.020824298 -0.35902801 -0.12138909
-0.216282 -0.3367064 -0.12078577
-0.21628198 -0.018999156 -0.12871318
0.220608 0.054313801 -0.12953636
-0.21195698 0.068424925 -0.1257437
0.220608 0.14383978 -0.12380315
-0.21195699 0.16083771 -0.12021878
-0.13172376 0.224933 -0.12491839
-0.12322989 0.224933 -0.12063515
0.1070412 0.224933 -0.1207489
-0.10423909 0.246562 -0.12645324
-0.049073592 0.246562 -0.12664302
0.1100758 0.246562 -0.1231266
-0.210886 0.25754485 -0.12456385
-0.13876359 0.25088701 -0.12513368
-0.065759972 -0.35902798 -0.1186298
-0.05192871 -0.35902801 -0.11694057
0.051229283 -0.35902801 -0.11978714
0.10268829 -0.35902801 -0.11661857
0.220608 -0.21934557 -0.11363924
-0.21195698 0.023484878 -0.11330209
-0.21195699 0.033611864 -0.11524449
-0.21195699 0.090197951 -0.11020121
-0.21195701 0.1620551 -0.11607121
0.220608 0.1885678 -0.11407305
-0.18616226 0.224933 -0.11582622
0.077876918 0.246562 -0.11299609
0.097108804 0.246562 -0.11273005
0.16009548 0.246562 -0.11200186
-0.210886 0.26605663 -0.1125951
-0.20080082 -0.35902804 -0.10892165
-0.17022963 -0.35902801 -0.10537066
-0.13572025 -0.35902801 -0.10595681
0.220608 -0.23918882 -0.10929966
0.220608 -0.20558953 -0.1058539
0.220608 -0.13961463 -0.10645658
0.220608 -0.058977529 -0.10937921
0.220608 0.0069232285 -0.10963951
0.220608 0.17153168 -0.10692395
0.220608 0.19348073 -0.10333703
-0.056469414 0.224933 -0.10939002
-0.025685932 0.224933 -0.10152829
0.16451955 0.224933 -0.10687966
0.0064372495 0.246562 -0.10632347
-0.210886 0.29239669 -0.10967414
-0.210886 0.31421781 -0.10217194
-0.14328751 0.32876357 -0.10297651
-0.14655063 0.33921728 -0.10481188
-0.216282 0.0068525835 -0.09184213
-0.21195701 0.043041758 -0.095028482
-0.21195699 0.066593945 -0.096324772
-0.21195699 0.074779406 -0.099242449
-0.21195699 0.08242324 -0.099215746
-0.21195701 0.13570815 -0.099720389
-0.21195701 0.15493315 -0.098633029
0.220608 0.17266165 -0.099453568
-0.21628201 0.2030379 -0.093000472
-0.21628201 0.22086337 -0.097827919
-0.14540115 0.224933 -0.094246767
-0.094476394 0.224933 -0.096212827
-0.035972964 0.224933 -0.095205612
0.18115643 0.224933 -0.098995253
-0.078983992 0.246562 -0.093741745
0.051828366 0.246562 -0.099313587
-0.13690913 0.25088701 -0.095768221
0.20897806 0.25088701 -0.096717201
0.0053951927 -0.35902801 -0.082060575
0.11497664 -0.35902801 -0.089430287
-0.216282 -0.10953927 -0.084816933
0.220608 -0.050369337 -0.087870568
-0.21898167 0.11154635 -0.088040315
-0.21195699 0.1337682 -0.088509098
0.220608 0.13520764 -0.085849971
0.220608 0.2079381 -0.083238944
-0.210886 0.26688248 -0.087724298
-0.14552785 0.33594027 -0.087889835
-0.15380102 0.36244649 -0.085299335
-0.216282 -0.18742232 -0.075795196
0.220608 -0.1119537 -0.071717352
0.220608 -0.10155099 -0.071463406
0.220608 -0.080334291 -0.076424502
0.220608 0.05094108 -0.079233266
0.220608 0.10887277 -0.072281584
-0.216282 0.17893496 -0.071129315
0.220608 0.17537414 -0.07005313
0.220608 0.19163823 -0.07411617
-0.17244187 0.224933 -0.070450373
-0.09940061 0.224933 -0.072536513
0.220608 0.22459474 -0.079527728
-0.02159046 0.246562 -0.07836172
-0.01973114 0.246562 -0.079615191
-0.13616291 0.25088701 -0.078824855
-0.055359211 -0.35902801 -0.061071135
0.064550824 -0.35902801 -0.063765287
0.17264166 -0.35902801 -0.068584681
0.220608 -0.25028419 -0.061712947
-0.21628198 -0.24322027 -0.064303339
-0.216282 -0.1409933 -0.063155651
-0.21195699 0.089907125 -0.062614843
0.18117839 0.224933 -0.066908859
-0.025642388 0.246562 -0.061327167
-0.12882662 0.25088701 -0.069948569
-0.20781794 -0.35902801 -0.058182612
-0.10072685 -0.35902804 -0.054842345
0.084181145 -0.35902801 -0.055072684
0.21140064 -0.35902801 -0.058730036
0.220608 -0.25958499 -0.054518431
-0.21628198 -0.11197342 -0.057080962
-0.21628198 -0.026359908 -0.054031722
-0.21628198 0.10938371 -0.051225573
-0.21243308 0.12529932 -0.0516969
-0.11971749 0.224933 -0.059990279
-0.059492674 0.224933 -0.050468624
0.03868369 0.224933 -0.051381148
0.056096327 0.224933 -0.057343498
-0.216282 0.23682736 -0.053193171
0.050665632 0.246562 -0.050095655
0.220608 0.24879117 -0.050880313
-0.13614351 0.25088701 -0.050022274
-0.11974133 0.25332704 -0.051166832
-0.210886 0.30441853 -0.056372322
-0.210886 0.35830662 -0.056374107
-0.11009075 -0.35902801 -0.040658005
-0.21628201 -0.33867818 -0.047935747
0.220608 -0.09727858 -0.041549213
0.220608 0.001551941 -0.048518136
-0.12648588 0.224933 -0.049812481
-0.020210944 0.224933 -0.04236234
0.10607728 0.224933 -0.043955814
0.15541559 0.224933 -0.049044997
-0.21242175 0.25088701 -0.042426407
-0.13312845 -0.35902801 -0.034633297
-0.21628201 -0.18143941 -0.030527718
0.220608 -0.11077443 -0.033238068
-0.216282 -0.10666229 -0.032805167
0.220608 -0.077071063 -0.03938619
-0.21628201 -0.03206205 -0.037302747
-0.216282 0.035708569 -0.037690949
0.220608 0.062037338 -0.037084397
-0.216282 0.10291216 -0.036556117
0.220608 0.17537057 -0.032569617
0.033733234 0.224933 -0.03855335
0.1173295 0.246562 -0.036001779
-0.15129724 0.25088701 -0.032093838
-0.210886 0.29007506 -0.037901938
-0.14486322 0.33381158 -0.034166761
-0.05055172 -0.35902801 -0.025204927
0.084189974 -0.35902801 -0.021882709
0.13034672 -0.35902798 -0.020861007
0.220608 -0.14016446 -0.024337471
0.220608 -0.07014665 -0.02396179
0.220608 -0.055747345 -0.026763381
0.044133589 0.224933 -0.022081401
0.044173781 0.246562 -0.025500312
-0.13821071 0.25088701 -0.022090562
-0.20199278 0.36516127 -0.028504958
-0.18574226 -0.35902801 -0.017295599
0.019363172 -0.35902801 -0.012031086
0.10347314 -0.35902801 -0.014342226
0.216282 -0.35133088 -0.011602236
0.220608 -0.16491194 -0.011465341
0.220608 -0.15741706 -0.01935254
0.220608 -0.02411142 -0.01729705
0.220608 0.091868833 -0.01353202
-0.12222806 0.224933 -0.011233233
-0.14762034 0.25088701 -0.013498228
-0.12697992 0.25088701 -0.018764362
-0.20298091 0.36487147 -0.017411806
-0.17578489 0.36893216 -0.018567882
-0.16341566 -0.35902801 -0.0036091805
0.0025779679 -0.35902801 -0.0020629466
0.10948368 -0.35902801 -0.00079575926
0.220608 -0.17857888 -0.0033623129
-0.15010829 0.224933 -0.0038775653
-0.053738557 0.224933 -0.0061712358
0.18414894 0.224933 -0.0029543191
-0.10216546 0.246562 -0.0063100457
-0.082677022 0.246562 -0.0093617439
-0.210886 0.2882244 -0.0057923347
-0.17034812 0.36733752 -0.0042648762
-0.16569248 -0.35902804 0.0084039792
-0.056611665 -0.35902801 0.0098383334
0.052397076 -0.35902801 0.0063309446
0.12526625 -0.35902801 0.00052342564
0.216282 -0.31700146 0.003598759
-0.216282 -0.28450251 0.009130083
0.220608 -0.26128137 0.0059112832
-0.216282 -0.25818607 0.00036548451
-0.21628201 -0.20764634 0.0096713081
-0.21628201 0.19509153 0.00090631098
-0.033529375 0.224933 0.0014680512
0.060650151 0.224933 0.0085816085
-0.1775369 0.25088701 0.0053672269
-0.13918607 0.31562197 0.0015551746
0.20143715 -0.35902804 0.013255313
-0.216282 -0.34228164 0.01258903
0.216282 -0.33790582 0.012130573
-0.216282 -0.28470731 0.019328084
0.220608 -0.23654374 0.01599957
-0.21628201 -0.22205737 0.012383763
0.220608 -0.09398704 0.014914408
0.220608 -0.032972425 0.019475602
0.220608 0.001927577 0.010313712
-0.216282 0.056608547 0.016067341
0.220608 0.2145362 0.016050342
-0.216282 0.22298716 0.017303742
-0.20048657 0.224933 0.015925571
0.171248 0.224933 0.016629964
-0.0070686517 0.246562 0.015327414
0.046212621 0.246562 0.01063697
0.17807648 0.246562 0.010673828
-0.18905969 0.36895442 0.01554697
-0.069822311 -0.35902801 0.0291209
0.031686783 -0.35902804 0.0248845
0.12118568 -0.35902798 0.026549585
-0.216282 -0.34213889 0.027018363
0.216282 -0.32540008 0.023304567
0.216282 -0.31215179 0.024668708
-0.216282 -0.175033 0.025947426
0.220608 -0.12512869 0.020899415
0.220608 -0.099699289 0.025383618
-0.216282 0.2275126 0.026884109
0.070582688 0.224933 0.022928979
-0.21628201 0.23368296 0.024836972
0.220608 0.23585907 0.020641223
0.077727363 0.246562 0.023952711
-0.1640251 -0.35902801 0.035589606
-0.15147817 -0.35902801 0.038289182
0.16954136 -0.35902801 0.035130739
0.22016783 -0.30756107 0.035102308
0.220608 -0.16863969 0.031249173
-0.21628201 0.0064569572 0.034317408
0.220608 0.057506233 0.036837772
-0.216282 0.077660233 0.036314402
-0.21628201 0.098058283 0.033516388
0.220608 0.1050491 0.035592292
0.220608 0.12830338 0.035636753
-0.216282 0.19987771 0.037687726
-0.216282 0.20093697 0.038052488
-0.080487713 0.224933 0.038243588
-0.07294739 0.224933 0.036639482
-0.19792014 0.25088701 0.036035046
-0.16303205 0.25088701 0.035396323
-0.210886 0.26339009 0.038564526
-0.13793072 0.31160018 0.032278854
-0.14177179 -0.35902801 0.046388131
0.046380293 -0.35902801 0.046219058
0.12833631 -0.35902804 0.043079019
0.1432973 -0.35902801 0.048972823
0.216282 -0.31587628 0.046857633
0.22060798 -0.2409656 0.044880912
0.220608 -0.08606565 0.045456804
-0.21628201 0.012231685 0.042771637
0.220608 0.094904512 0.041300077
0.220608 0.11879502 0.046814941
-0.21628201 0.12746568 0.047122926
0.220608 0.20753464 0.041374139
-0.21390876 0.22334659 0.041712277
0.2185607 0.224933 0.048865616
-0.17974974 0.25088701 0.040423922
-0.17644845 0.36912677 0.047391877
-0.16713443 -0.35902798 0.053180605
-0.13203318 -0.35902801 0.059384167
0.11264348 -0.35902804 0.050526612
-0.216282 -0.34557861 0.056732878
0.220608 -0.22817105 0.059871554
0.220608 -0.050686747 0.05165761
0.220608 0.017865561 0.051694907
-0.17836367 0.224933 0.05209963
0.11345404 0.224933 0.05473651
-0.210886 0.27685121 0.059278183
-0.19306141 0.36778075 0.053292252
-0.21628201 -0.35365698 0.069686785
0.11052473 -0.35902804 0.064427435
0.220608 -0.21537632 0.069116883
0.220608 0.013138138 0.068654828
0.220608 0.14900318 0.067992263
-0.216282 0.15476239 0.068679728
-0.012932345 0.224933 0.065611772
0.025224812 0.224933 0.066711001
-0.090592116 0.246562 0.062592395
-0.082652017 0.246562 0.065789729
0.054379061 0.246562 0.068567738
0.16486461 0.246562 0.064500473
-0.18233699 0.3708539 0.060024068
-0.097856835 -0.35902801 0.072872281
0.030326627 -0.35902801 0.078728698
0.220608 -0.21574414 0.074651852
0.220608 -0.18044822 0.074663296
0.220608 -0.065687202 0.078344554
-0.21628201 0.023420267 0.078543775
-0.216282 0.09056139 0.070621878
-0.21628198 0.10568591 0.078374952
-0.039170794 0.246562 0.071649686
-0.21100925 0.25088701 0.073142007
-0.17702734 0.36929658 0.079214931
-0.21628201 -0.35402557 0.081792668
-0.025340186 -0.35902801 0.081669956
-0.21628198 -0.33556759 0.089138418
-0.21628201 -0.27765095 0.08826559
0.220608 -0.14292586 0.082886323
-0.21628198 0.21569976 0.080914699
-0.08410795 0.224933 0.088497929
-0.020686761 0.224933 0.087186933
0.220608 0.23529683 0.084633872
-0.10237943 0.246562 0.084025733
0.17242289 0.246562 0.089994088
-0.210886 0.29864156 0.089494646
-0.12839095 -0.35902801 0.099447832
-0.010534693 -0.35902801 0.096495032
0.220608 -0.29491004 0.09499082
-0.216282 -0.22470774 0.096028537
0.220608 -0.031491809 0.095930278
0.220608 0.21052971 0.09704531
-0.10451247 0.224933 0.090364471
-0.0064848959 0.224933 0.090196311
0.013353597 0.224933 0.0906009
0.21528745 0.224933 0.0923298
0.089818887 0.246562 0.091353878
0.19459371 0.24669552 0.092521466
-0.14292641 0.25088701 0.092201307
-0.1243527 0.2681008 0.096418723
-0.17453133 0.36856449 0.096552782
-0.15486847 -0.35902801 0.10661751
0.16279493 -0.35902804 0.10367773
0.220608 -0.30059212 0.10909355
-0.216282 -0.23195137 0.10423347
-0.216282 -0.075397804 0.10875522
0.220608 0.10221061 0.10478321
0.220608 0.14743122 0.10089189
-0.21628198 0.21459588 0.10107556
0.12612668 0.246562 0.10694528
0.18200326 0.246562 0.10924987
-0.15476096 0.25088701 0.1040496
-0.210886 0.35377577 0.10685969
-0.15109891 0.3537893 0.10426177
-0.080523051 -0.35902801 0.11166511
0.19489883 -0.35902801 0.11486381
0.220608 -0.28450829 0.1163355
0.220608 -0.2679354 0.11169262
0.220608 0.025046926 0.11145204
-0.21628201 0.10809825 0.11435172
0.220608 0.10556047 0.11946733
0.220608 0.14997847 0.11348513
-0.16657667 0.224933 0.11989273
-0.14293592 0.224933 0.11401959
-0.13007994 0.224933 0.11978293
-0.0068478361 0.224933 0.11572652
0.022830285 0.224933 0.11700854
0.030372731 0.246562 0.11302636
-0.21088602 0.31888777 0.11899105
-0.14156523 0.32324478 0.11740476
-0.020705897 -0.35902804 0.12855449
0.054939367 -0.35902801 0.12840551
-0.21628201 0.19519025 0.12919137
-0.14481106 0.224933 0.12207284
0.095986426 0.246562 0.12897405
0.17077875 0.246562 0.12780505
-0.19108841 0.36835939 0.12824132
-0.21628198 -0.24347582 0.13875678
-0.21628198 -0.22901119 0.13282751
0.220608 -0.16695063 0.13136554
-0.21628201 -0.10200489 0.13374217
-0.216282 0.045261264 0.13645542
-0.216282 0.19223285 0.13498268
-0.21555962 0.224933 0.13761009
-0.15816876 0.224933 0.1379122
-0.06485711 0.246562 0.13155527
-0.057812382 0.246562 0.13802522
-0.210886 0.25313374 0.13126999
0.20236519 0.25088701 0.13663064
-0.1529319 0.35966188 0.13314496
0.220608 -0.27952251 0.14895085
0.220608 -0.17789511 0.1452086
0.220608 -0.090315327 0.14369255
-0.21628198 -0.078482658 0.14719027
-0.21628201 0.033347949 0.14454231
-0.14203916 0.25088701 0.14764012
-0.014971864 -0.35902798 0.15641119
0.1042615 -0.35902804 0.15081424
-0.21628201 -0.24297246 0.15271126
-0.216282 -0.13337317 0.15734251
-0.21628198 -0.064767063 0.15616769
-0.21628201 0.16154008 0.15126377
0.220608 0.18865089 0.15271237
0.220608 0.21082611 0.15148953
-0.1859571 0.224933 0.15783751
-0.1334168 0.224933 0.15538588
-0.019121764 0.246562 0.15310197
-0.210886 0.25418609 0.15192372
-0.20065108 -0.35902804 0.16159013
-0.216282 -0.27550676 0.16683555
0.220608 -0.069483407 0.1655864
-0.21628198 -0.051200546 0.1624175
0.220608 -0.040654 0.16701359
-0.216282 0.011921942 0.16743127
-0.216282 0.14824365 0.16838019
-0.19035169 0.224933 0.16291074
-0.023932487 0.224933 0.16159035
-0.21088599 0.33877274 0.16190407
0.055351127 -0.35902801 0.17319964
0.15967715 -0.35902798 0.17709167
-0.216282 -0.25732368 0.17539048
-0.216282 -0.24093616 0.17264186
0.220608 -0.20929249 0.17662032
0.220608 -0.19823125 0.17326212
-0.21628198 -0.060164832 0.1705814
0.220608 0.046559699 0.17494005
0.220608 0.17731093 0.17539732
-0.0088803172 0.224933 0.17483759
0.082508832 0.224933 0.17652181
0.1587363 0.224933 0.17872733
0.18234228 0.246562 0.17177784
-0.21374124 0.25088701 0.17482728
-0.210886 0.34583265 0.17105941
-0.21628201 -0.1563721 0.18585494
0.220608 -0.15742616 0.18733317
0.220608 -0.13558669 0.1833275
-0.13920107 0.224933 0.18814991
-0.019007355 0.246562 0.18088433
0.036319543 0.24477816 0.18248194
0.056326903 0.2443108 0.185803
-0.19101901 0.25088701 0.18128416
-0.210886 0.26106244 0.18740858
-0.032451138 -0.35902801 0.19134706
0.093825176 -0.35902801 0.19157311
-0.216282 -0.28914967 0.19525281
-0.21628201 -0.24708338 0.19938441
0.220608 -0.24408969 0.19609244
0.220608 -0.23265952 0.19061106
-0.21628198 -0.16222137 0.19261172
0.220608 -0.035875395 0.19442606
-0.216282 0.140194 0.19573745
-0.216282 0.15487103 0.19462885
0.220608 0.16713351 0.19828974
0.017884135 0.224933 0.19080862
-0.13431808 0.30554056 0.19402525
-0.210886 0.35530367 0.19474421
-0.2151514 -0.35902801 0.2018308
-0.14611357 -0.35902798 0.2098968
0.220608 -0.21491279 0.20951711
0.220608 -0.10956451 0.20273833
-0.216282 0.10505052 0.20002952
-0.216282 0.20812693 0.20982574
-0.098499775 0.224933 0.20562482
0.21925689 0.224933 0.20720425
0.220608 0.23585626 0.20275819
-0.011409372 0.246562 0.20501925
0.011307087 0.246562 0.20134926
0.11191437 0.246562 0.20682651
-0.13730375 0.3095935 0.2072587
-0.19367903 0.36759961 0.20691708
0.019942343 -0.35902801 0.21755819
0.216282 -0.31700313 0.21921772
-0.21628201 -0.25602868 0.21290967
0.220608 -0.11911727 0.21413435
0.220608 -0.10218802 0.2197292
-0.216282 -0.043481566 0.21088716
-0.216282 0.17413054 0.21721378
0.16603939 0.224933 0.2109212
0.19449088 0.224933 0.21634971
0.220608 0.2359879 0.21200028
0.065558925 0.246562 0.21017711
-0.210886 0.32355693 0.21957946
-0.083525628 -0.35902798 0.22032771
-0.216282 -0.32576197 0.22267005
0.220608 -0.30352136 0.22391415
-0.21628201 -0.29019228 0.22198491
-0.21628201 -0.22458789 0.22317435
0.220608 -0.017020993 0.22028312
-0.216282 0.0014344305 0.22353393
-0.216282 0.027120933 0.22147599
-0.21628198 0.081350617 0.22283706
-0.216282 0.18568751 0.22861284
-0.13307825 0.224933 0.22997934
-0.068754785 0.224933 0.22986612
0.027556777 0.224933 0.22304231
0.043271594 0.224933 0.22392249
0.092952721 0.224933 0.22648191
0.18489709 0.246562 0.22025546
-0.20800917 0.25088701 0.22275186
-0.11154971 0.25088701 0.22340102
-0.09857104 -0.35902801 0.23732013
-0.024747029 -0.35902801 0.23515511
0.024251221 -0.35902801 0.23005787
0.095757872 -0.35902801 0.23043543
-0.216282 -0.23067978 0.23711376
-0.216282 -0.039929852 0.23466262
-0.216282 0.016044959 0.23361269
-0.16729732 0.224933 0.23342502
0.1054809 0.224933 0.23996484
-0.15123221 0.25088701 0.23697357
-0.14276971 0.25088701 0.23410624
-0.041747909 0.25088701 0.23171389
-0.014208335 0.25088701 0.23737484
0.092563137 0.25088701 0.2311421
-0.17106615 0.36754811 0.23394877
-0.14523877 -0.35902801 0.24077818
-0.13446715 -0.35902801 0.24168375
-0.10827248 -0.35902801 0.24836168
0.032198146 -0.35902801 0.24984685
0.04313492 -0.35902801 0.24132487
0.052092232 -0.35902801 0.24702007
0.220608 -0.22022314 0.24944338
0.220608 -0.093024336 0.24253649
-0.216282 -0.07955724 0.24642368
0.220608 -0.060461678 0.24914716
-0.21628198 0.14996848 0.24213347
0.220608 0.16234924 0.24456795
0.220608 0.20850973 0.24844378
-0.013652245 0.224933 0.24429744
-0.19536456 0.25088701 0.24252969
-0.21195698 0.34462762 0.24781524
0.10058464 -0.35249192 0.25088701
0.16730161 -0.35758451 0.25088701
-0.20116642 -0.34079024 0.25088701
-0.086731933 -0.34250474 0.25088701
0.0077334568 -0.34424177 0.25088701
0.20121084 -0.33223623 0.25088701
-0.078229479 -0.32777551 0.25088701
-0.040447779 -0.32270843 0.25088701
0.030676208 -0.32404047 0.25088701
0.220608 -0.32828367 0.25041544
-0.10774319 -0.31971753 0.25088701
0.033446074 -0.31999031 0.25088701
0.068357587 -0.31781009 0.25088701
0.12007773 -0.30589107 0.25088701
-0.18126675 -0.29178485 0.25088701
-0.030279569 -0.29391295 0.25088701
0.21205118 -0.29893109 0.25088701
-0.064256467 -0.28396383 0.25088701
0.21973382 -0.28340977 0.25088701
-0.20742589 -0.27419072 0.25088701
0.072065011 -0.27031553 0.25088701
0.1472643 -0.2795929 0.25088701
0.16785881 -0.27452901 0.25088701
-0.10184884 -0.26736253 0.25088701
-0.0074900091 -0.26159349 0.25088701
0.077477135 -0.26700288 0.25088701
0.19015756 -0.26508287 0.25088701
-0.13135763 -0.25864425 0.25088701
-0.0037473515 -0.25484484 0.25088701
0.012467757 -0.25811934 0.25088701
0.12900278 -0.25631717 0.25088701
-0.17854708 -0.24360606 0.25088701
-0.076876037 -0.24713999 0.25088701
-0.018271934 -0.24965018 0.25088701
0.19905026 -0.24787652 0.25088701
0.095152482 -0.23589763 0.25088701
0.14148617 -0.23764151 0.25088701
-0.17879322 -0.22122629 0.25088701
0.0025900677 -0.22371922 0.25088701
0.029819399 -0.21794844 0.25088701
0.13609827 -0.21837851 0.25088701
0.12430367 -0.20814566 0.25088701
0.17008144 -0.20277923 0.25088701
-0.019726112 -0.19148771 0.25088701
0.0038002878 -0.19603175 0.25088701
0.010406598 -0.19971219 0.25088701
0.18800217 -0.19320309 0.25088701
-0.027266689 -0.18828359 0.25088701
0.20459843 -0.18491021 0.25088701
-0.097010441 -0.17349869 0.25088701
-0.1692054 -0.16789883 0.25088701
-0.13391683 -0.15626837 0.25088701
-0.039413631 -0.15152934 0.25088701
-0.011539988 -0.15902284 0.25088701
-0.19537535 -0.14631939 0.25088701
0.026340052 -0.14945304 0.25088701
-0.2160134 -0.1374279 0.25088701
-0.057156894 -0.13995904 0.25088701
0.027304668 -0.13504426 0.25088701
0.068483271 -0.13480775 0.25088701
0.19316605 -0.13207322 0.25088701
0.21291819 -0.13943064 0.25088701
0.10232992 -0.12036716 0.25088701
-0.1691182 -0.11900012 0.25088701
-0.06062419 -0.11113659 0.25088701
0.14514107 -0.11786756 0.25088701
0.1927301 -0.10511342 0.25088701
0.051198885 -0.090465747 0.25088701
0.1501039 -0.095825799 0.25088701
0.020904921 -0.087464191 0.25088701
0.037265632 -0.084805153 0.25088701
0.072431408 -0.083043143 0.25088701
0.16757816 -0.080504552 0.25088701
-0.10179297 -0.070914373 0.25088701
-0.013035346 -0.073790118 0.25088701
0.024838515 -0.076583765 0.25088701
-0.17606319 -0.041702248 0.25088701
0.14464559 -0.040272452 0.25088701
0.0076667741 -0.033552125 0.25088701
0.062443174 -0.033880293 0.25088701
0.11391785 -0.033606436 0.25088701
0.17078938 -0.021042839 0.25088701
-0.10707729 0.00089260936 0.25088701
-0.04976853 0.00082178414 0.25088701
-0.12821567 0.015046701 0.25088701
-0.099094748 0.026498541 0.25088701
0.035046592 0.02277609 0.25088701
0.20142768 0.02251328 0.25088701
-0.18597737 0.037223101 0.25088701
-0.074609399 0.034087732 0.25088701
-0.13926244 0.041924827 0.25088701
-0.098973751 0.049343362 0.25088701
-0.046408691 0.045084015 0.25088701
-0.18538386 0.059130084 0.25088701
0.10450596 0.051197331 0.25088701
-0.20798786 0.061839215 0.25088701
-0.0774481 0.065940328 0.25088701
0.069470592 0.061969541 0.25088701
0.058210418 0.079498343 0.25088701
0.089814007 0.074378148 0.25088701
0.11110785 0.076882496 0.25088701
-0.0076992735 0.085202038 0.25088704
0.094328433 0.084837712 0.25088701
-0.18828604 0.094676837 0.25088701
-0.0049553439 0.095258385 0.25088701
0.20076478 0.092752434 0.25088701
-0.10867134 0.1137596 0.25088701
-0.085351057 0.11741792 0.25088701
0.20108074 0.13334149 0.25088701
-0.12606207 0.14392793 0.25088701
-0.091618292 0.14572705 0.25088701
-0.079192817 0.14076336 0.25088701
0.054999102 0.1444785 0.25088701
0.16284484 0.14737666 0.25088701
0.17599884 0.14764607 0.25088701
0.19988392 0.14777833 0.25088701
0.027182519 0.15478963 0.25088701
0.1548793 0.15500157 0.25088701
-0.1434359 0.16213739 0.25088701
-0.095365942 0.16690499 0.25088701
0.11937149 0.16948043 0.25088701
0.16385086 0.16928166 0.25088701
-0.17158853 0.18018718 0.25088701
0.2046755 0.18493566 0.25088701
0.085582308 0.19419236 0.25088701
0.098520085 0.19467956 0.25088701
0.034501344 0.20891339 0.25088701
0.048565835 0.20918173 0.25088701
0.16782847 0.21698925 0.25088701
-0.17532355 0.22048552 0.25088701
-0.15006246 0.2390357 0.25088701
0.075147457 0.2359965 0.25088701
0.16690743 0.2312479 0.25088701
0.023112722 0.24085516 0.25088701
0.11939025 0.24369395 0.25088701
-0.16039526 0.28876457 0.25088701
-0.15524879 0.29558644 0.25088701
-0.21184009 0.31515414 0.25088701
