# .PCD v0.7 - Point Cloud Data file format
VERSION 0.7
FIELDS x y z
SIZE 4 4 4
TYPE F F F
COUNT 1 1 1
WIDTH 242
HEIGHT 1
VIEWPOINT 0 0 0 1 0 0 0
POINTS 242
DATA ascii
-0.13956434 0.33515003 -0.16060346
-0.14610966 0.3401027 -0.16028397
-0.13149193 0.32893431 -0.15580392
-0.14375065 0.33831048 -0.15677936
-0.13729128 0.33346534 -0.15399905
-0.15561789 0.34718826 -0.15530223
-0.16609739 0.35487881 -0.15297437
-0.15962638 0.35019806 -0.15350923
-0.13170329 0.32861996 -0.14440611
-0.14235592 0.33733675 -0.14507397
-0.13608563 0.33264241 -0.1448531
-0.15582441 0.34740511 -0.14726527
-0.14801636 0.34156474 -0.14639552
-0.16531105 0.35452017 -0.14480264
-0.13152914 0.32928562 -0.13511907
-0.14351654 0.33829755 -0.13462141
-0.1363928 0.33295941 -0.13492237
-0.15311052 0.34547219 -0.13590981
-0.14719808 0.34101474 -0.13921322
-0.16596426 0.35514444 -0.13672484
-0.13190292 0.32970363 -0.12269217
-0.14345117 0.33832088 -0.12636448
-0.13399601 0.33124644 -0.12553582
-0.15209796 0.34479433 -0.12691756
-0.14736573 0.34125924 -0.12562324
-0.17132175 0.35828012 -0.12468693
-0.16609719 0.35539782 -0.12389722
-0.15977195 0.35055268 -0.1295248
-0.13166121 0.32853064 -0.11730182
-0.14270946 0.33786067 -0.1154775
-0.13636079 0.33311185 -0.11476737
-0.15524468 0.34728399 -0.1165596
-0.17011684 0.35856768 -0.11243775
-0.16509575 0.35475105 -0.11492403
-0.13161731 0.32852709 -0.10636283
-0.13351338 0.33106488 -0.10498004
-0.15337777 0.34600213 -0.10565331
-0.14680789 0.34105492 -0.10398672
-0.17104737 0.35937232 -0.10370388
-0.16537739 0.35507753 -0.10536882
-0.13146064 0.32941276 -0.094273902
-0.14245611 0.33786988 -0.095148176
-0.13676126 0.33357763 -0.095826641
-0.15479733 0.34720144 -0.095042713
-0.14723603 0.34148484 -0.095046148
-0.16558424 0.35537153 -0.093784511
-0.15928668 0.35063347 -0.091846272
-0.17279539 0.36070991 -0.098492131
-0.1417595 0.33743975 -0.087026872
-0.13670473 0.33362597 -0.086670533
-0.15455174 0.34713677 -0.084823266
-0.14685948 0.341326 -0.084399223
-0.17105228 0.35960174 -0.08550638
-0.16477923 0.35487595 -0.084276892
-0.15898415 0.35049272 -0.08444605
-0.13141085 0.32971689 -0.07906843
-0.14408144 0.33928353 -0.078643024
-0.13615561 0.33333653 -0.073201641
-0.15176739 0.34513342 -0.074209876
-0.14789541 0.34220216 -0.07456892
-0.16475074 0.35493371 -0.07643906
-0.15857483 0.3502551 -0.077380024
-0.17369151 0.36128461 -0.07339175
-0.14160003 0.33750486 -0.066977195
-0.13645545 0.33363467 -0.065076955
-0.1519409 0.34534299 -0.064881139
-0.14757615 0.34203482 -0.065738276
-0.17037408 0.35921374 -0.065474957
-0.16671507 0.35648513 -0.064652227
-0.15901518 0.35070026 -0.064023346
-0.17351647 0.36127287 -0.066957273
-0.14289728 0.33861256 -0.051893495
-0.13556263 0.33303079 -0.056650955
-0.15302597 0.34624702 -0.054940641
-0.14769843 0.34221429 -0.055378079
-0.17099686 0.35972744 -0.050602198
-0.16388746 0.35441321 -0.054838412
-0.15900691 0.35076895 -0.055093221
-0.14345241 0.33911556 -0.041986208
-0.13642615 0.33376518 -0.046347667
-0.15471829 0.34759489 -0.045323759
-0.14850989 0.3429268 -0.043605883
-0.1710723 0.3597976 -0.046410039
-0.16430293 0.35475373 -0.045587037
-0.15905751 0.35085392 -0.042364057
-0.17401007 0.36200106 -0.042911105
-0.13077492 0.32963318 -0.034216583
-0.14208582 0.33812726 -0.036602028
-0.13693868 0.3342509 -0.034662765
-0.15368453 0.34686977 -0.03489406
-0.14861473 0.34306151 -0.037006468
-0.1700871 0.35909542 -0.03669465
-0.16353633 0.35422176 -0.033669837
-0.15913647 0.35093257 -0.036400788
-0.17472097 0.36249781 -0.035940785
-0.14222834 0.33834347 -0.02368328
-0.13567737 0.33338878 -0.024236253
-0.15367457 0.34690261 -0.023775654
-0.14725585 0.34211019 -0.024664765
-0.17122827 0.35999677 -0.021466509
-0.16449445 0.35496429 -0.025190867
-0.17418635 0.36218604 -0.02563622
-0.14217763 0.33837047 -0.012030523
-0.13697594 0.33443651 -0.01590945
-0.1527911 0.34627149 -0.015495035
-0.14747356 0.342307 -0.015546311
-0.1701663 0.35923415 -0.012709619
-0.16561255 0.35583714 -0.013349796
-0.15903807 0.35093218 -0.014442264
-0.17340809 0.36163396 -0.016400956
-0.14175209 0.33808625 -0.0021062556
-0.13452452 0.33267361 -0.0048789321
-0.15226541 0.34591946 -0.0034885879
-0.14761418 0.34244594 -0.0052824989
-0.16404288 0.35470015 -0.0033515221
-0.15817478 0.35032398 -0.0037852968
-0.17547248 0.36295709 -0.00431951
-0.14242542 0.33856869 0.0079900576
-0.13506395 0.33309606 0.0037471892
-0.15301928 0.34647951 0.0040735966
-0.14702012 0.34199807 0.0067835017
-0.16474862 0.35521981 0.0052914722
-0.1584363 0.35051662 0.0044843322
-0.17407459 0.36218262 5.1016938e-05
-0.13079794 0.32980242 0.016862135
-0.14077696 0.33730337 0.016003894
-0.13468187 0.33272639 0.014416819
-0.15347116 0.34677187 0.017491734
-0.14755671 0.34237507 0.013728866
-0.17056987 0.35953268 0.013408711
-0.16494317 0.35532725 0.016619451
-0.15892877 0.35084364 0.01656395
-0.17512488 0.36263376 0.012966037
-0.14347966 0.33927894 0.024980282
-0.13646831 0.33398223 0.024308801
-0.15475474 0.34770781 0.02379805
-0.14718834 0.34204862 0.026892552
-0.16292225 0.35379139 0.025425211
-0.17326224 0.36149272 0.026439195
-0.13103683 0.32920352 0.035360247
-0.1419123 0.33799714 0.036471345
-0.13635175 0.33381185 0.034507472
-0.15465216 0.34759942 0.033404063
-0.14757754 0.34229249 0.035168208
-0.1701307 0.35912895 0.036376603
-0.16371946 0.3543537 0.035054322
-0.15846889 0.35043931 0.03506963
-0.17220987 0.36067834 0.036818441
-0.13079922 0.32922095 0.049331751
-0.14197953 0.337942 0.049091324
-0.13634162 0.33370566 0.045818124
-0.15478811 0.34764478 0.046174735
-0.14698282 0.34174538 0.046770252
-0.16257089 0.35345885 0.046674784
-0.15882087 0.35067102 0.044309229
-0.17320651 0.36139518 0.045732226
-0.13121137 0.32875335 0.055240318
-0.14346284 0.33901212 0.055247881
-0.13533773 0.33288789 0.053677719
-0.15308867 0.34630248 0.053985916
-0.14767884 0.34219122 0.05636175
-0.16628002 0.35620007 0.05388758
-0.15879053 0.35058409 0.057625167
-0.17252538 0.36084902 0.056838192
-0.14142327 0.33739915 0.063643612
-0.13520251 0.33270723 0.062631145
-0.15402785 0.34692413 0.06454587
-0.14770314 0.34214452 0.064109839
-0.1701217 0.35902041 0.067030713
-0.1660597 0.35599113 0.066495813
-0.15807913 0.35001773 0.060997345
-0.17337883 0.36130229 0.063679211
-0.13165253 0.32994094 0.074190915
-0.14203326 0.33777672 0.073618211
-0.13454783 0.33209404 0.076737016
-0.15457557 0.34724507 0.075651512
-0.1478653 0.34218207 0.074251838
-0.16601406 0.35590401 0.07446254
-0.15981583 0.35122123 0.074096516
-0.17265078 0.36087278 0.078454867
-0.13123018 0.32931027 0.084616683
-0.14274821 0.33819497 0.086370334
-0.13720496 0.33400196 0.086861163
-0.15406933 0.34678721 0.083507657
-0.14780004 0.34204283 0.083894774
-0.16395092 0.35424945 0.084299244
-0.15987228 0.35113937 0.086530156
-0.17374912 0.36147958 0.085479409
-0.13133138 0.32949841 0.097246073
-0.14260665 0.33796999 0.096449837
-0.13604152 0.33304042 0.095790982
-0.15317404 0.3459782 0.094704434
-0.14708164 0.3413479 0.096749552
-0.16342369 0.35373646 0.093925662
-0.13176483 0.32943586 0.10259255
-0.14152046 0.33705068 0.106285
-0.13597497 0.33290327 0.10562404
-0.15377815 0.34632617 0.10385505
-0.14690579 0.34111759 0.10494447
-0.17109717 0.35941947 0.10291143
-0.16687092 0.35618606 0.10710851
-0.15923229 0.35041118 0.10709483
-0.1723597 0.36035123 0.10394906
-0.13147099 0.32945001 0.11471909
-0.1361064 0.33290648 0.11651314
-0.15463488 0.3468225 0.11659975
-0.14759368 0.34156275 0.11186973
-0.16605824 0.35548779 0.11416256
-0.15937936 0.35043791 0.11420383
-0.13183716 0.32910338 0.12506711
-0.14148517 0.3368879 0.12188707
-0.13902184 0.33502728 0.12368722
-0.15367475 0.34598154 0.12643513
-0.14797136 0.3417376 0.12281023
-0.17079821 0.35857126 0.12451775
-0.16397542 0.3537643 0.12665808
-0.15924329 0.35020858 0.12484656
-0.13201219 0.32965982 0.13707845
-0.14117156 0.33652204 0.13687231
-0.13454616 0.33159018 0.13342172
-0.1557987 0.34749985 0.1347193
-0.1489356 0.34237245 0.13280292
-0.17007774 0.35818714 0.13461731
-0.16564265 0.35491541 0.13551524
-0.1596895 0.35045108 0.13282977
-0.13202497 0.32958561 0.14664747
-0.14379559 0.33841455 0.14519718
-0.13702402 0.33333588 0.14601848
-0.153852 0.34594566 0.14526534
-0.14875044 0.34215665 0.1416259
-0.17002103 0.35728765 0.14064199
-0.16435733 0.35365385 0.14593077
-0.15932834 0.35002726 0.14753604
-0.14344645 0.33809024 0.15388402
-0.13677533 0.33307377 0.15490247
-0.15484747 0.34664246 0.15325764
-0.14840847 0.34179729 0.15343933
-0.1633617 0.35269162 0.15917043
-0.13364412 0.32937765 0.160025
-0.13768606 0.33338606 0.16045417
-0.15346228 0.34534127 0.16005369
-0.14894758 0.34224892 0.16027564
