# .PCD v0.7 - Point Cloud Data file format
VERSION 0.7
FIELDS x y z
SIZE 4 4 4
TYPE F F F
COUNT 1 1 1
WIDTH 971
HEIGHT 1
VIEWPOINT 0 0 0 1 0 0 0
POINTS 971
DATA ascii
-0.15108739 -0.26325086 -0.380362
-0.10922112 -0.26313943 -0.380362
-0.10934012 -0.2470638 -0.38036203
-0.095012665 -0.24167629 -0.380362
-0.18757853 -0.23560196 -0.380362
-0.016634434 -0.23042074 -0.380362
-0.18064459 -0.21549086 -0.380362
0.11218417 -0.21310362 -0.38036197
0.13663125 -0.21175972 -0.380362
-0.18589824 -0.2039278 -0.380362
-0.15444757 -0.20894609 -0.380362
0.032523774 -0.20803869 -0.380362
0.15264897 -0.20462349 -0.38036197
0.17862898 -0.20104384 -0.380362
-0.13777646 -0.19135855 -0.380362
0.022574022 -0.19217089 -0.38036203
0.024811238 -0.18133542 -0.38036197
0.028938092 -0.17714539 -0.380362
0.14169674 -0.17457995 -0.380362
-0.13911179 -0.16747099 -0.380362
-0.080241762 -0.16074854 -0.38036203
-0.0028456226 -0.16639806 -0.380362
0.055506006 -0.14125946 -0.380362
0.082312621 -0.14007856 -0.380362
-0.0026434883 -0.1240158 -0.380362
0.077992626 -0.11296196 -0.380362
0.15772562 -0.11631379 -0.38036197
0.0981161 -0.10101646 -0.380362
-0.1060498 -0.095230401 -0.38036197
-0.063816473 -0.098168634 -0.380362
0.11265969 -0.096403085 -0.380362
-0.16012789 -0.080605194 -0.380362
-0.048755448 -0.084870949 -0.380362
0.12339815 -0.086269088 -0.380362
0.15421869 -0.079504229 -0.380362
-0.063349605 -0.060641468 -0.380362
0.058894835 -0.065259308 -0.380362
-0.015078135 -0.050697818 -0.380362
0.010574184 -0.059298106 -0.380362
0.097044274 -0.051359978 -0.38036197
-0.14673261 -0.048211072 -0.380362
-0.035456587 -0.048510004 -0.380362
0.098643303 -0.034832247 -0.380362
-0.17280525 -0.016988963 -0.380362
-0.021708462 -0.0095129311 -0.380362
0.15569344 -0.00080997497 -0.380362
0.0085568279 0.0042618886 -0.38036203
0.1523314 0.0062672123 -0.380362
-0.16443314 0.013968542 -0.380362
0.022131592 0.012871489 -0.380362
-0.063682333 0.020715542 -0.380362
-0.071190044 0.038362883 -0.38036203
-0.045222159 0.035125226 -0.380362
-0.010418504 0.033387594 -0.38036203
0.029083548 0.031230945 -0.38036203
0.040971339 0.035079733 -0.380362
0.094080441 0.038487874 -0.380362
-0.068081275 0.059413373 -0.38036197
-0.0039083855 0.054742426 -0.38036197
-0.15525627 0.061277896 -0.38036197
-0.12453598 0.068564564 -0.380362
0.069047451 0.078690782 -0.38036203
0.094056636 0.077498712 -0.380362
0.060029998 0.083580948 -0.380362
0.089939378 0.083824739 -0.380362
0.11682651 0.081667244 -0.38036203
0.13853548 0.087730616 -0.38036197
-0.11187309 0.097724341 -0.38036197
-0.093212187 0.097178824 -0.380362
0.039196651 0.10046411 -0.380362
-0.032577492 0.1148418 -0.380362
0.019046895 0.11987436 -0.380362
-0.17824003 0.12892906 -0.380362
0.002632238 0.12597652 -0.380362
-0.10185742 0.13583782 -0.38036197
0.032803506 0.13769254 -0.380362
0.083858341 0.14991866 -0.380362
-0.12087085 0.15860462 -0.380362
0.074994788 0.15844819 -0.380362
0.088300504 0.15852839 -0.380362
-0.13865438 0.16908367 -0.38036203
-0.099597715 0.17628518 -0.380362
0.076018915 0.18445984 -0.38036197
-0.07739681 0.19244042 -0.38036197
-0.0078717768 0.19425684 -0.380362
-0.15444192 0.20423464 -0.38036203
-0.06379772 0.20698142 -0.380362
-0.15254897 0.21648243 -0.380362
-0.057056606 0.2170509 -0.38036203
0.16133524 0.21230918 -0.380362
0.057216581 0.22449434 -0.380362
0.070834368 0.22300054 -0.38036203
-0.15271965 0.23730825 -0.380362
0.083084896 0.23599067 -0.380362
0.060181953 0.24093741 -0.380362
-0.12619422 0.25304991 -0.380362
0.054841008 0.25689524 -0.380362
0.097750686 0.2565189 -0.380362
0.038270712 0.2607373 -0.380362
0.084669009 0.26136923 -0.38036203
0.180149 -0.2213867 -0.3749823
0.180149 -0.2054088 -0.37414521
0.18014902 -0.18713832 -0.37091041
0.180149 -0.08947444 -0.37291065
0.180149 0.21851476 -0.3711181
0.16956879 0.23524003 -0.37181002
0.039064221 0.26337296 -0.37659603
0.060434371 0.26337302 -0.37186995
0.14564401 0.26247042 -0.37784097
0.1118053 -0.26451302 -0.36591396
-0.18803599 -0.13713208 -0.36381283
0.18014902 -0.033047494 -0.36274594
-0.18803601 0.19671671 -0.36778849
0.02788391 0.26337299 -0.36023521
0.053323332 0.26337299 -0.36745858
0.10960169 0.26337299 -0.36598286
-0.048407201 -0.26451299 -0.35683629
0.013352871 -0.26451299 -0.35470015
0.14980654 -0.26451299 -0.35483992
0.180149 -0.15729731 -0.35997623
-0.18803599 -0.095608376 -0.35657519
0.180149 -0.048372023 -0.35878199
-0.18803599 -0.029891409 -0.35764852
-0.18803599 -0.011782587 -0.35928345
-0.18803599 0.074184678 -0.35842639
0.18014899 0.15725206 -0.35487983
-0.031693406 0.26337299 -0.35079151
-0.18803599 -0.18675821 -0.34977961
0.180149 -0.17439409 -0.34026814
0.180149 -0.013205762 -0.34737268
-0.18803599 0.018892437 -0.34417534
0.18062624 0.058623724 -0.34095284
-0.18803599 0.10778487 -0.34495267
-0.18803599 0.18602589 -0.34729558
-0.18803599 0.21640131 -0.34166822
0.17818093 0.22720833 -0.34445116
-0.18803599 -0.11020296 -0.33156055
0.180149 -0.11878648 -0.33478916
-0.18803599 -0.041457541 -0.33558816
-0.18803599 0.15931985 -0.33119744
0.180149 0.18063152 -0.33651251
-0.11540296 0.26337299 -0.3383455
-0.063000359 0.26337296 -0.33532968
-0.072162941 -0.26451299 -0.3217954
-0.025127271 -0.26451299 -0.32967052
-0.18803599 -0.24649231 -0.32015231
0.180149 -0.16883524 -0.32911524
-0.18803599 -0.14692163 -0.32105878
-0.18803599 -0.029203728 -0.32953519
0.18304983 0.0192961 -0.32608503
-0.18803599 0.040263623 -0.3200306
0.01823087 0.26337299 -0.32139224
0.14522496 0.26337299 -0.32639799
0.09802644 -0.26451299 -0.31732455
-0.18803599 -0.17184134 -0.31979987
-0.18803599 0.04233849 -0.31843817
-0.18803599 0.068668447 -0.31562838
0.051745065 0.26337299 -0.31914636
0.12921688 0.26337299 -0.3149333
0.13179664 -0.26451299 -0.30110824
0.180149 -0.20429833 -0.30321655
-0.18803599 0.089261085 -0.3002975
-0.18803599 0.14446059 -0.3073796
0.16343303 0.24222353 -0.30925408
-0.18803599 0.26290423 -0.30539617
-0.075618625 0.26337299 -0.30545023
-0.058732256 0.26337299 -0.30168021
0.056335177 0.26337299 -0.30142415
-0.17349213 -0.26451299 -0.29129863
-0.15266666 -0.26451299 -0.29215899
-0.081416175 -0.26451299 -0.29516605
0.180149 -0.13980708 -0.29970223
0.18014899 -0.12656558 -0.29038623
0.180149 -0.038934052 -0.29537997
0.17782684 -0.011104054 -0.29482409
-0.18803599 0.0018495619 -0.29344961
0.17288122 0.23800693 -0.29451841
-0.18803599 0.26303458 -0.29675451
-0.075321861 0.26337299 -0.2985172
-0.020676631 -0.26451299 -0.28065452
0.180149 -0.19748473 -0.28081191
0.180149 -0.18052439 -0.28513724
-0.18803599 -0.13360538 -0.28898138
-0.18803599 0.19545986 -0.28165618
-0.10742164 0.26337299 -0.28199762
-0.040693358 0.26337299 -0.28995192
-0.17667024 -0.26451299 -0.27543727
0.18014899 -0.22481883 -0.27249083
0.180149 -0.2121172 -0.27860063
-0.18803599 0.018402092 -0.27673703
0.180149 0.20891878 -0.27346423
-0.1289012 0.26337299 -0.27315009
-0.082393691 -0.26451299 -0.26522988
0.11989135 -0.26451299 -0.26399916
-0.18803599 -0.16103463 -0.2693533
-0.18803599 -0.045063086 -0.26334512
0.17620498 -0.02832498 -0.26827338
-0.18803599 -0.0080501921 -0.2622914
-0.18803599 0.0071776584 -0.26969206
-0.18803599 0.1335223 -0.26378429
0.17635989 0.23091909 -0.26573089
-0.11962208 0.26337299 -0.26708615
-0.12480259 -0.26451299 -0.25425556
-0.080716051 -0.26451299 -0.25220475
0.088919088 -0.26451299 -0.25548255
0.16431859 -0.26451299 -0.25725496
-0.18803599 -0.12577218 -0.25356245
-0.18803599 -0.057200234 -0.25489497
-0.18803599 0.17955227 -0.25992626
-0.18803599 0.25209039 -0.25154912
0.14854646 0.25916696 -0.2529031
0.02098747 0.26337299 -0.25358689
-0.13340209 -0.26451299 -0.24244343
-0.12454805 -0.26451299 -0.24992804
0.180149 -0.26361418 -0.24061248
-0.18803599 -0.23231798 -0.24493442
0.180149 -0.22058915 -0.24988081
0.18014902 -0.18190584 -0.24258021
-0.18803599 -0.056723326 -0.24482697
0.17620499 -0.0058922158 -0.24091551
0.17620501 0.13428481 -0.24387145
0.17318219 0.23739314 -0.24622354
0.09428452 0.26337299 -0.24082896
0.11918084 0.26337299 -0.24062738
0.13875903 0.26337299 -0.24198858
-0.14102645 -0.26451299 -0.23077036
-0.18803599 -0.14285699 -0.23725593
-0.18803599 0.067983314 -0.23312795
0.17772609 0.17905581 -0.23277831
-0.031995215 0.26337299 -0.2327244
0.019847639 0.26337299 -0.23486058
0.087703511 0.26337299 -0.23943776
0.091197491 -0.26451299 -0.22364189
-0.18803599 -0.11210173 -0.22575708
-0.18803599 0.25100067 -0.22397979
-0.047816224 0.26337299 -0.22388694
-0.03392043 0.26337299 -0.22583491
0.15069845 -0.26451299 -0.21885034
0.17620499 0.091526277 -0.21463603
-0.18803599 0.12193605 -0.21753518
-0.18803599 0.13407186 -0.21785463
-0.10226832 0.26337299 -0.21326767
0.13874461 -0.26451299 -0.20596106
0.180149 -0.20098089 -0.2076105
-0.18803599 -0.14752987 -0.20935807
0.17620499 0.0098810019 -0.20679167
0.17620499 0.086745307 -0.20311391
-0.18803599 0.13253827 -0.20522636
-0.18803599 0.16938539 -0.20939933
-0.18803599 0.18850762 -0.20889932
0.18131828 0.20582376 -0.20685263
0.17457326 0.23455767 -0.20948827
-0.17800859 0.26337299 -0.20372474
-0.16723597 0.26337299 -0.20011567
-0.077351183 0.26337299 -0.20121989
0.026098043 0.26337299 -0.20764121
-0.038523845 -0.26451299 -0.19771376
0.12138053 -0.26451299 -0.19594984
-0.18803599 -0.17599462 -0.19310015
0.17620499 -0.012349429 -0.19704799
-0.18803599 0.11377148 -0.19450903
-0.18803599 0.15467793 -0.19516277
0.17935531 0.23347655 -0.19732527
0.18601745 0.2380922 -0.1959203
-0.057894543 0.26337299 -0.19117866
0.029606532 -0.26451299 -0.18354735
0.057734713 -0.26451302 -0.18495521
0.180149 -0.18645337 -0.18750279
-0.18803599 -0.083764128 -0.18940152
-0.18803599 0.022810154 -0.18563318
-0.18803599 0.087336376 -0.18494099
-0.067174897 0.26337299 -0.1847949
0.10176472 0.26337299 -0.18978964
-0.18803599 -0.19033799 -0.17184161
-0.18803599 -0.0052645206 -0.177369
0.16993713 0.24400419 -0.17242461
-0.18309823 0.26337299 -0.17437278
-0.090412378 0.26337299 -0.17546085
-0.022063125 0.26337299 -0.17790161
0.0042912588 0.26337299 -0.17743367
0.064634249 0.26337299 -0.17332172
-0.042823598 -0.26451299 -0.16551876
0.082581848 -0.26451299 -0.16417101
0.180149 -0.23915187 -0.16742685
-0.18803599 0.035891823 -0.16675301
0.17620499 0.12850054 -0.16470429
0.16370957 0.2419088 -0.16801615
-0.034416765 0.26337299 -0.16279346
-0.015750177 0.26337302 -0.16116445
0.12193077 0.26337299 -0.16002244
0.12904964 -0.26451299 -0.15095299
-0.18803599 -0.13638915 -0.1504737
-0.18803599 0.099414825 -0.15507326
0.17620499 0.14546123 -0.15436846
-0.15704149 0.26337299 -0.15667436
-0.052978896 -0.26451299 -0.14161313
0.17029858 -0.26451299 -0.14989105
0.180149 -0.2158297 -0.14197835
-0.18803599 -0.065910727 -0.14081509
-0.16110766 0.26337299 -0.14156039
-0.11790131 0.26337299 -0.14117031
0.14493307 -0.26451299 -0.13607129
-0.18803599 -0.116915 -0.13864067
0.180149 -0.10813102 -0.13669035
-0.18803599 -0.061710741 -0.13587253
-0.18803599 0.035725515 -0.13502869
-0.18803599 0.14598942 -0.13922034
-0.15341216 0.26337299 -0.13806343
-0.060380369 0.26337299 -0.13793448
0.180149 -0.10508691 -0.12879711
-0.18803599 -0.019326527 -0.12152492
0.16550952 0.23986018 -0.12101052
-0.11135225 0.26337299 -0.12055916
0.15679219 0.26337299 -0.12709956
-0.14225599 -0.26451299 -0.11130652
-0.016319014 -0.26451299 -0.11313119
0.13446724 -0.26451299 -0.11005606
0.14943999 -0.26451299 -0.11769754
0.15936354 -0.26451299 -0.11773013
0.17620499 0.039716233 -0.11963741
0.18045166 0.062781915 -0.11308639
0.18446881 0.081897214 -0.1125015
0.180149 0.17474326 -0.11648233
0.16488886 0.25428995 -0.11594902
-0.089626342 -0.26451299 -0.10071538
0.180149 -0.20339352 -0.10227112
-0.18803599 -0.15453789 -0.10874506
-0.18803599 -0.12721084 -0.10558982
-0.18803599 -0.011677578 -0.10491373
-0.18803599 0.20013562 -0.1045831
-0.18803599 -0.20721318 -0.098839238
-0.18803599 -0.097044423 -0.095004201
-0.18803599 0.0033578128 -0.099736035
0.17620499 0.054191951 -0.099531561
-0.18803599 0.061207488 -0.097014077
0.17620499 0.071908452 -0.09304779
-0.18803599 0.18802226 -0.090121612
-0.15095274 0.26337299 -0.092576526
0.14413401 0.26337299 -0.093619674
0.15091132 0.26337299 -0.092517368
-0.18803599 -0.21508588 -0.081296466
-0.18803599 -0.020258188 -0.081763886
-0.18803599 0.004135102 -0.086140372
-0.18803599 0.033728208 -0.089655526
-0.18803599 0.05208271 -0.083495714
-0.18803599 0.15595838 -0.085633777
0.0024415255 0.26337299 -0.081773616
0.12209981 0.26337299 -0.088050783
-0.12762198 -0.26451299 -0.070506856
-0.010362085 -0.26451299 -0.078141846
0.059579749 -0.26451299 -0.070110507
0.180149 -0.17601654 -0.078826547
0.18014902 -0.084292755 -0.078558445
0.17950985 0.10493 -0.074589007
0.18121809 0.14066173 -0.072588801
0.1727283 0.23164399 -0.073772117
-0.18803599 0.2495722 -0.074671417
0.1587532 0.24754997 -0.073427409
-0.038854089 0.26337299 -0.070273675
-0.058149751 -0.26451299 -0.066431053
-0.18803599 -0.16931467 -0.062981129
0.18265474 0.0099509461 -0.062752694
0.0986076 0.26337299 -0.065697886
-0.027377579 -0.26451299 -0.055427507
0.097480223 -0.26451299 -0.059304148
0.12570596 -0.26451299 -0.056250412
-0.18803599 -0.16880336 -0.050868873
0.18014899 0.020806903 -0.05654712
0.180149 0.052722074 -0.050204862
-0.18803599 0.11899972 -0.053811852
-0.083824031 0.26337299 -0.058574684
0.11464447 0.26337299 -0.05456645
-0.024048135 -0.26451299 -0.042322371
0.180149 -0.20658146 -0.042212397
0.180149 -0.16452108 -0.044296324
-0.18803599 -0.076095909 -0.045329522
-0.18803599 0.041239068 -0.04800025
0.1703119 0.24324055 -0.043066025
-0.051264364 0.26337299 -0.043165877
0.180149 -0.18195112 -0.039927132
-0.18803599 -0.057128929 -0.035353027
0.180149 0.055467166 -0.036526192
-0.10149391 0.26337299 -0.037585296
0.091708489 0.26337299 -0.036708366
0.12441918 0.26337299 -0.031226186
-0.028758124 -0.26451302 -0.027414827
-0.18803599 -0.15548593 -0.025667381
0.180149 -0.016123053 -0.024741989
-0.18803599 0.015078984 -0.020524103
-0.18803599 0.13143371 -0.026645476
0.055212397 0.26337299 -0.020551164
0.085148543 0.26337299 -0.02287524
0.06118897 -0.26451299 -0.01214033
-0.18803599 -0.066712305 -0.011941185
0.17637977 0.23087755 -0.013383874
-0.054716222 0.26337299 -0.017416853
0.095735542 0.26337299 -0.019195903
-0.18803599 -0.26365849 -0.0078611048
0.025567785 -0.26451299 -0.0099691413
0.038327485 -0.26369071 -0.00773622
0.055796951 -0.26254886 -0.00773622
-0.068104967 -0.24777603 -0.00773622
0.13940981 -0.24007827 -0.00773622
-0.0094328374 -0.23809847 -0.0077362205
0.17492515 -0.23382415 -0.0077362196
-0.15037443 -0.22823715 -0.00773622
0.10068928 -0.22978552 -0.00773622
-0.061557028 -0.21212134 -0.0077362205
-0.014856093 -0.21899773 -0.00773622
0.067307927 -0.20206539 -0.00773622
0.13016266 -0.20533885 -0.00773622
0.084842667 -0.19613074 -0.0077362205
-0.14363073 -0.17389436 -0.00773622
-0.1543985 -0.16962425 -0.00773622
-0.0031347796 -0.14980283 -0.00773622
0.17879346 -0.14743721 -0.00773622
-0.072302535 -0.13125806 -0.00773622
-0.098313034 -0.11749051 -0.00773622
0.022490803 -0.11758973 -0.00773622
0.031461656 -0.11608675 -0.00773622
0.10567949 -0.11585042 -0.00773622
0.15553187 -0.11096902 -0.00773622
-0.04456345 -0.10532728 -0.00773622
0.1323321 -0.10098545 -0.00773622
0.1767845 -0.10681234 -0.00773622
0.060050283 -0.092112541 -0.00773622
-0.14921491 -0.080909073 -0.0077362205
-0.066480167 -0.071858935 -0.00773622
-0.028147545 -0.072071068 -0.00773622
0.17374808 -0.075099304 -0.00773622
-0.14733836 -0.0629889 -0.00773622
-0.12405007 -0.067188054 -0.00773622
0.083521552 -0.060115375 -0.00773622
0.1149949 -0.066789031 -0.00773622
0.079526737 -0.054504678 -0.00773622
-0.16391501 -0.046735473 -0.00773622
-0.0089952666 -0.040001012 -0.00773622
0.069412954 -0.049474336 -0.00773622
0.15413079 -0.046954699 -0.00773622
0.17373735 -0.049491402 -0.00773622
-0.16076243 -0.03586445 -0.00773622
-0.035288207 -0.037590444 -0.0077362196
-0.040494993 -0.010552956 -0.00773622
0.065525249 -0.012179375 -0.00773622
0.11511862 -0.0047084261 -0.00773622
-0.046165995 0.0053513851 -0.00773622
0.03294903 0.0022551343 -0.00773622
0.061690919 0.0047252253 -0.00773622
0.05616862 0.010838382 -0.00773622
-0.11729511 0.020065494 -0.00773622
0.033589482 0.022088602 -0.00773622
-0.028380215 0.030987434 -0.00773622
0.08336404 0.04568113 -0.00773622
0.034738533 0.051926885 -0.00773622
-0.05628559 0.061811596 -0.00773622
0.0014887042 0.069850117 -0.00773622
0.045677267 0.061167046 -0.00773622
0.16713604 0.063352257 -0.00773622
-0.13048007 0.070137583 -0.00773622
0.1162786 0.07702741 -0.00773622
-0.15558842 0.08133249 -0.00773622
0.053076811 0.08957094 -0.00773622
-0.17029576 0.10482365 -0.00773622
-0.13022369 0.10710628 -0.00773622
0.073336944 0.10292102 -0.00773622
0.17075756 0.10652686 -0.00773622
-0.067180753 0.11081494 -0.00773622
0.10233714 0.12778839 -0.00773622
-0.14024219 0.13203222 -0.00773622
-0.069866948 0.16841987 -0.00773622
0.081463307 0.16288617 -0.00773622
0.14381215 0.16779745 -0.00773622
0.16749823 0.16102934 -0.00773622
-0.17265143 0.17247875 -0.00773622
-0.028521232 0.18301475 -0.00773622
0.029673208 0.18934016 -0.00773622
0.12141242 0.19173776 -0.00773622
-0.12952197 0.22818308 -0.00773622
-0.14303012 0.23455535 -0.00773622
0.040561967 0.23735058 -0.00773622
0.10156454 0.24871913 -0.00773622
0.065128535 0.25187957 -0.00773622
-0.011307307 0.26274723 -0.00773622
0.031912453 -0.26222754 0.0077368696
0.14809607 -0.26300469 0.0077368701
0.063805029 -0.25857353 0.0077368701
0.15480669 -0.23535779 0.0077368701
-0.076582909 -0.22047223 0.0077368701
-0.053038981 -0.22049674 0.0077368701
-0.0061112866 -0.22381285 0.0077368701
-0.082368217 -0.20190009 0.0077368701
0.0082590133 -0.20941123 0.0077368701
0.15082341 -0.20359673 0.0077368701
-0.03993107 -0.19173712 0.0077368701
0.12720063 -0.19544409 0.0077368701
0.15209427 -0.19431025 0.0077368701
-0.15036337 -0.16131569 0.0077368701
-0.13850974 -0.16397947 0.0077368701
-0.12598126 -0.15547284 0.0077368701
-0.13511489 -0.14676473 0.0077368701
-0.11155754 -0.14589258 0.0077368701
0.03622032 -0.14489439 0.0077368701
-0.11178982 -0.13799134 0.0077368701
-0.036196802 -0.13665955 0.0077368701
0.1721347 -0.13599381 0.0077368701
0.16224137 -0.12200829 0.0077368701
0.012881022 -0.097036064 0.0077368701
-0.04602024 -0.080864593 0.0077368701
0.0023534074 -0.085948139 0.0077368701
-0.13549218 -0.074781075 0.0077368701
-0.020146085 -0.067510292 0.0077368701
-0.071607739 -0.053485371 0.0077368701
0.076874889 -0.043728903 0.0077368701
0.15971749 -0.049005188 0.0077368701
-0.10071707 -0.032100685 0.0077368701
0.062536418 -0.033149824 0.0077368701
0.13606548 -0.038207386 0.0077368701
-0.047897793 -0.022285365 0.0077368701
-0.11812646 -0.011457607 0.0077368701
0.062239546 -0.011003628 0.0077368701
0.12434649 -0.008329574 0.0077368701
0.14472675 -0.0038061813 0.0077368701
0.1753138 -0.0030025493 0.0077368701
0.060031366 0.004850246 0.0077368701
-0.15362586 0.011976607 0.0077368701
-0.083409578 0.019345 0.0077368701
0.0070922524 0.011932559 0.0077368701
-0.1262067 0.027295144 0.0077368701
-0.075808674 0.02555947 0.0077368701
-0.036843278 0.027713127 0.0077368701
-0.11506251 0.03928541 0.0077368701
-0.028850265 0.044645369 0.0077368701
-0.0081587285 0.049100749 0.0077368701
-0.062323309 0.053658657 0.0077368701
-0.022241399 0.052191086 0.0077368701
0.0052054366 0.053465594 0.0077368701
0.071246237 0.058509756 0.0077368701
-0.029300597 0.061637491 0.0077368701
-0.18803599 0.083423235 0.0079737743
-0.12516449 0.082573369 0.0077368701
0.034364741 0.080806486 0.0077368696
-0.17246838 0.10192584 0.0077368706
-0.083085433 0.12474297 0.0077368701
0.13411462 0.13715069 0.0077368701
0.057466619 0.15530351 0.0077368701
-0.14311396 0.16625188 0.0077368701
0.055457953 0.16059338 0.0077368701
0.063996941 0.16182286 0.0077368701
0.16733599 0.16851521 0.0077368701
-0.06977997 0.17529462 0.0077368701
-0.017612509 0.17884609 0.0077368701
-0.10335279 0.18924147 0.0077368701
0.055773057 0.18940964 0.0077368701
0.090484977 0.18074906 0.0077368701
-0.077419639 0.21336551 0.0077368701
-0.073304959 0.22266668 0.0077368701
-0.13283888 0.23739682 0.0077368696
-0.04424005 0.25232783 0.0077368701
0.16026805 0.25971127 0.0077368701
0.017096393 0.26337299 0.0087221218
0.094523355 0.26111913 0.0077368701
-0.18803599 -0.24606942 0.019238936
0.180149 -0.22035719 0.016389772
-0.18803599 -0.088224582 0.018731762
0.180149 -0.043815263 0.013390092
-0.18803599 -0.0033714622 0.015359828
0.180149 -0.0082435533 0.017722053
-0.18803599 0.043403618 0.019921836
0.180149 0.066352382 0.014960684
0.180149 0.080773957 0.010120185
0.180149 0.11179947 0.017389806
-0.13967447 0.26337299 0.015290266
-0.098610796 -0.26451299 0.0270578
-0.046220966 -0.26451299 0.024950555
0.18014899 -0.20398876 0.025710631
0.180149 0.041517176 0.021131389
-0.18803599 0.22005668 0.027476083
0.180149 -0.2507509 0.033586193
-0.18803599 -0.12616247 0.033147119
-0.18803599 0.10677923 0.030811388
-0.18803599 0.11238635 0.031298473
0.18014902 0.11353123 0.038805075
0.16898862 0.24593651 0.03329125
-0.18803599 0.2537654 0.030428044
-0.12223969 0.26337299 0.03992112
-0.11784551 0.26337299 0.036168937
-0.00033218414 -0.26451299 0.044942066
0.13117461 -0.26451299 0.042068712
0.14015137 -0.26451299 0.045749597
-0.18803599 -0.25540486 0.049715102
-0.18803599 -0.22991081 0.044264536
-0.18803599 -0.13844064 0.04265153
0.180149 -0.099133506 0.049284194
0.180149 0.0021213202 0.048986576
0.180149 0.034172941 0.043487374
-0.18803599 0.08159703 0.042448014
-0.18803599 0.12102772 0.042445529
-0.18803599 0.15457976 0.044345215
0.180149 0.18976471 0.040005062
0.180149 0.19540937 0.041099265
0.14231572 0.26337299 0.042670473
-0.18803599 -0.25448394 0.056992359
0.180149 -0.10251319 0.059857469
0.180149 0.135322 0.058989674
0.16543174 0.24581814 0.054738797
0.040527184 0.26337299 0.058823992
0.14032266 0.26337299 0.057821631
0.14873803 -0.26451299 0.064053975
0.180149 -0.10043795 0.060748518
-0.18803599 -0.047516644 0.060231425
-0.18803599 -0.031806119 0.062015399
-0.18803599 0.0012862831 0.060914483
0.180149 0.097178221 0.063790604
-0.18803599 0.20805307 0.064530671
-0.16433173 -0.26451299 0.074953139
-0.13157067 -0.26451299 0.074747831
-0.18803599 0.055332068 0.075411618
0.17620499 0.075028576 0.075162396
-0.18803599 0.13282092 0.07420592
-0.18803599 0.17646788 0.070576213
-0.18803599 0.23515138 0.07023076
-0.18803599 0.24613218 0.073409118
-0.13557708 0.26337299 0.071092561
0.10086898 0.26337299 0.074644864
-0.091037124 -0.26451299 0.08939784
-0.038004983 -0.26451299 0.081631571
0.180149 -0.24177554 0.082789987
0.180149 -0.078835353 0.089997225
0.18105383 -0.0066307192 0.083625942
-0.18803599 0.052762106 0.082070827
-0.18803599 0.18764625 0.089019887
-0.10761358 0.26337299 0.080438405
0.050335042 0.26337299 0.087182447
-0.18742722 -0.26451299 0.091858059
0.180149 -0.17075033 0.092413649
-0.18803599 -0.010879755 0.091339678
-0.18803599 0.0078061596 0.093685746
-0.18803599 0.086920641 0.095093034
0.17925389 0.14212109 0.095432028
0.180149 0.20484492 0.097521432
0.091322646 0.26337299 0.098028965
0.10079358 0.26337299 0.095100924
-0.1461473 -0.26451299 0.10501523
-0.1270144 -0.26451299 0.10638648
0.041826475 -0.26451299 0.10766323
0.064288549 -0.26451299 0.10718037
0.180149 -0.19540489 0.10352049
0.18183368 -0.039742842 0.10410327
-0.18803599 -0.011392102 0.10092863
0.18803599 0.088121101 0.10228988
0.17892024 0.22570185 0.10976228
-0.16562703 0.26337299 0.10031003
-0.11090322 0.26337299 0.10734475
-0.09252964 0.26337299 0.10581139
0.017136764 0.26337299 0.10087799
0.10498659 0.26337299 0.10842033
-0.023589164 -0.26451299 0.11615355
0.18014899 -0.2336579 0.11397424
-0.18803599 -0.22261813 0.11185974
0.17620498 0.11762057 0.11285035
0.18072131 0.18805583 0.11985899
0.16540495 0.25323969 0.11284561
0.082635485 0.26337299 0.1128808
0.099699646 0.26337299 0.11406302
-0.093843259 -0.26451299 0.12694339
0.17620499 0.15477248 0.12493742
-0.18803599 0.25095114 0.12959248
-0.12706785 0.26337299 0.12997544
0.036059648 0.26337299 0.12856996
0.090168402 -0.26451299 0.13600878
-0.18803599 -0.20728165 0.1386542
0.180149 -0.11918264 0.13163455
-0.18803599 -0.10306983 0.13529775
-0.18803599 -0.0122145 0.13266097
0.17620499 0.0091406796 0.13560389
0.17620499 0.087563999 0.13976665
0.17620499 0.09696646 0.13301449
0.10054331 -0.26451299 0.14509088
0.180149 -0.1443767 0.14602812
0.180149 -0.092639826 0.14982419
0.17620499 -0.046075344 0.14210683
0.17620499 0.095042095 0.14784893
0.1789737 0.22559288 0.14540963
-0.16809136 0.26337299 0.14740488
-0.15608068 -0.26451299 0.15535945
0.036856927 -0.26451299 0.15190975
0.10447416 -0.26451299 0.15445352
-0.18803599 -0.066487059 0.15719938
-0.18803599 0.13190395 0.15606785
0.18381536 0.19195652 0.15503329
-0.069751374 0.26337299 0.15858859
-0.18403596 -0.26451302 0.16180712
-0.073596627 -0.26451299 0.16564916
-0.067242086 -0.26451299 0.16684039
-0.18803599 -0.049040213 0.16791113
0.17620499 -0.039724179 0.16110152
-0.18803599 0.2041162 0.16391918
0.16500695 0.24043216 0.16657698
-0.090703137 0.26337299 0.16894874
0.13587198 0.26337299 0.16452315
0.14353186 0.26337299 0.16902262
0.0072821081 -0.26451299 0.17357418
0.039375581 -0.26451299 0.17015477
0.18014899 -0.24816522 0.17121036
0.180149 -0.23793468 0.1726613
-0.18803599 0.0015340783 0.17718986
-0.17472455 -0.26451299 0.18222286
0.18014899 -0.16987589 0.18195638
-0.18803599 0.10693168 0.18732451
-0.18803599 0.22820866 0.18836145
0.065197363 0.26337302 0.18563788
0.15475701 0.26337299 0.18992129
-0.051054016 -0.26451299 0.1986323
-0.034022912 -0.26451299 0.19295925
-0.18803599 0.1819492 0.19374128
-0.1087729 -0.26451299 0.20239142
0.0078085838 -0.26451299 0.20238397
0.12041482 -0.26451296 0.203584
0.14320315 -0.26451299 0.20897557
0.17329182 -0.26451299 0.20172414
0.180149 -0.26268888 0.20116137
-0.18803599 -0.25142258 0.20198537
-0.18803599 -0.24287716 0.2095267
0.180149 -0.16212596 0.20926298
0.18014902 -0.13099945 0.20714375
-0.18803599 -0.12724057 0.20123151
-0.18803599 -0.11217011 0.2041564
0.17620499 -0.057115532 0.20245948
0.17620499 0.022142066 0.20722495
-0.18803599 0.060847618 0.20076773
0.18014899 0.2061033 0.20851287
0.17850001 0.22655812 0.20495465
-0.14524567 0.26337299 0.20280047
-0.097218007 0.26337299 0.20108041
0.004632459 0.26337299 0.20718437
0.067424104 -0.26451299 0.21863863
0.18176445 -0.079932451 0.21754825
-0.18803599 0.012587041 0.2141137
-0.18803599 0.089308195 0.21127333
0.17620499 0.10881438 0.21776767
0.059027202 0.26337299 0.21536052
0.10486577 0.26337299 0.21746865
0.14588019 0.26220158 0.21021138
-0.18803599 -0.18846641 0.22171672
0.180149 -0.16703777 0.22573578
-0.18803599 -0.13467298 0.22448382
0.17620499 -0.02377139 0.22860715
-0.18803599 0.2521905 0.22554542
0.13571902 0.26337299 0.22163093
-0.10665715 -0.26451299 0.23859914
-0.18803599 -0.24424438 0.23740882
0.180149 -0.1036929 0.23978989
0.18276471 -0.072478756 0.23361641
-0.18803599 0.012971297 0.23740746
0.17620499 0.012640315 0.23069099
-0.18803599 0.046957284 0.23618017
-0.18803599 0.051580548 0.23041897
0.1764728 0.17516115 0.23814635
0.17961365 0.22428888 0.2350454
0.061945975 0.26337299 0.23904812
0.03562139 -0.26451299 0.2488306
0.18014899 -0.1356961 0.24498981
0.17620499 0.027240423 0.24712482
-0.18803599 0.10805787 0.24534805
0.17620499 0.12912914 0.24293642
0.051953677 0.26337299 0.2406294
0.079815894 -0.26451296 0.25255361
-0.18803599 -0.18734518 0.25938433
0.17871957 0.22593831 0.25157315
0.16016169 0.24594688 0.25021571
-0.1786169 0.26337299 0.25932476
-0.13746545 0.26337299 0.25366911
-0.085385457 -0.26451299 0.26549855
-0.027412921 -0.26451299 0.2694459
0.180149 -0.079795972 0.26254866
-0.18803599 0.065781236 0.26614353
-0.18803599 0.15500759 0.26022759
0.16151655 0.24440484 0.26517779
-0.1607804 -0.26451299 0.27990845
-0.053355414 -0.26451299 0.27528414
-0.036082219 -0.26451299 0.27713454
0.14319491 -0.26451299 0.27248564
0.15668392 -0.26451299 0.27416134
0.180149 -0.21626258 0.27437177
-0.18803599 -0.14032111 0.27450752
0.180149 -0.10000387 0.27524301
-0.18803599 -0.04245133 0.27375486
-0.18803599 -0.025152579 0.27151239
-0.18803599 0.070353225 0.27840382
0.17620499 0.098063037 0.27402586
-0.18803599 0.17190152 0.27552289
0.180149 0.19802332 0.27068588
0.17882934 0.22588706 0.27652007
-0.050705962 0.26337299 0.27934736
0.12760502 0.26337299 0.27623275
-0.1096172 -0.26451299 0.28363496
0.084441632 -0.26451299 0.28371942
0.17937452 0.22437829 0.28482383
-0.0025294162 0.26337299 0.28936559
-0.1549982 -0.26451299 0.29560813
0.17038694 -0.26451299 0.29692361
0.18014899 -0.230405 0.29013792
-0.18803599 -0.2224808 0.29538333
0.17812425 -0.014554041 0.29334399
-0.18803599 0.04095136 0.29709238
0.17856199 0.22643188 0.29387775
0.029611446 0.26337299 0.29499909
-0.18803599 -0.19561832 0.30488083
0.18014899 -0.08758647 0.30814174
-0.18803599 0.089743569 0.30865687
-0.18803599 0.19256598 0.30410081
0.17911427 0.22437571 0.30121768
-0.14970402 0.26337299 0.30758956
-0.14914507 -0.26451299 0.3182199
0.023050491 -0.26451299 0.31814209
0.180149 -0.22105038 0.31634322
-0.18803599 -0.21470715 0.31300741
-0.18803599 -0.16352709 0.31462759
0.18190686 0.022565585 0.31924826
-0.18803599 0.055275325 0.31547669
-0.18803599 0.096431836 0.3149724
-0.18803599 0.20412447 0.3157838
-0.18803599 0.23330113 0.3118476
-0.142754 0.26337299 0.31780687
-0.1188396 0.26337299 0.3128787
-0.06983564 0.26337299 0.31009567
-0.024248296 -0.26451299 0.32103899
0.018698655 -0.26451299 0.32102287
0.022910409 -0.26451299 0.32641634
-0.18803599 -0.16499868 0.3269417
0.180149 0.024249474 0.32816073
-0.18803599 0.074303977 0.32225594
-0.18803599 0.24116673 0.32821274
-0.13178362 0.26337299 0.32897225
-0.12467407 0.26337299 0.32782298
0.12417345 -0.26451299 0.33430099
0.13684061 -0.26451299 0.33297217
-0.18803599 -0.24593057 0.33940709
0.180149 -0.19840705 0.33384416
0.18014902 -0.14286058 0.33528352
0.180149 0.12260421 0.33947402
-0.18803599 0.24644749 0.33621791
-0.14492983 0.26337299 0.33285567
0.083562016 0.26337299 0.3372958
0.0314968 -0.26451299 0.34570169
0.18014902 -0.19407707 0.34614745
-0.18803598 -0.16460949 0.34401923
0.18014899 -0.16623808 0.34598809
0.180149 -0.095195398 0.34872282
-0.18803599 0.055258654 0.34213412
-0.18803599 0.10799512 0.34211537
-0.18803599 0.12587863 0.34888911
-0.10391083 0.26337299 0.34304842
-0.058392122 -0.26451299 0.35488272
0.180149 -0.25298086 0.35363147
-0.18803599 -0.22958933 0.35039628
-0.18803598 -0.16422777 0.3595317
-0.18803599 -0.11022898 0.35138899
-0.18803599 -0.069404542 0.35777366
0.180149 0.17185026 0.35383469
-0.029527534 -0.26451299 0.3651371
0.035504699 -0.26451299 0.36323568
-0.18803599 -0.25246936 0.36382085
0.180149 -0.18288766 0.3681899
0.180149 -0.13506015 0.36395884
-0.18803599 -0.072542407 0.36841941
-0.18803599 -0.042152368 0.36831352
-0.18803599 -0.03517662 0.36650899
-0.10202552 0.26337299 0.36622238
0.029461633 0.26337299 0.36400303
0.069501467 0.26337299 0.36343762
-0.024924733 -0.26451296 0.37123382
0.0030071214 -0.26451299 0.37505743
0.020204663 -0.26451299 0.3762908
0.14142245 -0.26451299 0.37225291
0.180149 -0.24440816 0.37539375
-0.18803599 -0.23136544 0.3743405
-0.18803599 -0.20595601 0.37386152
-0.18803599 0.0090789497 0.37396926
0.15192971 0.25531626 0.37389725
-0.15377773 0.26337299 0.37306389
-0.13986734 0.26337299 0.37143326
-0.033231035 0.26337299 0.37740484
0.15994154 0.26337302 0.37708247
-0.11820211 -0.26451299 0.38011745
-0.056720629 -0.23672423 0.38036203
-0.15180854 -0.22835639 0.380362
0.16799136 -0.2240639 0.38036197
-0.071109116 -0.21438527 0.380362
0.11132699 -0.21205711 0.380362
0.12895356 -0.21420556 0.380362
-0.18721309 -0.20010389 0.380362
0.15455526 -0.20774736 0.380362
-0.095145635 -0.19440402 0.380362
-0.0026075467 -0.19178416 0.380362
0.15029393 -0.19128647 0.380362
-0.11936783 -0.18171659 0.38036197
0.11259928 -0.18842576 0.380362
0.15283552 -0.16401505 0.38036203
-0.017780699 -0.14729042 0.380362
-0.011359572 -0.13067909 0.380362
-0.00175374 -0.1378704 0.380362
0.1537818 -0.12078764 0.380362
-0.097104587 -0.10513128 0.380362
0.071803488 -0.10746034 0.380362
0.13951276 -0.10193406 0.380362
-0.10948212 -0.094646744 0.380362
0.11442475 -0.097650357 0.380362
-0.15100144 -0.085528493 0.38036197
-0.17022051 -0.069455251 0.380362
-0.061712835 -0.063867547 0.380362
0.16892962 -0.057342291 0.380362
-0.081357323 -0.046156712 0.380362
-0.16578257 -0.038368762 0.380362
-0.079082802 -0.034855269 0.38036203
0.092792481 -0.030552313 0.380362
0.1387677 -0.030848987 0.380362
0.02716101 -0.024773963 0.38036197
-0.16733202 -0.019223817 0.38036203
-0.17960709 -0.0073006824 0.380362
-0.13022493 0.0078021437 0.38036203
-0.12425423 0.0050725639 0.380362
0.14882657 0.0080505311 0.380362
-0.025502378 0.014504561 0.380362
0.11469822 0.012742247 0.38036197
0.14304033 0.015482456 0.380362
-0.12568516 0.024121143 0.380362
0.054229245 0.025444858 0.38036197
0.13452505 0.020599499 0.380362
-0.15091716 0.03862974 0.380362
0.023600806 0.033840608 0.380362
-0.082275003 0.047314405 0.380362
0.070976526 0.04537005 0.380362
0.10848013 0.047629621 0.380362
0.038601879 0.05821161 0.38036203
-0.14340162 0.06987226 0.380362
0.026150018 0.064862534 0.380362
0.14523593 0.060683548 0.380362
-0.00714444 0.07093709 0.380362
0.15894604 0.085736871 0.380362
-0.130513 0.10309994 0.38036203
0.05908706 0.1059749 0.380362
-0.16453971 0.11667164 0.380362
0.077800758 0.11347146 0.38036203
-0.18431009 0.12425951 0.38036203
-0.13578208 0.12510556 0.380362
-0.063155718 0.12578771 0.380362
0.05187938 0.12596199 0.380362
0.09836217 0.12212805 0.380362
0.12115521 0.12105892 0.380362
-0.023796808 0.13426939 0.380362
0.037846964 0.13030452 0.380362
0.13589354 0.13622941 0.380362
-0.095119983 0.14875279 0.380362
-0.072452858 0.16385271 0.380362
0.12486775 0.17844895 0.380362
-0.038640253 0.19177212 0.380362
0.15970689 0.19968459 0.380362
-0.051208086 0.20638587 0.38036197
0.15988591 0.20846391 0.38036197
-0.1223546 0.22960266 0.38036197
0.031733438 0.22558841 0.38036203
-0.17593816 0.23728614 0.380362
-0.06356775 0.23519786 0.38036203
-0.02536986 0.23572972 0.380362
0.1459251 0.23915388 0.380362
-0.17763956 0.24510911 0.380362
-0.12948568 0.24553615 0.380362
0.044756122 0.24638575 0.380362
-0.087326385 0.25223672 0.380362
0.0062343255 0.25344527 0.380362
