# .PCD v0.7 - Point Cloud Data file format
VERSION 0.7
FIELDS x y z
SIZE 4 4 4
TYPE F F F
COUNT 1 1 1
WIDTH 971
HEIGHT 1
VIEWPOINT 0 0 0 1 0 0 0
POINTS 971
DATA ascii
-0.21787 -0.38874149 -0.21559072
-0.12582123 -0.38029319 -0.21787
-0.065468587 -0.38677758 -0.21787
0.024993576 -0.382112 -0.21024927
0.12051443 -0.3875072 -0.21787
0.17414202 -0.38044071 -0.21787001
0.21490775 -0.38393873 -0.21787
-0.063295208 -0.36483374 -0.21787
-0.12818184 -0.35187203 -0.21787
0.055176467 -0.35434449 -0.21787
0.1320104 -0.35910583 -0.21787
-0.045478828 -0.33696759 -0.21787
0.15211537 -0.32888949 -0.21787
-0.1374349 -0.31403655 -0.21787
0.11923572 -0.31225699 -0.21787
0.21787 -0.31661811 -0.21590516
-0.035071783 -0.30948615 -0.21787
0.13181663 -0.3028073 -0.21787
-0.2160711 -0.29806718 -0.21787
-0.12519248 -0.29729903 -0.21787
0.050395597 -0.29248059 -0.21787
0.1921472 -0.29447302 -0.21787
0.21062228 -0.28165528 -0.21787
-0.067328706 -0.27902851 -0.21787
-0.034030676 -0.27196959 -0.21787
0.010484144 -0.27641639 -0.21787
-0.038914744 -0.26642123 -0.21787
0.067819118 -0.26159805 -0.21787
0.14777067 -0.26518428 -0.21787
0.21787001 -0.26535565 -0.21621601
-0.0012993068 -0.25218979 -0.21787
0.054157782 -0.25186506 -0.21787
-0.18300477 -0.24470884 -0.21787
0.046964981 -0.23806399 -0.21787
-0.070667341 -0.22608559 -0.21787
-0.036130052 -0.22208914 -0.21787
-0.10208248 -0.21733794 -0.21787
-0.039762139 -0.21890166 -0.21787
0.16699648 -0.21623695 -0.21787
0.21787 -0.2074877 -0.21252301
-0.0015385412 -0.19606788 -0.21787
-0.038431734 -0.18143058 -0.21787
-0.01264612 -0.18530202 -0.21787
0.05892542 -0.18586902 -0.21787
0.074320108 -0.18912892 -0.21787
0.12053703 -0.18581405 -0.21787
0.21787 -0.17534041 -0.2156944
-0.16128016 -0.16568463 -0.21787
-0.14973827 -0.16909507 -0.21787
-0.12078562 -0.16561252 -0.21787
0.19677317 -0.16948147 -0.21787
-0.012198284 -0.15950358 -0.21787
0.11261372 -0.15413564 -0.21787
-0.21570165 -0.14260708 -0.21770371
-0.19524226 -0.14570509 -0.21787
-0.15070644 -0.14608431 -0.21787
0.084498085 -0.13473198 -0.21787
0.0021990556 -0.12293117 -0.21787
0.18593648 -0.1244837 -0.21787
0.19482777 -0.12237131 -0.21787
-0.10365301 -0.1182635 -0.21787
-0.017181396 -0.11036977 -0.21787
0.027463419 -0.11212336 -0.21787
0.1281735 -0.11578641 -0.21787
0.18786803 -0.11817604 -0.21787
-0.21787 -0.10301361 -0.21679822
0.013177633 -0.098981418 -0.21787
-0.17596105 -0.08708372 -0.21787
0.16947345 -0.086923167 -0.21787
-0.12140954 -0.077972472 -0.21787
0.13435535 -0.073159561 -0.21787
0.061379701 -0.066584833 -0.21787
0.0989834 -0.065680698 -0.21787
0.15542954 -0.062658787 -0.21787
-0.17817506 -0.052739128 -0.21787
0.052986447 -0.054139517 -0.21787
0.10610363 -0.044999518 -0.21787
-0.046675265 -0.032920726 -0.21787
-0.18494838 -0.023549221 -0.21787
-0.13639897 -0.029851571 -0.21787
-0.08434803 -0.02204486 -0.21787
-0.1482431 -0.013819978 -0.21787
-0.061269019 -0.014079258 -0.21787
-0.030859381 -0.014803961 -0.21787
0.01178819 -0.010962339 -0.21787
0.17249608 -0.014083298 -0.21787
0.20644996 -0.013911456 -0.21787
0.19683737 -0.0041127112 -0.21787
0.2042945 -0.0024551451 -0.21787
0.21730447 -0.0074888505 -0.21787
0.057945393 0.0067815408 -0.21787
0.073669076 0.00062738359 -0.21787
-0.15900022 0.018812519 -0.21787
-0.12051174 0.01942119 -0.21787
-0.080132388 0.018789558 -0.21787
-0.053155862 0.014603823 -0.21787
0.11968835 0.013645694 -0.21787
-0.058765195 0.028012836 -0.21787
-0.048085123 0.023884147 -0.21787
-0.020866007 0.021524958 -0.21787
-0.013416048 0.02827237 -0.21787
0.006801594 0.021810288 -0.21787
-0.079010203 0.044537276 -0.21787
0.092511863 0.043985851 -0.21787
0.052928377 0.05279123 -0.21787
-0.14922291 0.060458601 -0.21787
-0.035475712 0.068958223 -0.21787
0.03715121 0.067384854 -0.21787
0.17422044 0.063646369 -0.21787
-0.19131365 0.076689318 -0.21787
-0.14292902 0.076294251 -0.21787
-0.11354496 0.07496278 -0.21787
0.20088686 0.075860374 -0.21787
-0.14608699 0.084323302 -0.21787
0.04291134 0.083960198 -0.21787
0.068870343 0.082121417 -0.21787
0.14150122 0.081832305 -0.21787
-0.070356429 0.10068209 -0.21787
0.13072598 0.10701212 -0.21787
-0.0096970797 0.12689529 -0.21787
0.084651992 0.12336988 -0.21787
0.16603774 0.12185705 -0.21787
-0.04904341 0.14925642 -0.21787
0.12307062 0.14985386 -0.21787
-0.12089456 0.15030883 -0.21787
-0.024412706 0.15761068 -0.21787
-0.15230012 0.16658686 -0.21787
-0.21786998 0.17219064 -0.21743847
-0.18489389 0.17086312 -0.21787
-0.21787 0.18622349 -0.21444568
-0.05404254 0.18004775 -0.21787
-0.037719585 0.18730824 -0.21787
0.21787 0.18071517 -0.21221232
-0.12279534 0.19088581 -0.21787
0.10728482 0.19961074 -0.21787
0.046883255 0.20802337 -0.21787
0.047800869 0.2124567 -0.21787
0.20037121 0.21932691 -0.21787
-0.097913533 0.22122122 -0.21787
-0.04122746 0.22882414 -0.21787
0.21411623 0.22616209 -0.21787
-0.15316755 0.23629957 -0.21787
0.026209913 0.23139134 -0.21787
0.15718931 0.23137324 -0.21787
-0.097440511 0.24898893 -0.21787
0.088424817 0.24323091 -0.21787
0.098062783 0.24134338 -0.21787
0.21787 0.24919793 -0.21492198
-0.074994154 0.25718001 -0.21787
-0.049413249 0.26270103 -0.21787
0.20133245 0.26879644 -0.2162863
0.21772397 0.26370701 -0.21716464
-0.15199026 0.275379 -0.21210866
0.041958332 0.27856362 -0.21787
0.21072271 0.27087376 -0.21563992
-0.21073386 0.28239766 -0.21746063
-0.12812914 0.28763169 -0.21715537
-0.092046566 0.29162523 -0.21787
-0.034348931 0.29539564 -0.21787
0.045788839 0.2904366 -0.21787
-0.06607537 0.3011207 -0.21787
0.13182488 0.30065981 -0.21787
0.17698666 0.30774492 -0.21787
0.18032734 0.30056274 -0.21787
0.024468279 0.31358463 -0.21730284
0.17000115 0.31696033 -0.21675582
-0.18448156 -0.39378303 -0.20672603
-0.16901426 -0.393783 -0.20944706
-0.21455137 -0.382112 -0.20765734
-0.10128029 -0.382112 -0.20132096
0.083670281 -0.382112 -0.20906338
0.21787 0.084951505 -0.2078695
0.21787 0.14373057 -0.20934886
0.049850043 0.275379 -0.20019379
0.21787 0.29671919 -0.20203426
0.10955658 0.32344097 -0.20758821
-0.14822954 0.33917266 -0.20894432
-0.08300402 0.33774668 -0.20837708
-0.16020004 -0.382112 -0.19232957
0.21787 -0.26228237 -0.19526745
0.21787 -0.21784939 -0.1993507
0.21787 0.10952928 -0.19327077
0.21787 0.19519137 -0.19635503
-0.059504107 0.26370701 -0.19129483
-0.17011592 0.37592036 -0.19157498
-0.17649239 -0.39378303 -0.18228309
-0.15506428 -0.393783 -0.18368791
-0.011014253 -0.393783 -0.18266638
-0.15876812 -0.382112 -0.18678612
-0.21787 -0.25331122 -0.18873283
0.21787001 -0.23851568 -0.18454483
0.21787 -0.21209642 -0.18577787
0.21787 -0.050528839 -0.18301581
0.21787 0.0059787333 -0.18032838
0.21787 0.12699229 -0.18152645
0.074206732 0.275379 -0.1801745
0.094569162 0.275379 -0.18075415
0.15456754 0.32010046 -0.18705975
-0.16524138 0.38245043 -0.18488656
-0.19493195 -0.39378303 -0.17846791
0.015679749 -0.393783 -0.17252555
0.024748702 -0.382112 -0.17843288
-0.21787 -0.16053198 -0.17759159
0.21787 0.013220921 -0.17893907
0.21787 0.022677958 -0.17132196
0.21787 0.10305309 -0.17619261
0.21787 0.19486025 -0.1791645
0.11133622 0.26370701 -0.17057225
0.21634167 0.26861858 -0.17004263
-0.1836006 0.37482482 -0.1715017
-0.11360556 -0.38211203 -0.16586158
-0.007115759 -0.382112 -0.16905645
0.21787 -0.08582145 -0.16081852
-0.21787 0.011383519 -0.16287601
0.21787 0.16649924 -0.16380653
0.21787 0.19853267 -0.16905464
0.16902509 0.26370701 -0.1633949
-0.088956572 0.275379 -0.16879152
0.068638206 0.275379 -0.16291144
0.21787 0.29080668 -0.16939276
-0.20821063 0.31070465 -0.16567056
0.061604917 0.32975075 -0.16402419
-0.10996292 0.34774947 -0.16449043
-0.20591646 -0.382112 -0.1553392
-0.16553041 -0.38211197 -0.15655601
-0.10743928 -0.382112 -0.15370983
0.21787 -0.24857396 -0.15273166
0.21787 -0.080686592 -0.15931919
-0.21787 0.25229329 -0.15343767
-0.18210767 0.26370701 -0.15368782
0.025968932 0.26370701 -0.15664274
0.16399021 0.26370701 -0.1525778
-0.21475182 0.28844574 -0.15022877
0.21787 0.28393519 -0.15944482
0.16766432 0.3187409 -0.15061915
0.048520885 -0.393783 -0.14442983
0.10304593 -0.393783 -0.14001222
0.09923286 -0.382112 -0.14355211
-0.21787 -0.0068727285 -0.14121911
0.21787 0.092131913 -0.14598393
-0.21787 0.12566963 -0.14032468
0.21787 0.16790397 -0.14003949
-0.20316681 0.26370701 -0.14814582
-0.14705001 0.26370701 -0.14137481
-0.00069751963 0.26370701 -0.14500281
0.002916906 0.26370701 -0.14460337
-0.18539521 0.275379 -0.14236118
-0.14914688 0.275379 -0.1449084
-0.0048625502 0.275379 -0.14908753
0.018596396 0.275379 -0.14617072
0.16654249 0.32053232 -0.14831422
-0.19635372 0.34381509 -0.14961703
-0.10739768 -0.393783 -0.13623798
0.087946773 -0.393783 -0.13742395
0.094134778 -0.393783 -0.13173881
-0.19529548 -0.38211203 -0.13937664
-0.024953049 -0.382112 -0.13553733
0.13491464 -0.382112 -0.13576685
0.159999 -0.382112 -0.13780552
0.17457065 -0.38211197 -0.13908444
0.21787 -0.24658714 -0.13126051
0.21787 -0.23719217 -0.13698649
0.21787 -0.076273508 -0.13471806
0.21787 0.13340296 -0.13138963
-0.088058993 0.26370701 -0.13245448
0.15326788 0.26370701 -0.13928917
0.16743168 0.26370701 -0.13886711
-0.129549 0.275379 -0.13902843
-0.049892623 0.275379 -0.13662244
0.21740541 0.29971653 -0.13189483
0.16488671 0.31902924 -0.138393
0.18322478 0.31816646 -0.13544022
0.071437143 0.33010074 -0.13052726
-0.13794683 0.36603013 -0.13409764
-0.019979 -0.393783 -0.12787561
0.021473788 -0.393783 -0.12651463
0.037920911 -0.39378297 -0.12775207
-0.1376444 -0.382112 -0.12152517
0.1272938 -0.38211197 -0.12866339
0.13493097 -0.382112 -0.1242945
0.16144519 -0.382112 -0.12282323
0.17101316 -0.382112 -0.12709859
0.21787 -0.36498874 -0.12177455
-0.21787 -0.3574259 -0.12154615
-0.21787 0.17433169 -0.12003304
-0.017901938 0.26370701 -0.12130705
0.09975259 0.26370701 -0.12709177
0.19690172 0.26370701 -0.12787433
-0.21581858 0.27030134 -0.12002347
-0.073999405 0.275379 -0.12004206
0.07650727 0.275379 -0.12542175
0.085400425 0.275379 -0.12401403
0.12962952 0.3250097 -0.12562759
0.03520688 0.33359277 -0.12480962
-0.19436449 0.35552731 -0.12731151
0.027735382 -0.393783 -0.1155089
0.052286096 -0.39378303 -0.11184174
-0.1192395 -0.38211203 -0.11388274
-0.066828467 -0.382112 -0.11371746
0.17302687 -0.382112 -0.11106857
0.21787 -0.34393454 -0.11537589
-0.21787 -0.18284795 -0.11163657
0.21787 -0.16473375 -0.11412791
-0.21787 -0.065181792 -0.11903587
0.21787 -0.058893546 -0.11259694
-0.21787 -0.014626965 -0.11301018
-0.21787 0.080987461 -0.11002786
-0.21787 0.17733389 -0.11468664
-0.21787 0.19825861 -0.11337525
-0.050525066 0.26370701 -0.11744985
0.05095607 0.26370701 -0.11211103
-0.15595409 0.275379 -0.11652675
-0.11312801 0.275379 -0.11524194
0.15346597 0.275379 -0.11016634
0.10606383 0.32742098 -0.11810389
-0.025428889 0.3393074 -0.11876909
-0.12636033 -0.38818824 -0.108935
-0.11903892 -0.382112 -0.10291287
0.06598901 -0.382112 -0.10656844
0.12532027 -0.382112 -0.10254823
0.21787 -0.10619983 -0.10445698
0.21787 0.16371968 -0.10240112
-0.21787 0.20431967 -0.10769355
0.21786998 0.24470232 -0.10689415
-0.072944246 0.26370701 -0.10656828
-0.066242799 0.26370701 -0.10012636
0.10344225 0.26370701 -0.10453486
-0.0028377771 0.275379 -0.10379087
0.0057285018 0.33555117 -0.10689646
-0.051193111 0.34146011 -0.10987996
-0.042218175 0.34134591 -0.1043947
0.067694813 -0.38211203 -0.091393426
0.21787 -0.32701522 -0.097518273
0.21787 -0.31729227 -0.096737631
0.21787 -0.13804515 -0.099420011
0.21787 -0.096541584 -0.097488046
0.21787 -0.037890993 -0.09526591
-0.037078589 0.26370701 -0.092063144
0.064793356 0.26370701 -0.096036218
-0.097342215 0.275379 -0.092358887
-0.061988413 0.275379 -0.094141923
0.11658122 0.275379 -0.092581369
0.16997512 0.275379 -0.099580929
-0.040074233 0.3411504 -0.092953168
-0.12867066 0.36023477 -0.097917542
0.059180278 -0.382112 -0.081758544
0.21787 -0.17713676 -0.083397947
-0.21787 -0.071848951 -0.081517451
-0.21787 -0.056680478 -0.083955787
0.21787 0.079743624 -0.080686122
0.21787 0.11594681 -0.08113642
-0.078108266 0.275379 -0.082947001
0.16938922 0.32012862 -0.081123896
0.054535113 0.33252254 -0.088268146
0.21787 -0.30614641 -0.0715345
-0.21787 -0.23634119 -0.070922092
0.21787 -0.22428052 -0.073880039
-0.21787 -0.097862855 -0.075643957
-0.21787 -0.051590756 -0.074873023
-0.21787 0.016533613 -0.074853234
-0.21787 0.032691814 -0.077002943
-0.21787 0.15560257 -0.075178564
-0.21787 0.25607401 -0.077083059
0.11582083 0.26370701 -0.079634182
0.21624874 0.26370701 -0.070857137
0.099801622 0.275379 -0.079957128
0.1561165 0.275379 -0.077584676
0.21787 0.28906575 -0.078230515
0.023757461 0.33532929 -0.074682027
-0.18630651 0.38839051 -0.070855223
0.10973364 -0.38211197 -0.066394657
0.21031025 -0.382112 -0.069022954
-0.21787 -0.26213557 -0.066655144
-0.21787 -0.25889415 -0.063250743
0.21787 0.15763442 -0.066591084
0.21787 0.19609413 -0.068822481
0.0054347962 0.26370701 -0.068672046
0.17390925 0.26370701 -0.062342357
-0.053498778 0.275379 -0.06905885
-0.051862672 0.34152961 -0.062111229
0.21787 -0.17888567 -0.051679544
-0.21787 -0.15299432 -0.054831237
-0.21787 -0.054557234 -0.055861384
-0.21786998 0.015682682 -0.058967486
0.21787 0.086816117 -0.058032461
0.21787 0.14051348 -0.057066664
0.21787 0.20011255 -0.051051937
0.062250651 0.26370701 -0.053935073
-0.18399566 0.275379 -0.055917192
0.1599326 0.275379 -0.057293154
0.065555461 0.32934064 -0.051563021
0.070253149 0.32885298 -0.051635809
0.028343465 0.33320358 -0.051020227
-0.078359321 0.34428018 -0.056645095
0.049197715 -0.382112 -0.046791732
0.10551175 -0.382112 -0.041463491
-0.21787 -0.36980483 -0.049167816
-0.21787 -0.35530341 -0.04011808
0.21787 -0.25961909 -0.046806689
0.21787 -0.10052087 -0.047996365
0.21787 -0.086500399 -0.043318179
0.21787 0.030988269 -0.049512878
-0.17646313 0.26370701 -0.048033945
0.18557554 0.26370701 -0.046686202
-0.21776727 0.275379 -0.044435468
-0.0050331205 0.275379 -0.044490136
0.092701152 0.275379 -0.049798086
0.20911956 0.31443751 -0.040928379
-0.057485782 0.34273821 -0.043803923
0.021696771 -0.382112 -0.034192543
0.21787 -0.32416168 -0.030055588
0.21787 -0.31389493 -0.038081162
-0.21787 -0.13409403 -0.032100484
-0.21787 -0.10571583 -0.033250272
-0.21787 -0.0035678893 -0.034926049
0.21787 0.037019461 -0.032136895
0.21787 0.22305943 -0.039705824
-0.16551247 0.26370701 -0.033750348
-0.081033178 0.26370701 -0.036726519
0.088620268 0.275379 -0.034492586
0.18987757 0.275379 -0.033520758
-0.21254607 0.29768905 -0.031228211
-0.20900279 0.31253713 -0.032829829
0.094313167 0.32635534 -0.034381934
0.14875402 0.32070395 -0.03452326
-0.11989035 0.3549701 -0.032943893
-0.18288834 0.39274424 -0.033090495
-0.073495954 -0.382112 -0.021936124
0.21787 -0.33430403 -0.02600849
0.21787 -0.18438561 -0.022806171
-0.21787 -0.10500886 -0.02121339
0.21787 -0.080880664 -0.028030053
0.21787 -0.045065373 -0.020469919
0.21787 -0.013359662 -0.029464388
-0.15843429 0.26370698 -0.023635529
-0.18758979 0.275379 -0.027832929
-0.13214199 0.275379 -0.022461142
-0.09464173 0.275379 -0.028501932
-0.21657172 0.28081945 -0.026396675
0.17265026 0.31966615 -0.026846789
-0.17607498 -0.382112 -0.017239988
-0.032125704 -0.382112 -0.015473635
0.0098401979 -0.382112 -0.015917942
0.21787 -0.031198181 -0.01200075
0.21787 0.022454083 -0.017570011
0.21787 0.10175612 -0.014646199
0.084808126 0.26370701 -0.015482444
0.13130376 0.26370701 -0.016251482
-0.21555428 0.285083 -0.010834031
0.1607416 0.31945953 -0.011231109
0.12766151 0.32289353 -0.017985791
0.1551597 0.320039 -0.01938621
-0.095268697 0.34618381 -0.016027357
-0.083175987 -0.382112 -0.0060702357
-0.21787 -0.3635917 -0.0015635192
-0.21787 -0.24157435 -0.0043058097
0.21787 -0.13076892 -0.0061383471
-0.21787 -0.12540899 -0.0050671212
-0.19322121 0.26370701 -0.0092553645
0.019505337 0.26370701 -0.0038750619
0.10423287 0.26370701 -0.0091686845
0.16365342 0.275379 -0.0051223561
0.016665317 0.33597606 -0.0084403381
0.040816173 0.33190876 -0.0041012391
0.074924588 0.33066314 -0.0036616325
0.12795117 -0.38211203 0.0099342577
0.18139215 -0.382112 0.0084384456
0.21787 -0.065536946 0.0066028237
-0.21787 0.05156292 0.0075962767
-0.21787 0.12302382 0.00053781644
0.21787 0.18034944 0.0094256923
0.21787 0.19125307 0.0054615978
-0.088455111 0.26370701 0.0063952543
0.11028754 0.26370701 0.0032421798
0.12618601 0.26370701 0.0038838014
0.085599691 0.275379 0.0050890483
-0.082506195 0.34471065 0.0071678702
-0.19809245 0.35066089 3.2415614e-05
-0.1262491 -0.382112 0.019695375
0.018899446 -0.382112 0.015802246
0.21787 -0.35876292 0.018730253
0.21787 -0.24456063 0.017225653
0.21787 0.23415855 0.013552926
-0.14891216 0.26370701 0.016830154
-0.054703277 0.26370701 0.011486869
0.073208861 0.275379 0.019630603
0.035178445 0.33249402 0.012606584
0.045503683 0.33142218 0.018934175
-0.092419781 -0.382112 0.024991915
0.13778773 -0.38211197 0.022495318
0.21787001 -0.37509567 0.022402257
-0.21787 -0.33662862 0.021887932
-0.21787 -0.16445796 0.020410642
0.21787 -0.15470873 0.021035776
-0.21787 -0.068622768 0.029367656
-0.21787 -0.034524038 0.023793466
-0.21787 0.18105052 0.027733803
-0.17555416 0.26370701 0.026250705
-0.053076424 0.26370701 0.021728082
0.069017105 0.26370701 0.029959885
-0.038120329 0.275379 0.026780248
0.21787 0.29555494 0.022315048
-0.21148677 0.30212799 0.025569696
0.18410102 0.31703466 0.029393375
0.095290393 0.32625392 0.024771597
0.12075634 0.32648355 0.024443425
0.15625946 0.32199067 0.027101584
0.0024330709 0.33727396 0.027014669
-0.095246986 0.34618184 0.029033113
-0.18420039 0.39353037 0.02002579
-0.18410084 -0.382112 0.033019498
-0.16772625 -0.382112 0.032892406
-0.075642593 -0.38211197 0.035558943
0.13769545 -0.38211197 0.035448018
0.17260472 -0.382112 0.031456295
-0.21787 -0.19642684 0.031334668
-0.21787 -0.095940664 0.035000242
0.21787 0.079212695 0.03932501
-0.21787 0.20817241 0.033633821
-0.14731985 0.26370701 0.033705845
0.031919427 0.26370701 0.030097164
0.063791439 0.275379 0.034107767
-0.10265017 0.34683257 0.03371793
-0.097106308 -0.38211203 0.043781307
0.13414469 -0.38211203 0.043067552
-0.21787 -0.2537629 0.046015948
0.21787 -0.23936854 0.046184994
0.21787 -0.20205665 0.049338188
0.21787 -0.10407846 0.040660672
0.21787 -0.096004866 0.041181482
0.21787 -0.079816349 0.042995706
-0.21787 -0.0097549111 0.046013866
0.21787 0.02180858 0.049585581
-0.21787 0.20940241 0.04092519
-0.21787 0.2166256 0.045894422
0.12927859 0.26370701 0.043461826
-0.2094432 0.275379 0.048021801
-0.13887571 0.275379 0.044926774
-0.065465644 0.275379 0.045661733
0.066816829 0.32920969 0.049884751
0.11768533 0.32392916 0.047646165
-0.006813474 0.33685315 0.043716934
0.016527224 0.33443016 0.04891311
0.028259506 0.33321229 0.045834947
0.066208795 0.33145797 0.044451226
0.046014313 -0.38211197 0.054622561
0.21787 -0.32606041 0.050985519
0.21787 -0.024742797 0.05494532
-0.21787 0.11061376 0.055361725
-0.14217198 0.26370701 0.057152428
-0.045697894 0.26370701 0.056586884
-0.017950196 0.26370701 0.059631258
0.11347054 0.26370704 0.050993823
-0.058165662 0.275379 0.05313886
0.088735797 0.275379 0.052427344
0.096858479 0.32609114 0.05789642
-0.015636347 0.33776903 0.059078339
-0.079793036 0.34477252 0.05479778
-0.064655408 0.3428576 0.052795507
-0.18190542 0.39215481 0.057119694
-0.13785562 -0.382112 0.067719847
0.21787 -0.38104418 0.060290586
0.21787 -0.24307969 0.065477312
0.21787 -0.04701069 0.063738473
0.21787 0.0005434379 0.063098118
-0.21787 0.16197965 0.064152092
0.21787 0.20956378 0.066064522
-0.192219 0.26370701 0.061705753
0.071920015 0.275379 0.069785096
0.16152807 0.275379 0.06202523
0.011589659 0.33494273 0.067261107
0.11184946 -0.382112 0.07436803
-0.21787 -0.15831737 0.078327321
0.21787 -0.14587404 0.072046861
0.21787 -0.094818339 0.071130291
0.21787 -0.016845152 0.078282043
0.21787 0.10464931 0.078136802
-0.12424443 0.26370701 0.074150465
0.13127574 0.275379 0.079151407
0.18431133 0.275379 0.071858674
-0.21520585 0.28654319 0.071976826
0.059926946 0.32992497 0.073827341
-0.069058336 0.34379357 0.079165995
0.1233341 -0.382112 0.081524588
-0.21787 -0.36465043 0.08868742
0.21787 -0.30863664 0.089238219
0.21787 -0.11557579 0.086296827
-0.21787 -0.021204337 0.081546694
0.21787 0.014954761 0.086961105
-0.21787 0.11174788 0.085605808
0.045577474 0.26370701 0.08253181
-0.14358908 0.275379 0.085567549
-0.13690552 0.275379 0.087672219
0.21787 0.29822856 0.086043857
-0.16909502 0.38447338 0.080620632
-0.085316107 -0.382112 0.093598127
0.044184424 -0.382112 0.091341645
0.21787 -0.34378132 0.090132296
0.21787 -0.33728516 0.091216765
-0.21787 -0.31466436 0.092012785
-0.21787 -0.23343086 0.093487836
0.21787 -0.1003693 0.098487258
-0.21787 -0.07642106 0.090628535
0.21787 0.0099920481 0.099495709
-0.21787 0.097185314 0.096693322
-0.21787 0.22983608 0.090858877
-0.21787 0.24886228 0.095054835
-0.11623664 0.26370701 0.099636137
0.13185036 0.26370701 0.091051079
-0.040663913 0.275379 0.091307566
0.21787 0.28242651 0.098843277
0.10153446 0.32560575 0.090482384
0.0063195527 0.33548981 0.091278583
-0.14068055 -0.3846812 0.10523696
-0.11084087 -0.382112 0.10347448
-0.10167384 -0.38211203 0.10708353
-0.049446061 -0.382112 0.10240434
-0.21787 -0.3788617 0.1079518
0.21787 -0.27507639 0.10541904
-0.21787 -0.26820213 0.10803448
-0.21787 -0.16567479 0.10878992
-0.21787 -0.04834798 0.10140403
0.21787 -0.015792938 0.10955234
0.21787 0.0029619411 0.1061902
-0.19005427 0.26370701 0.10626454
-0.16521025 0.26370701 0.10686149
-0.027464062 0.26370701 0.10112181
-0.013070419 0.26370701 0.10987335
0.19575794 0.26370701 0.10896159
-0.21648988 0.275379 0.10905874
-0.20085718 0.275379 0.10272627
0.16987447 0.275379 0.10523862
0.1735657 0.31812832 0.10380606
0.01768171 0.33588338 0.10193347
-0.051281698 0.34198728 0.10957356
-0.19787851 -0.393783 0.11377152
-0.14777002 -0.39378297 0.11652757
0.13643159 -0.382112 0.11931367
0.21787 -0.37971291 0.11352614
-0.21787 -0.32935467 0.11229046
0.21787 -0.28306833 0.11987364
-0.21787 -0.24016804 0.11013845
0.21787 -0.18137835 0.11818297
0.21787 -0.14183722 0.11890715
-0.21787 -0.038477801 0.11670391
0.21787 -0.011853375 0.11480699
-0.21787 0.066534907 0.11633364
0.21787 0.10684974 0.11768533
-0.047724001 0.26370701 0.11590198
-0.027837627 0.26370701 0.11113923
0.11743986 0.26370701 0.11837836
-0.058563665 0.275379 0.1149572
-0.025955932 0.275379 0.11609837
-0.031782281 0.33944508 0.11394251
-0.0063046776 0.33758095 0.1186089
-0.056159467 0.34221241 0.11546745
-0.010041371 -0.39378297 0.12215756
-0.21194252 -0.382112 0.12357701
-0.16029872 -0.382112 0.12849519
-0.14423716 -0.382112 0.12395851
-0.10775244 -0.382112 0.12555595
-0.06314896 -0.382112 0.12707326
-0.038108714 -0.38211197 0.12434423
-0.21787 -0.37026677 0.12827842
-0.21787 -0.23679304 0.12010132
0.21787 -0.21689218 0.1228427
0.21787 -0.17023209 0.12312682
-0.21787 -0.1223776 0.12642722
-0.0013022833 0.26370701 0.12814838
0.02463175 0.26370701 0.12772366
0.064115502 0.26370701 0.12097652
0.12677838 0.26370701 0.12920533
-0.04365027 0.275379 0.123893
0.08013422 0.275379 0.12031084
0.083490059 0.32930678 0.12242734
0.12734026 0.32292688 0.1224469
-0.0026650578 0.33696875 0.12629296
0.00023133587 0.33612183 0.12393767
-0.14952625 -0.39378297 0.13088989
-0.21787 -0.3852461 0.13014469
-0.21787 -0.36910123 0.13823529
-0.21787 -0.16479892 0.13523276
-0.21787 -0.11014385 0.13252605
0.21787 -0.11196363 0.1373411
0.21787 0.16879135 0.13776733
-0.1603781 0.26370701 0.13198
-0.015894298 0.26370701 0.13955009
0.023844492 0.26370701 0.13075563
-0.080740444 0.275379 0.13576357
-0.036417622 0.275379 0.13436496
0.10603963 0.275379 0.13331367
0.21582407 0.275379 0.13080899
0.16562515 0.31895262 0.13902512
0.15065427 0.32267714 0.13727149
-0.21787 -0.30598462 0.14140758
-0.21787 -0.16354975 0.14303444
-0.21787 -0.15604946 0.14273322
-0.21787 -0.0043732524 0.14545767
-0.21787 0.15491565 0.14637114
-0.21787 0.22262679 0.1485222
-0.12586133 0.26370701 0.14062361
-0.078418091 0.26370701 0.14646213
-0.18559538 0.275379 0.1476164
-0.071027674 0.275379 0.14671625
-0.0312063 0.275379 0.14612138
0.011871848 0.275379 0.14660698
0.19869274 0.275379 0.14319178
-0.19569597 0.34732446 0.1436656
-0.1340436 0.36356783 0.14227761
-0.080134347 -0.393783 0.15951356
0.088231929 -0.393783 0.15651137
-0.20611671 -0.382112 0.15477064
0.21614328 -0.382112 0.15565436
-0.21787 -0.14307743 0.1532118
0.21787 0.08022444 0.1509774
-0.13026991 0.26370701 0.15831882
-0.017365508 0.26370701 0.15607285
0.010650825 0.26370701 0.1559591
0.10461949 0.26370701 0.15681836
0.12153041 0.26370701 0.15567222
-0.2033897 0.275379 0.15486591
-0.19130772 0.275379 0.15811431
-0.10023412 0.275379 0.15916124
0.09351068 0.275379 0.15382463
0.18549208 0.275379 0.15463343
0.21288919 0.275379 0.15128896
-0.16288601 0.38113391 0.15300179
-0.15783647 -0.393783 0.16523662
0.1211094 -0.393783 0.16517739
0.21787 -0.3301298 0.16615044
0.21787 -0.32373959 0.16729721
-0.21787 -0.12230748 0.16369024
-0.21787 0.0063325241 0.16507198
0.21787 0.010196728 0.16649075
-0.21787 0.086898811 0.1622351
-0.21787 0.15950371 0.16080272
0.21787 0.25955969 0.16786034
-0.10244568 0.26370701 0.16181155
-0.074316785 0.275379 0.16489983
-0.039914243 0.275379 0.16574851
0.11779824 0.32391739 0.16329062
-0.034267947 0.3376517 0.16993037
-0.0021541864 0.33526796 0.162891
-0.1957911 0.34281409 0.16759837
0.017474227 -0.393783 0.1756292
-0.067024559 -0.382112 0.17160176
0.15617274 -0.38211197 0.17150509
0.21787 -0.26471439 0.17621931
-0.21787 -0.25758415 0.17262237
-0.21787 -0.23017578 0.17920287
0.21787 -0.2260147 0.17877583
0.21787 -0.012534788 0.17027798
-0.21787 0.17287724 0.17601107
0.21787 0.24936731 0.17740501
0.21787 0.2608895 0.17200269
0.10086258 0.275379 0.17748603
0.20962571 0.31438497 0.17958258
0.070633568 0.32830828 0.17740543
0.091002367 0.32669905 0.17085047
0.16124536 0.32051012 0.17011809
0.040343434 0.33106169 0.17416061
-0.16126165 0.38016489 0.17395951
-0.11333371 -0.393783 0.18638322
-0.096269935 -0.382112 0.18018511
0.21787 -0.13861907 0.18872656
0.21787 0.010050267 0.18969628
0.21787 0.04219462 0.18818441
0.21787 0.095830441 0.18942499
0.21787 0.19577825 0.18823719
-0.045225993 0.26370701 0.18626088
-0.14637458 0.275379 0.18856716
0.098565333 0.32563773 0.1829714
0.1003978 -0.39378297 0.19832835
0.17634408 -0.39378297 0.19333658
0.14780283 -0.38211197 0.19147357
0.21787 -0.12331472 0.19548005
0.21787 -0.11398274 0.19431704
0.21787 -0.023419186 0.19678608
-0.21787 0.016035557 0.19130936
-0.21787 0.13655075 0.19851777
0.21787 0.16552247 0.19511686
0.21787 0.22922459 0.19400559
-0.071151748 0.26370701 0.19346333
0.117621 0.275379 0.19420108
0.18646163 0.31744456 0.19137061
0.15013929 0.32056034 0.19611289
0.039786071 -0.393783 0.2028407
-0.16568857 -0.382112 0.20148109
-0.034327753 -0.382112 0.20544814
0.011935614 -0.382112 0.20333302
0.15481852 -0.382112 0.20471741
0.21787 -0.18050481 0.20019643
0.21787 -0.15203103 0.20137012
0.21787 -0.14987716 0.20693883
-0.21787 0.10179218 0.20441884
0.21787 0.11830035 0.20337994
-0.21787 0.134857 0.20065761
-0.067239195 0.26370701 0.20855686
-0.059378438 0.26370701 0.20484295
0.009841403 0.26370701 0.20841241
0.019429721 0.26370701 0.20341858
0.13959754 0.26370701 0.20647824
0.16310781 0.26370701 0.20264733
-0.21317981 0.275379 0.20062248
-0.20800352 0.30514959 0.20854074
-0.14900863 0.34395862 0.20647034
-0.18802477 -0.393783 0.21389736
-0.15742566 -0.393783 0.21048547
0.013250388 -0.393783 0.21243003
0.029072635 -0.393783 0.21054164
0.11292015 -0.39378297 0.21270435
-0.034432918 -0.38842762 0.21787
0.015234523 -0.382112 0.21700548
0.10438544 -0.38330662 0.21580318
0.20418076 -0.382112 0.21348894
-0.14107426 -0.36101946 0.21787
-0.075374618 -0.36691508 0.21787
0.033698168 -0.3682732 0.21787
-0.019715238 -0.35031748 0.21787
0.068702981 -0.35853913 0.21787
0.10307366 -0.35350159 0.21787
0.15688774 -0.35494471 0.21787
-0.14479098 -0.3475855 0.21787
0.093282461 -0.34690806 0.21787
0.1377507 -0.34532189 0.21787
-0.084305324 -0.33833587 0.21787
-0.0066514015 -0.33909175 0.21787
-0.19478738 -0.32911858 0.21787
0.16624883 -0.32630998 0.21787
-0.15145653 -0.31443325 0.21787
0.14235358 -0.30962697 0.21787
0.19336644 -0.30900496 0.21787
-0.13401952 -0.29396912 0.21786998
0.12869178 -0.29548627 0.21787
0.21026845 -0.29920661 0.21787
-0.12281935 -0.28946742 0.21787
-0.00036034733 -0.28249764 0.21787
0.16997819 -0.28839672 0.21787
0.18282869 -0.28745076 0.21787
-0.14438698 -0.27579173 0.21787
0.095273346 -0.2702052 0.21787
-0.18106626 -0.26844811 0.21787
-0.18808773 -0.24902207 0.21787
-0.17506096 -0.24901368 0.21787
0.077387325 -0.24953708 0.21787
0.16955733 -0.23322637 0.21787
-0.1401425 -0.22239377 0.21787001
-0.011818886 -0.22806272 0.21787
0.19351146 -0.22332019 0.21786998
-0.17728242 -0.20796591 0.21787001
0.13910696 -0.20444295 0.21787
-0.19060235 -0.19396411 0.21787
-0.0078639761 -0.19072074 0.21787
0.056075763 -0.19378451 0.21787
0.063899256 -0.19041249 0.21787
0.17425838 -0.1944617 0.21787
0.11849774 -0.18340795 0.21787
0.15230888 -0.17246483 0.21787
-0.21759297 -0.16196036 0.21787
-0.11571753 -0.16623907 0.21787
-0.035589334 -0.16530189 0.21787
0.020141266 -0.16916004 0.21787
-0.1772795 -0.15972616 0.21787
-0.054167904 -0.15210754 0.21787
-0.044414882 -0.15421435 0.21787
0.07102865 -0.15894313 0.21787
0.060515922 -0.14295438 0.21787
0.07740771 -0.14798445 0.21787
0.098642245 -0.1459704 0.21786998
-0.21787 -0.13921678 0.21599883
0.0078562275 -0.13434118 0.21787
-0.134839 -0.12602139 0.21787
0.042529754 -0.12300379 0.21787
0.17316711 -0.1275036 0.21787
0.20390457 -0.12655553 0.21787
-0.20362115 -0.11300009 0.21787
-0.03235355 -0.10428651 0.21787
0.11534726 -0.08637169 0.21787
0.20378076 -0.089192674 0.21787
0.21787 -0.084531926 0.21584116
-0.20895587 -0.075841635 0.21787
-0.035233684 -0.079477072 0.21787
0.050701946 -0.075768992 0.21787
0.14104319 -0.076728083 0.21787
0.16139624 -0.07428816 0.21787
0.21039444 -0.071007073 0.21787
-0.15568522 -0.061473459 0.21787
-0.11736318 -0.069449939 0.21787
-0.0092801163 -0.061463121 0.21787
0.21399403 -0.06729272 0.21787
-0.018098764 -0.058847316 0.21787
-0.2014575 -0.041958082 0.21787
-0.12010664 -0.046589475 0.21787
-0.10889351 -0.045962662 0.21787
-0.074093819 -0.042665381 0.21787
-0.15439785 -0.020988032 0.21787
0.090583526 -0.029128015 0.21787
-0.19145566 -0.014139116 0.21787
-0.15648396 -0.00176768 0.21787
0.016784487 -0.0018857457 0.21787
0.093205854 -0.0079646111 0.21787
-0.044555984 0.017882019 0.21787
0.18313418 0.018342368 0.21787
-0.18398955 0.024740115 0.21787
-0.14100154 0.026231952 0.21787
-0.2050128 0.048034672 0.21787
-0.12960388 0.048599873 0.21787
0.21787 0.04890424 0.21091388
0.00031737983 0.051851071 0.21787
-0.026510242 0.067306757 0.21787
0.022532718 0.060221713 0.21787
0.010754049 0.07633841 0.21787
0.1923295 0.082795143 0.21787
-0.1881558 0.094448127 0.21787
0.0083985627 0.096289761 0.21787
-0.17704153 0.10946932 0.21787
0.08339107 0.11515843 0.21787
0.094086014 0.1117699 0.21787
-0.17053355 0.12766656 0.21787
0.14199448 0.12157565 0.21787
-0.096110903 0.13449985 0.21787
0.12049624 0.13591459 0.21787
0.14765956 0.13432571 0.21787
0.15540141 0.14196059 0.21787
-0.12384157 0.15309007 0.21787
-0.055840947 0.15163554 0.21787
0.076649725 0.17370981 0.21787
0.13792978 0.17426306 0.21787
0.14487979 0.17133848 0.21787
-0.13168006 0.18208291 0.21787
0.0079285577 0.18128714 0.21787
0.12552039 0.1887009 0.21787
-0.16027166 0.19060895 0.21787
-0.06477803 0.19368985 0.21787
0.1737054 0.19658281 0.21787
-0.21082854 0.21271783 0.21787
-0.19133541 0.21262561 0.21787
-0.06582047 0.22813492 0.21787
-0.18231073 0.23351957 0.21787
-0.14467923 0.23512408 0.21787
-0.11436102 0.23852913 0.21787
0.050703563 0.23891026 0.21787
-0.20441972 0.24114303 0.21787
-0.17515531 0.24273123 0.21787
-0.04162734 0.24120156 0.21787
0.023462728 0.24502887 0.21787
0.049266778 0.24883293 0.21787
0.19852713 0.24897277 0.21787
-0.17461793 0.25100899 0.21787
-0.16878153 0.2525641 0.21787
0.18862821 0.25086296 0.21787
-0.15883338 0.26559302 0.21728329
-0.13020669 0.26370701 0.21748306
-0.11101159 0.26370701 0.21667156
0.068207316 0.26266646 0.21787
-0.020263754 0.27136531 0.2154876
0.081422552 0.275379 0.21746512
0.18524015 0.27286327 0.21502163
0.21374303 0.27464324 0.2144679
0.17049584 0.28833127 0.21787
0.19790383 0.28739929 0.21787
-0.17755575 0.29083055 0.2169688
0.13479728 0.2998856 0.21787
0.14465965 0.29675734 0.21787
-0.1583288 0.3053067 0.21617752
-0.12051819 0.30434439 0.21730702
-0.070919685 0.31717259 0.21563111
0.068906456 0.3157551 0.21673691
-0.19120555 0.32761347 0.2141065
-0.18286827 0.32831582 0.21364647
0.052611157 0.32510266 0.21339405
