# .PCD v0.7 - Point Cloud Data file format
VERSION 0.7
FIELDS x y z
SIZE 4 4 4
TYPE F F F
COUNT 1 1 1
WIDTH 973
HEIGHT 1
VIEWPOINT 0 0 0 1 0 0 0
POINTS 973
DATA ascii
-0.093266122 -0.35748801 -0.25405264
-0.067907751 -0.35748801 -0.25399768
-0.025339939 -0.34417206 -0.255348
-0.018533893 -0.34286141 -0.255348
-0.13906802 -0.33853111 -0.255348
-0.09052626 -0.3381328 -0.255348
-0.038696505 -0.33410805 -0.255348
0.071525209 -0.33465019 -0.255348
0.20459083 -0.33541837 -0.255348
-0.17863773 -0.31961331 -0.255348
-0.090687118 -0.31183279 -0.255348
-0.08327651 -0.31227908 -0.255348
0.10113838 -0.31522232 -0.255348
0.15477532 -0.31505272 -0.255348
0.19830124 -0.31394923 -0.255348
-0.11658465 -0.30862033 -0.255348
0.15475228 -0.30786094 -0.255348
-0.13349092 -0.29649124 -0.255348
0.086367883 -0.29089063 -0.25534803
0.14180039 -0.29049537 -0.255348
-0.1098737 -0.28572711 -0.255348
-0.034002699 -0.28574312 -0.255348
-0.18213272 -0.27338773 -0.255348
0.14083634 -0.27614462 -0.255348
0.16099188 -0.27981684 -0.255348
0.16538917 -0.26238495 -0.255348
-0.23087877 -0.25176543 -0.255348
0.086128622 -0.25676385 -0.255348
-0.12424895 -0.24851465 -0.255348
-0.027561784 -0.2414906 -0.25534797
0.047813185 -0.24919391 -0.255348
0.16494749 -0.24052493 -0.255348
-0.1402906 -0.23757762 -0.255348
-0.090392023 -0.23691474 -0.255348
0.1918644 -0.23147912 -0.255348
0.20645034 -0.23767701 -0.25438005
-0.040836155 -0.21910737 -0.255348
0.027656835 -0.21485941 -0.255348
0.031130955 -0.21053553 -0.255348
-0.077785015 -0.20152588 -0.255348
0.042315863 -0.2029022 -0.255348
-0.20386696 -0.19941095 -0.255348
-0.02486537 -0.19707477 -0.255348
-0.19325176 -0.18710557 -0.255348
0.014408771 -0.189873 -0.255348
0.053165607 -0.18275526 -0.255348
-0.18542001 -0.17166299 -0.255348
-0.1671249 -0.176707 -0.255348
-0.063905917 -0.17257468 -0.255348
0.10428407 -0.17867592 -0.255348
0.17787781 -0.17457575 -0.255348
-0.086062312 -0.16265181 -0.255348
0.038568631 -0.16621013 -0.255348
0.087604865 -0.13249934 -0.255348
0.14949197 -0.13858825 -0.255348
0.15611765 -0.13525896 -0.255348
-0.23348472 -0.12648033 -0.255348
-0.082698777 -0.12367707 -0.255348
0.09880852 -0.10090029 -0.255348
0.14396986 -0.091483623 -0.255348
0.01237379 -0.084121011 -0.255348
0.087028012 -0.088880405 -0.255348
-0.2009937 -0.074784972 -0.255348
0.095539466 -0.072877347 -0.255348
0.10673249 -0.079230055 -0.255348
-0.054519221 -0.057307765 -0.255348
0.15643369 -0.057812557 -0.255348
0.17133828 -0.058411025 -0.255348
-0.03063377 -0.040743306 -0.255348
-0.014397188 -0.032349385 -0.255348
0.0081480965 -0.025562227 -0.255348
0.20215102 -0.022821281 -0.255348
-0.090300076 -0.017476223 -0.255348
-0.03588723 -0.016148094 -0.255348
0.0084296092 -0.01803562 -0.255348
0.10771656 -0.012903452 -0.255348
0.20665984 -0.018272445 -0.25009707
0.052122384 -0.00059128553 -0.255348
0.16195658 -0.0070127696 -0.255348
-0.14177614 0.00088245422 -0.255348
-0.1065001 0.0021368265 -0.255348
-0.092519678 0.012464203 -0.255348
-0.001430966 0.013497353 -0.255348
0.16263741 0.012890756 -0.255348
-0.15948932 0.029453248 -0.255348
-0.1131475 0.021446362 -0.255348
-0.033181831 0.039041072 -0.255348
0.076885223 0.038149804 -0.255348
0.15118784 0.033048414 -0.255348
-0.0096783116 0.04818736 -0.255348
0.017888077 0.04689315 -0.255348
0.082091942 0.043968663 -0.255348
-0.020090207 0.055187456 -0.255348
0.0091513302 0.057429522 -0.255348
0.090794973 0.052419446 -0.255348
0.20436743 0.051665068 -0.255348
-0.20131502 0.067151338 -0.255348
0.068083316 0.068821259 -0.255348
0.11328686 0.066143788 -0.255348
0.19697317 0.06043306 -0.255348
0.20587426 0.069784179 -0.255348
-0.13425258 0.074982554 -0.255348
-0.0017382726 0.07530503 -0.25534803
0.051982388 0.076604195 -0.255348
0.055507474 0.08209835 -0.255348
-0.065138198 0.090839282 -0.255348
0.031180769 0.097430035 -0.255348
0.18124184 0.10484796 -0.255348
-0.238746 0.11626463 -0.25344783
0.031582925 0.11674803 -0.255348
-0.22704506 0.12852195 -0.255348
-0.0081561115 0.12640184 -0.255348
0.115022 0.1269796 -0.255348
-0.042362802 0.13380441 -0.255348
-0.0098637063 0.13093996 -0.255348
0.021348068 0.13296181 -0.255348
-0.21539952 0.14908412 -0.255348
-0.1580289 0.14870617 -0.255348
-0.033459313 0.14046472 -0.255348
-0.2289314 0.15234192 -0.255348
-0.12396621 0.15865748 -0.255348
0.072544418 0.15959606 -0.255348
0.13296424 0.15435731 -0.255348
-0.023653291 0.16638696 -0.255348
0.10884839 0.16912654 -0.255348
-0.20099601 0.17850594 -0.255348
0.096012883 0.18215133 -0.255348
0.18332162 0.18383381 -0.255348
-0.10523702 0.19149148 -0.255348
-0.033232279 0.19088392 -0.255348
-0.018211834 0.19072476 -0.255348
0.10623782 0.19706607 -0.255348
-0.15313405 0.20744579 -0.255348
-0.091923118 0.20386419 -0.255348
-0.23835069 0.21364728 -0.255348
0.01894128 0.21745296 -0.255348
0.1750084 0.21116154 -0.255348
-0.17337845 0.22189423 -0.255348
0.20658793 0.22919123 -0.25156751
-0.074558027 0.23328033 -0.255348
-0.053964108 0.23867157 -0.255348
0.055752799 0.23469546 -0.255348
-0.21043029 0.24369991 -0.255348
-0.050605156 0.24172708 -0.255348
0.19375233 0.24878946 -0.255348
-0.10103649 0.25996402 -0.25534797
0.18767719 0.25742638 -0.255348
-0.16692093 0.26385021 -0.255348
-0.11687596 0.26620048 -0.255348
0.027325407 0.26858813 -0.255348
-0.024937719 0.27085537 -0.255348
0.19213027 0.27278632 -0.255348
-0.17613903 0.28880456 -0.255348
-0.10754362 0.28954631 -0.255348
-0.032583542 0.28805482 -0.255348
0.12056866 0.28324428 -0.255348
0.16926855 0.28228515 -0.255348
0.10167667 0.29404175 -0.255348
-0.068031453 0.31390649 -0.255348
0.063971251 0.31184706 -0.255348
-0.15109995 0.32573426 -0.25534803
-0.14993247 0.32924539 -0.255348
0.20474938 0.32735482 -0.255348
-0.18253693 0.33336255 -0.255348
-0.12714162 0.33541694 -0.255348
-0.238746 0.35633066 -0.25517684
-0.073235199 0.35441771 -0.255348
-0.020568788 0.35748801 -0.25322002
-0.14679602 -0.35748801 -0.24505942
-0.13205445 -0.35748801 -0.24991886
0.029394949 -0.35748801 -0.24418384
0.20690702 -0.30226415 -0.24504313
-0.23874599 -0.052568555 -0.24208036
0.20694517 0.07443466 -0.24426365
-0.238746 0.089584038 -0.24958496
0.20670398 0.32271969 -0.24919435
-0.18473609 0.35748801 -0.24036989
-0.238746 -0.25199765 -0.23964213
0.2073233 -0.22576177 -0.23653181
-0.238746 -0.17541483 -0.23077275
-0.238746 -0.021195203 -0.23782177
0.20728192 -0.014898151 -0.23737893
0.20720479 0.12561393 -0.23895583
-0.238746 0.18955052 -0.23778468
-0.238746 0.25830683 -0.23459947
-0.22484349 -0.35748804 -0.22172925
-0.13945273 -0.35748801 -0.22262254
0.1207691 -0.35748798 -0.22954965
-0.238746 -0.31931302 -0.22737843
-0.238746 -0.17878765 -0.22943223
0.20792508 -0.13075744 -0.22422804
0.20796897 -0.071953706 -0.22333133
0.2078163 -0.061361007 -0.22645378
0.20794877 0.1193214 -0.22374427
0.20776294 0.23517981 -0.22754309
0.05795547 0.35748801 -0.22221258
0.18410665 0.35748801 -0.22992486
-0.22256832 -0.35748801 -0.21155083
-0.1517231 -0.35748801 -0.2133064
0.11254165 -0.35748801 -0.21638083
-0.238746 -0.24334829 -0.21564069
0.20851785 -0.13057843 -0.21194987
0.20833874 -0.12445027 -0.21577086
-0.238746 -0.11433964 -0.21443886
0.20816059 -0.054382246 -0.21941286
0.21398601 -0.02306371 -0.21163569
0.22377869 -0.014447694 -0.21277002
0.23299989 0.016972575 -0.21690649
0.20815121 0.05818101 -0.21960603
-0.238746 0.076604187 -0.21749824
0.071359217 0.35748801 -0.21785986
0.17407134 0.35748801 -0.21859202
-0.238746 -0.35436878 -0.20159057
0.2089455 -0.3570013 -0.20126033
-0.238746 -0.34161273 -0.20792224
0.20867735 -0.094202086 -0.20796308
-0.238746 -0.056626759 -0.20016482
-0.23874602 -0.030161142 -0.20382513
0.23874602 -0.019677052 -0.20941713
0.20878284 0.013586041 -0.20532447
0.23874602 0.029487971 -0.20927306
-0.238746 0.063729353 -0.20679048
0.20864916 0.1024788 -0.20865709
0.20864671 0.14063272 -0.20871982
0.2088719 0.17225972 -0.20309484
0.2087923 0.18900505 -0.20508495
-0.066368967 0.35748801 -0.20418026
-0.238746 -0.35289654 -0.19673571
0.14403212 -0.35748801 -0.19024459
-0.238746 -0.16194686 -0.19219983
0.2090629 -0.059730012 -0.19831961
0.20900168 -0.039927717 -0.19984867
-0.238746 0.22785756 -0.19623327
-0.238746 0.26810351 -0.19810081
0.065099113 0.35748801 -0.19631447
-0.099240288 -0.35748801 -0.18533128
-0.067961723 -0.35748798 -0.1870694
0.036286041 -0.35748801 -0.18334091
0.16589712 -0.35748801 -0.18430492
0.2045024 -0.35748801 -0.18031868
-0.23874602 -0.036114767 -0.18567219
0.20957407 0.12428617 -0.18554856
-0.20204073 0.35748801 -0.18361551
0.20947169 0.35535377 -0.18385801
0.2100624 -0.019300163 -0.173342
0.21009098 0.11728932 -0.17262794
0.20988669 0.16470328 -0.17773426
-0.23874602 0.22855011 -0.17963301
0.2101011 0.27442056 -0.17237532
-0.16605873 0.35748801 -0.17260593
-0.17047736 -0.35748801 -0.16350709
0.13625294 -0.35748801 -0.16851677
0.21047902 -0.29166719 -0.16082734
0.21025556 -0.28193134 -0.16800994
-0.238746 -0.25240839 -0.16146606
-0.238746 -0.07941781 -0.16918042
0.238746 -0.069623336 -0.16093704
0.23874599 -0.04899355 -0.16149019
-0.23874599 0.0009187758 -0.16619751
-0.23874599 0.037074514 -0.16963835
0.20808314 0.17431886 -0.16035643
-0.12615138 0.35748801 -0.16814637
-0.078751281 -0.35748801 -0.15240419
0.098859131 -0.35748798 -0.15570796
0.13877816 -0.35748801 -0.15929332
0.210655 -0.3122381 -0.15517029
0.21070902 -0.26143396 -0.15343393
0.238746 -0.10401659 -0.15385732
0.23874602 -0.072898351 -0.15188265
0.238746 -0.045696359 -0.15406623
-0.23874599 -0.020137616 -0.15589835
-0.23874599 0.11537467 -0.15389064
0.23874602 0.16989261 -0.15173009
-0.23874599 0.19367968 -0.15387729
-0.238746 0.21667714 -0.15151709
-0.238746 0.29054326 -0.15453126
-0.090233468 0.35748801 -0.15604746
-0.11235571 -0.35748801 -0.146465
0.029557757 -0.35748798 -0.14039838
-0.23874602 -0.29590005 -0.14068115
0.21100891 -0.070498288 -0.14380106
0.21105802 0.0052683889 -0.14222167
0.238746 0.093419001 -0.14527002
-0.23874599 0.15681067 -0.1478925
0.228489 0.18944202 -0.14482217
-0.23874599 0.20363665 -0.14307487
0.019829758 0.35748801 -0.14991432
0.12221108 0.35748804 -0.14475518
0.20982933 0.35748801 -0.14642531
0.21138631 -0.28524902 -0.13166487
0.21133794 -0.2576665 -0.13322031
0.21129525 -0.20698068 -0.13459319
0.21118811 -0.19919187 -0.13803855
0.20810276 -0.14013624 -0.13679653
-0.23874602 -0.11505303 -0.13907154
-0.238746 -0.10507637 -0.13048828
0.23874599 -0.094285682 -0.13446018
-0.23874602 -0.083672285 -0.13298973
0.21126604 -0.05483767 -0.13553235
0.21115507 0.028568611 -0.13910075
0.22235666 0.079559267 -0.13436392
0.21122304 0.09889219 -0.13691427
0.21119174 0.11512676 -0.13791788
-0.23874602 0.13066629 -0.13574433
0.23874599 0.18977982 -0.13848141
0.078688316 -0.35748801 -0.12093338
0.21143961 -0.25873074 -0.12995075
0.21145193 -0.12479017 -0.12955394
-0.238746 -0.0053198636 -0.1292592
-0.238746 0.015044272 -0.12216301
-0.238746 0.17152409 -0.12123638
0.238746 0.17705487 -0.12647597
0.039073437 0.35748801 -0.12443691
0.1086104 0.35748801 -0.12198307
-0.19172545 -0.35748801 -0.11623584
0.076245844 -0.35748801 -0.11492106
0.10325816 -0.35748801 -0.11883187
0.21687201 0.054642543 -0.11761019
0.21687201 0.067378648 -0.11022433
0.21181795 0.1361572 -0.11381719
-0.238746 0.20853624 -0.11691204
0.21172395 0.32596153 -0.11804736
0.19904619 0.35748801 -0.11116332
0.21192774 -0.25494489 -0.10887692
0.21194759 -0.2418815 -0.1079845
-0.238746 -0.19401817 -0.10745952
0.21210179 -0.091457933 -0.10106269
0.21687201 -0.054718763 -0.10698897
-0.23874602 0.023692731 -0.10072044
0.21687201 0.073327273 -0.10490921
0.21687201 0.084364042 -0.10100752
-0.23874602 0.13302684 -0.10594575
0.2358904 0.13614419 -0.10753714
0.21194515 0.15325883 -0.10809349
0.22483397 0.21638449 -0.10971033
-0.19880211 -0.35748801 -0.093364254
-0.13370082 -0.35748801 -0.091013245
-0.10407333 -0.35748801 -0.090071499
0.21212694 -0.27286413 -0.099918038
-0.238746 -0.24511322 -0.094624728
-0.238746 -0.18139774 -0.091577888
0.21221286 -0.030084316 -0.096059173
-0.238746 0.076198839 -0.099386379
0.21687201 0.08147978 -0.094996661
0.21687201 0.12435349 -0.093959957
0.21230063 0.13195628 -0.09210337
-0.23874599 0.19292805 -0.09939681
-0.2232592 0.35748798 -0.098719619
0.0058626235 -0.35748801 -0.083175309
0.1248741 -0.35748801 -0.087815717
0.13512424 -0.35748801 -0.087880254
0.16423333 -0.35748801 -0.085646786
-0.23874602 -0.24303608 -0.088110782
0.22509545 0.14583726 -0.085072622
0.238746 0.15874545 -0.082100861
0.238746 0.21673657 -0.081108488
-0.23874602 0.29340169 -0.080889434
-0.040453896 0.35748798 -0.080282152
-0.0060224552 0.35748801 -0.08578831
0.051200964 0.35748801 -0.084832057
-0.20579301 -0.35748804 -0.079867557
-0.060793288 -0.35748801 -0.076730497
0.017437268 -0.35748801 -0.073394142
-0.238746 -0.29754689 -0.077428937
0.21262398 -0.27616554 -0.072485395
0.21033704 -0.17604454 -0.073662713
0.21687201 -0.079650462 -0.077404737
0.21687201 -0.058642071 -0.071976066
-0.238746 -0.04287599 -0.071937546
0.21687201 -0.0044289604 -0.077115461
-0.23874599 0.049174301 -0.07247214
0.21687201 0.076768845 -0.0725253
-0.238746 0.085654125 -0.076345973
-0.23874602 0.093593746 -0.075939097
-0.238746 0.16650927 -0.076906964
0.21265088 0.19267721 -0.070470139
0.238746 0.21509396 -0.072991848
0.21514088 0.23450184 -0.075557917
-0.23874599 0.28312281 -0.076730229
0.046525449 0.35748801 -0.078888834
0.055884592 0.35748801 -0.073390357
0.10686351 0.35748801 -0.075672634
-0.21492246 -0.35748801 -0.066642098
-0.069821917 -0.35748801 -0.061236344
0.17973226 -0.35748801 -0.063928008
-0.238746 -0.31234804 -0.061673984
0.23591883 -0.18058378 -0.062703595
-0.23874599 -0.01972146 -0.061861321
0.21687201 0.099921577 -0.060344636
-0.238746 0.17322332 -0.060482591
0.23874599 0.1899797 -0.068362229
0.238746 0.21738973 -0.065188266
0.21266225 0.23812458 -0.069650307
-0.18081205 0.35748804 -0.068847872
-0.15948908 0.35748801 -0.065016389
-0.20011085 -0.35748801 -0.053026006
0.238746 -0.15840396 -0.052213091
0.21282816 -0.14370108 -0.057232451
-0.23874599 -0.089686066 -0.058115304
0.21285728 -0.031088665 -0.055030417
0.21280837 0.061138909 -0.058671311
-0.238746 0.18395534 -0.059721537
0.2128951 0.19943209 -0.052165985
-0.238746 0.2909179 -0.05122333
-0.21458963 0.35748801 -0.050616428
-0.10020421 0.35748804 -0.059161298
-0.050943144 0.35748801 -0.058089107
0.09291403 0.35748801 -0.056819536
-0.16887011 -0.35748801 -0.041418135
-0.082001857 -0.35748801 -0.040603444
-0.076599859 -0.35748804 -0.044887751
-0.0055913627 -0.35748801 -0.040651999
0.048228353 -0.35748801 -0.048600372
0.23036076 -0.18428239 -0.047912661
-0.238746 -0.15323727 -0.046089705
0.21687201 0.0056068702 -0.048871189
0.21687201 0.089237437 -0.041892763
0.21297659 0.16818735 -0.046065047
-0.238746 0.26997221 -0.042836912
-0.238746 0.30693868 -0.045069553
0.21302713 0.31436655 -0.041644901
-0.18542396 0.35748801 -0.04695249
-0.05442898 0.35748801 -0.046490185
0.041794546 0.35748798 -0.049203858
0.058382586 0.35748801 -0.047326252
-0.093049705 -0.35748798 -0.033168823
0.08950083 -0.35748801 -0.039776795
0.21687201 -0.086458787 -0.032570422
0.21304695 -0.056597553 -0.037185427
-0.23874602 -0.0493844 -0.0374102
0.21495432 0.011177619 -0.037568405
-0.23874599 0.057852983 -0.030436113
-0.024753949 0.35748801 -0.037661195
0.0076787323 -0.35748801 -0.023396857
0.21311012 -0.32767695 -0.022951122
-0.238746 -0.26022372 -0.029383235
-0.23874599 -0.16617423 -0.023209915
-0.23874599 0.0036845822 -0.022495661
0.21310306 0.0036228248 -0.02454412
0.21687201 0.11249451 -0.020707808
-0.238746 0.14781159 -0.025475856
0.21311203 0.14102618 -0.022521462
0.22133306 0.30579692 -0.022533666
0.22673494 0.31009328 -0.02231765
-0.238746 0.34688264 -0.026967078
0.065571398 0.35748801 -0.028845821
0.083192401 0.35748801 -0.020638533
0.12627457 0.35748798 -0.022373339
0.13100851 0.35748801 -0.021938886
0.19127688 0.35748801 -0.024319917
0.20126411 0.35748798 -0.02985128
0.21310399 0.35623232 -0.024331456
-0.21105987 -0.35748804 -0.018046379
-0.14393485 -0.35748801 -0.014008313
-0.047103532 -0.35748801 -0.014620409
0.021957152 -0.35748801 -0.011134446
0.053940594 -0.35748801 -0.016017914
0.1321294 -0.35748801 -0.011283755
-0.238746 -0.32477534 -0.015884295
-0.23874599 -0.26520416 -0.011047103
0.21312615 -0.2501272 -0.019336721
0.21315733 0.050872643 -0.012319556
0.21316661 0.067078695 -0.010228782
-0.23874599 0.097902074 -0.012683209
0.23874602 0.2083075 -0.01279036
0.228532 0.30217779 -0.018377222
-0.2134473 0.35748801 -0.013253115
-0.20325522 0.35748801 -0.018871062
0.064961597 0.35748801 -0.016050026
0.094559871 0.35748801 -0.018049076
0.028320186 -0.35748804 -0.00099551678
-0.23874599 -0.27727541 -0.0064010918
0.21320714 -0.15698831 -0.0010931647
0.2269114 -0.11952978 -0.0037761331
-0.238746 0.0779697 -0.0039340518
0.21318549 0.095763355 -0.0059712944
-0.238746 0.23658046 -0.0048941895
0.20694533 0.24512586 -0.0070577082
0.21318886 0.32978821 -0.0052005146
-0.071277119 0.35748801 -0.0024617612
0.0079465732 0.35748801 -5.7555735e-05
0.019402616 0.35748801 -0.002581276
0.048865482 0.35748804 -0.0044202656
-0.17905924 -0.35748801 0.00032708049
-0.055774566 -0.35748798 0.0096968934
0.21687201 -0.036271796 0.0092341136
-0.23874599 0.056314573 0.0083144084
-0.23874602 0.2379252 0.00081750378
-0.238746 0.25148821 0.0098277628
-0.069607377 0.35748804 0.0093823597
-0.22747456 -0.35748801 0.01944264
-0.1891093 -0.35748798 0.019022316
-0.084183887 -0.35748801 0.018252492
0.14918217 -0.35748804 0.011993602
-0.238746 -0.17819473 0.017165631
-0.238746 -0.031003134 0.014065107
0.21687201 0.043624207 0.015484925
0.21687201 0.07525456 0.011279538
0.21316344 0.10669065 0.010941941
0.21315104 0.20722668 0.013734326
0.21316542 0.32044283 0.010499577
-0.238746 0.33595109 0.013260767
-0.16796997 0.35748801 0.012995183
0.046645619 -0.35748798 0.028261401
0.21311176 -0.16581202 0.022583699
-0.23874599 -0.090400696 0.020592406
-0.238746 -0.015650988 0.023991145
0.21687201 0.024881147 0.021428987
-0.23874602 0.17126417 0.024585694
0.21312228 0.1789148 0.020212704
-0.23874599 0.19904448 0.020981442
0.2131107 0.19211265 0.022821082
-0.238746 0.2210878 0.026339658
0.082786568 0.35748801 0.028280951
0.1957114 0.35748804 0.022685664
-0.22265197 -0.35748801 0.034672558
0.1720767 -0.35748798 0.039953537
0.21304922 -0.19745621 0.036671638
-0.238746 -0.10652581 0.037665077
-0.238746 -0.05075188 0.034532849
-0.238746 -0.046001203 0.032504577
-0.238746 0.023999557 0.032851793
0.238746 0.21234232 0.037285425
-0.10279311 0.35748801 0.03061419
0.16253778 0.35748801 0.03260228
-0.23390979 -0.35748804 0.049737617
-0.097318433 -0.35748801 0.04632511
-0.038968403 -0.35748801 0.043115586
-0.238746 -0.31248769 0.046536021
0.21299405 -0.18180574 0.044757877
0.238746 -0.15965351 0.0475685
0.21293747 -0.089084022 0.049016409
0.21687201 -0.031793408 0.047522265
-0.23874602 0.26726761 0.043456845
0.21301554 0.29473227 0.043136999
-0.065578803 0.35748801 0.040998057
-0.14035603 -0.35748801 0.051820666
-0.040720731 -0.35748801 0.053140257
0.14389032 -0.35748804 0.053714395
-0.238746 -0.28708357 0.059833892
-0.238746 -0.22724436 0.053929172
0.23874602 -0.12334631 0.054264124
-0.238746 -0.099848762 0.058030084
0.21487179 -0.035173211 0.055411145
-0.238746 0.030221079 0.050769776
-0.23874599 0.045742929 0.056252718
0.21848917 0.15719858 0.058047339
0.23874599 0.18487522 0.053717926
-0.23874599 0.19376478 0.05795696
0.23874602 0.20996696 0.058838367
-0.20018514 0.35748801 0.051281355
-0.086589321 0.35748798 0.05085516
0.025707627 0.35748801 0.056650683
0.0031490028 -0.35748804 0.069178551
0.12988123 -0.35748804 0.068287544
0.21271153 -0.33159387 0.065924421
-0.238746 -0.2211024 0.066883273
-0.23874602 -0.1616549 0.06801521
0.23874599 -0.14663707 0.06781666
0.21687201 -0.0087448787 0.064115703
0.21278992 0.011627909 0.060062587
0.21278548 0.024206288 0.060390234
-0.23874599 0.14124158 0.06974002
-0.23874599 0.16255192 0.06130835
-0.21241868 0.35748804 0.069816925
-0.20898788 -0.35748801 0.070707828
-0.15536812 -0.35748801 0.071767956
-0.075912304 -0.35748801 0.075475447
0.03166388 -0.35748801 0.075079538
0.070259899 -0.35748804 0.075275257
-0.238746 -0.24005672 0.078046098
0.21263185 -0.11512301 0.071911909
0.21687201 -0.068545148 0.075291075
0.21687201 -0.030308042 0.076731041
-0.23874599 -0.0073579811 0.075187519
0.21253327 0.03632205 0.079286054
0.21263939 0.049840074 0.071331263
0.21687201 0.11800401 0.07965596
-0.23874602 0.27035379 0.073109575
-0.23874602 0.30189082 0.077637881
-0.16143887 -0.35748801 0.080590881
0.19380742 -0.35748801 0.089462169
0.21251869 -0.35148484 0.080378182
-0.23874599 -0.28263485 0.080661327
0.21249065 -0.079419881 0.082480244
0.21240389 -0.040988222 0.087454513
-0.23874602 0.0098676234 0.086900041
-0.23874602 0.025030285 0.084203139
0.21687201 0.075772502 0.088692419
0.21687201 0.10041157 0.088580944
-0.238746 0.17486063 0.085492134
-0.11427151 0.35748801 0.080009669
-0.14291406 -0.35748801 0.098509967
-0.11463778 -0.35748801 0.097923569
0.12450396 -0.35748801 0.092472732
0.1764369 -0.35748801 0.094094679
0.21230663 -0.20881259 0.091828093
-0.238746 -0.15382504 0.094565749
0.2122784 -0.14092983 0.093106657
0.21217752 -0.058890838 0.097651482
-0.23874599 -0.030451767 0.095093504
-0.23874602 0.13056317 0.097744063
0.21218637 0.146686 0.097239286
0.21228544 0.23849261 0.092784941
0.21221823 0.32649344 0.095805489
-0.23422605 0.35748798 0.092626229
-0.043319702 0.35748798 0.099933706
-0.16182409 -0.35748798 0.10029405
-0.044546895 -0.35748801 0.10333354
0.238746 -0.085754976 0.10623606
0.21687201 -0.070215866 0.10185584
0.21191217 0.041961867 0.1095776
0.21203507 0.055624954 0.10404792
-0.238746 0.21054833 0.10009962
-0.23874599 0.23047805 0.10841054
-0.238746 0.28464249 0.1032069
0.21197683 0.2951138 0.10666784
0.21204063 0.32171559 0.10379715
-0.16527441 0.35748801 0.10552384
-0.024967048 0.35748798 0.10402734
0.052501194 0.35748801 0.10477035
0.10540485 0.35748801 0.10601653
-0.055028394 -0.35748801 0.11387108
0.016295839 -0.35748801 0.11118259
0.11841772 -0.35748801 0.11029745
0.21173686 -0.34865832 0.11746645
0.21189563 -0.33179837 0.110322
0.21168643 -0.28706458 0.11974263
0.2118392 -0.11171031 0.11287531
0.21179554 -0.086389698 0.11483273
0.22733316 -0.061643735 0.11636654
-0.23874602 -0.023593627 0.11165357
0.21687201 0.0011113603 0.11385661
-0.23874599 0.041337505 0.11425793
-0.23874599 0.087285444 0.11652224
0.23874602 0.12584126 0.11935013
-0.14400403 0.35748801 0.11054313
-0.064113833 0.35748801 0.11923368
0.050674506 0.35748801 0.1142659
-0.23376358 -0.35748801 0.12076458
-0.071751401 -0.35748801 0.12224302
0.082077861 -0.35748801 0.12241162
-0.238746 -0.33644819 0.12528208
-0.238746 -0.2467936 0.12001616
0.21162385 -0.13227513 0.12255631
-0.23874599 -0.11787543 0.12880632
-0.23874599 0.052029982 0.12242568
0.21687201 0.083260365 0.12200584
0.238746 0.14379293 0.12406205
0.21167529 0.18350694 0.12023661
0.23874602 0.18541563 0.12121653
0.21159126 0.32518595 0.12402278
-0.238746 0.34189513 0.12053635
0.2115718 0.34308454 0.12489556
-0.22855374 0.35748801 0.12487172
-0.18469781 0.35748798 0.12010436
-0.010645352 0.35748801 0.12277018
0.0093416944 0.35748801 0.12965758
0.010149699 0.35748801 0.12602721
0.024052802 0.35748801 0.12523235
-0.18922201 -0.35748798 0.13900819
-0.019119192 -0.35748801 0.13044849
0.21141307 -0.23389542 0.13080275
0.21122995 -0.16832492 0.13669066
0.21122004 -0.13617308 0.13701087
0.23874599 -0.080089644 0.13382539
-0.23874599 -0.056781143 0.13196659
0.238746 -0.056494579 0.13438316
-0.23874602 -0.00034202635 0.13196588
0.21687201 0.067474887 0.13398643
0.22016831 0.061589181 0.13953064
0.21122488 0.1004491 0.13685438
-0.23874599 0.11683197 0.13376018
0.21133684 0.16987157 0.13325298
0.238746 0.18883726 0.13508263
0.21138959 0.24433106 0.13155791
0.21131277 0.30851746 0.13402629
-0.15990281 0.35748801 0.13674402
0.12751068 0.35748801 0.13836285
-0.23800997 -0.35748801 0.14090134
-0.11449522 -0.35748801 0.14446026
0.18449815 -0.35748801 0.1455375
-0.238746 -0.23653491 0.14143878
0.23163633 0.066608846 0.14528374
0.238746 0.10089048 0.14970991
0.21084744 0.32530683 0.1489846
-0.13023496 0.35748801 0.14289515
-0.031444862 0.35748801 0.14384323
0.11208871 0.35748801 0.14681692
0.15514405 -0.35748804 0.15561078
0.2108061 -0.35723859 0.15031292
0.21069337 -0.34996346 0.15393624
-0.23874599 -0.21323043 0.1539913
-0.23874602 0.018899061 0.15789226
0.238746 0.16834912 0.15708536
0.20797525 0.17957671 0.15632087
-0.238746 0.20745057 0.15383996
-0.14431137 0.35748801 0.15583391
0.15182531 0.35748801 0.15098543
0.16044414 0.35748804 0.15485218
0.14585024 -0.35748801 0.16961399
0.21024574 -0.35717639 0.16832446
-0.23874599 -0.25142598 0.16412909
-0.238746 -0.23050457 0.16728619
0.21029866 -0.10436807 0.1666259
0.238746 -0.068906888 0.16842026
0.21048073 -0.041009419 0.16077171
0.23874599 0.16411251 0.16199091
-0.238746 0.19704957 0.16055092
0.21027309 0.27483907 0.1674474
-0.010019228 0.35748801 0.1674979
0.14173217 -0.35748801 0.17080237
0.20995896 -0.3242276 0.17592731
-0.23874599 -0.19894983 0.17956729
0.21019104 -0.1856689 0.17008337
-0.238746 -0.16753992 0.1710961
-0.238746 -0.13421667 0.1717668
-0.238746 -0.0036470294 0.17383239
0.23874602 0.085203446 0.17772239
-0.23874602 0.11972924 0.17154993
-0.23874599 0.20965016 0.17900456
-0.238746 0.33308053 0.1728286
-0.1488362 0.35748801 0.17700331
0.20942238 -0.19222537 0.18933991
-0.23874599 -0.1819202 0.18446994
-0.23874602 0.02662706 0.18760389
0.23874602 0.075650342 0.18973057
0.20945202 0.091185272 0.18859914
-0.23874602 0.11152466 0.18828021
-0.21635491 0.35748798 0.18209985
-0.14051506 0.35748801 0.18525876
-0.10388266 0.35748801 0.1827561
-0.075707756 0.35748801 0.18639582
-0.046376497 0.35748798 0.18387647
0.07254687 0.35748804 0.18459633
-0.23764558 -0.35748804 0.19429874
-0.238746 -0.28533453 0.19813542
-0.23874602 -0.24987081 0.1919845
0.238746 -0.057137303 0.19340855
-0.238746 -0.022856057 0.19791746
0.20908396 0.045977507 0.19779806
0.20932651 0.052332759 0.19173039
0.20905749 0.30243695 0.19846092
-0.221488 0.35748801 0.19962949
-0.18831739 0.35748801 0.19670835
-0.16401337 -0.35748798 0.20178375
-0.094396524 -0.35748798 0.20630115
-0.238746 -0.28126886 0.20998438
-0.238746 -0.17963056 0.20650125
-0.23874599 -0.090648554 0.20079276
-0.23874602 -0.080178805 0.20972018
0.20894174 0.033981711 0.20135415
0.20897113 0.16950801 0.20061554
0.20889074 0.2617982 0.20262843
0.20887493 0.29806361 0.20302409
-0.12585141 0.35748801 0.20063964
-0.071035184 0.35748801 0.2000187
-0.061549954 0.35748801 0.20145193
0.15227692 0.35748801 0.20032439
-0.23874599 -0.30851755 0.21326108
-0.238746 -0.20613328 0.21275264
0.20853308 -0.16136539 0.21156165
-0.23874599 -0.072161108 0.21134847
-0.238746 -0.0096024573 0.21449819
0.21620865 0.011423426 0.21617593
0.20824954 0.11942893 0.21759412
-0.238746 0.16926643 0.21773539
-0.238746 0.19851479 0.21629024
-0.05328111 0.35748801 0.21306147
0.0048105195 0.35748801 0.21525086
0.13891685 0.35748804 0.21094158
0.18137768 0.35748801 0.21515654
-0.15091437 -0.35748801 0.22267738
-0.238746 -0.18680027 0.22651723
0.20809077 0.17177248 0.22084038
0.20791914 0.1883207 0.22434962
-0.238746 0.22482654 0.22885737
-0.16021788 0.35748801 0.2238958
0.20777395 0.35730493 0.22731793
-0.16045032 -0.35748801 0.23809198
-0.021399945 -0.35748801 0.23476601
0.072552361 -0.35748801 0.23891392
-0.23874599 -0.2816354 0.23013201
0.20728795 -0.13180867 0.23725563
-0.238746 -0.12127627 0.23339021
-0.238746 0.17563547 0.23364303
-0.20801282 0.35748801 0.23191664
-0.074098475 0.35748798 0.23497194
-0.11714911 -0.35748801 0.24065804
0.021039575 -0.35748801 0.24574354
-0.238746 -0.26560906 0.24871708
-0.23874602 -0.224664 0.24536106
-0.238746 -0.15959063 0.24362721
0.20706254 -0.12801278 0.24186407
0.20689708 -0.10345446 0.24524687
0.20674998 0.06616658 0.24825394
-0.23874599 0.08472833 0.24168482
-0.238746 0.16416419 0.24908122
-0.17149039 0.35748801 0.24890341
-0.06759569 0.35748801 0.24233127
0.08140526 0.35748801 0.24789461
-0.15431431 -0.35748801 0.25501281
0.090689316 -0.35748801 0.25504789
0.11111297 -0.35547441 0.255348
0.1617308 -0.35563779 0.255348
-0.23874599 -0.34142521 0.25189286
0.035445221 -0.34363645 0.255348
0.080458395 -0.33215287 0.255348
0.11497313 -0.331963 0.255348
0.20645991 -0.33909324 0.25418481
0.093934432 -0.32400978 0.255348
0.12828952 -0.31630549 0.255348
-0.00082770735 -0.3075093 0.255348
0.18559545 -0.29914123 0.255348
-0.18613145 -0.28015262 0.255348
0.077308103 -0.28212273 0.255348
0.19479769 -0.28695953 0.255348
-0.061806224 -0.27587754 0.255348
-0.047744833 -0.2719689 0.255348
-0.012969613 -0.2709716 0.255348
0.19872244 -0.27694213 0.255348
-0.20549747 -0.26969102 0.255348
0.14663498 -0.26444331 0.255348
0.15601809 -0.26297879 0.255348
-0.11075728 -0.256984 0.255348
-0.048232131 -0.25143573 0.255348
0.14332275 -0.25687975 0.255348
-0.22977795 -0.24122488 0.255348
-0.20238154 -0.24265653 0.255348
-0.23874602 -0.23094283 0.2534095
-0.057324748 -0.23555109 0.255348
0.18670143 -0.23739426 0.255348
-0.23058133 -0.22359699 0.255348
-0.19225582 -0.22564769 0.255348
-0.055926532 -0.22940859 0.255348
0.015317835 -0.22467539 0.255348
0.053112064 -0.22406891 0.255348
-0.068854168 -0.21961376 0.255348
-0.017498873 -0.21365321 0.255348
0.01378905 -0.21813697 0.255348
0.03915571 -0.21329367 0.255348
0.15014127 -0.21606481 0.255348
0.076075882 -0.20537114 0.255348
0.13015716 -0.20320317 0.255348
-0.23650567 -0.18072908 0.255348
0.019898266 -0.18370467 0.255348
0.18904842 -0.18764718 0.255348
-0.12045828 -0.17506923 0.255348
-0.0880481 -0.17680044 0.255348
-0.22671011 -0.16485256 0.255348
-0.080820151 -0.16368373 0.255348
0.032481916 -0.16838054 0.255348
-0.01774326 -0.1515215 0.255348
0.10339053 -0.15306085 0.255348
0.11734331 -0.15770182 0.255348
-0.21163531 -0.14023051 0.255348
0.059753414 -0.14383948 0.255348
-0.11523525 -0.13531677 0.255348
-0.029090688 -0.13960281 0.255348
-0.15714897 -0.11104174 0.255348
-0.04200612 -0.11780488 0.255348
0.070263259 -0.11273003 0.255348
0.1581417 -0.10628985 0.255348
0.18188393 -0.10800029 0.255348
-0.21562965 -0.095765665 0.255348
-0.17013218 -0.096185483 0.255348
0.038007788 -0.094135836 0.255348
0.12915456 -0.091625616 0.255348
0.20665944 -0.099870682 0.25010556
-0.2073953 -0.086268321 0.255348
-0.013924968 -0.07055302 0.255348
0.036961183 -0.073108882 0.255348
-0.092145324 -0.065385506 0.255348
0.041867219 -0.068303458 0.255348
-0.033723898 -0.056646474 0.255348
0.011884939 -0.058587849 0.255348
0.024701841 -0.050152987 0.255348
-0.22478944 -0.044038609 0.255348
-0.13826936 -0.045009315 0.255348
0.071028583 -0.043498855 0.255348
-0.19593212 -0.030866861 0.255348
-0.1538146 -0.032628704 0.255348
-0.13021865 -0.037425261 0.255348
-0.15604886 -0.023454148 0.255348
-0.14020266 -0.020779949 0.255348
-0.19819394 0.0071554929 0.255348
0.060375307 0.00052078068 0.255348
0.077595554 0.018519189 0.255348
0.090645663 0.013780624 0.255348
0.14959279 0.013009444 0.255348
0.19536428 0.015227102 0.255348
-0.20917833 0.029096127 0.255348
0.023335686 0.027540511 0.255348
0.18815823 0.029697021 0.255348
-0.22026743 0.036147654 0.255348
-0.20511352 0.039471149 0.255348
0.066145003 0.036972396 0.255348
0.19352855 0.038498379 0.255348
-0.23782322 0.049152911 0.255348
-0.086015686 0.046090156 0.255348
-0.078763507 0.049955234 0.255348
-0.16761564 0.050242253 0.255348
0.096913174 0.05839612 0.255348
0.14227541 0.053086735 0.255348
-0.23026294 0.067051046 0.255348
-0.23531544 0.081709817 0.255348
-0.16982564 0.087043047 0.255348
-0.13008651 0.086369194 0.255348
-0.027590431 0.083193362 0.255348
0.18931113 0.083195999 0.255348
0.19615062 0.080838472 0.255348
-0.073899873 0.099296443 0.25534803
-0.09688779 0.11484865 0.255348
-0.084920578 0.11654608 0.255348
0.20568576 0.11191673 0.255348
-0.238746 0.12857443 0.25279817
-0.07736697 0.12701303 0.255348
0.14284989 0.12556545 0.255348
-0.072123326 0.13833086 0.255348
0.10401169 0.1368307 0.255348
-0.13465722 0.14389531 0.255348
0.0045581907 0.14863235 0.255348
-0.22060241 0.15316917 0.255348
-0.18843375 0.15889515 0.255348
-0.16218679 0.15000631 0.255348
0.019145653 0.15293512 0.255348
0.10167605 0.15437929 0.255348
-0.14996642 0.16708551 0.255348
-0.075978734 0.16185534 0.255348
-0.034898642 0.18926544 0.255348
-0.051185105 0.19771406 0.255348
0.17095864 0.19443485 0.255348
0.15470292 0.20595783 0.255348
-0.092329979 0.21990351 0.255348
0.14830637 0.21265817 0.255348
-0.1162826 0.2282511 0.255348
-0.049249806 0.22995025 0.255348
0.14475124 0.22631955 0.255348
-0.1005121 0.23772335 0.255348
-0.028251514 0.23142815 0.255348
0.10843495 0.23298906 0.255348
0.11806408 0.23857221 0.255348
0.12124489 0.23135981 0.255348
-0.094240785 0.24991331 0.255348
-0.079310276 0.24599674 0.255348
-0.20505783 0.254702 0.255348
0.12248582 0.25498757 0.255348
-0.026569724 0.26482406 0.255348
-0.13612239 0.27821505 0.255348
0.19073306 0.27890557 0.255348
-0.238746 0.28498074 0.25304514
-0.11108454 0.28775522 0.255348
-0.10772094 0.28410211 0.255348
-0.063249983 0.28413808 0.255348
0.16013575 0.28502133 0.255348
-0.17349806 0.29999113 0.255348
-0.1228015 0.29709926 0.255348
0.037278496 0.30049238 0.25534797
0.076300338 0.30189592 0.255348
0.19754988 0.30950713 0.255348
-0.18835489 0.31728178 0.255348
-0.12929425 0.31751975 0.25534797
0.041874416 0.31414652 0.255348
0.081704378 0.31558034 0.255348
0.19624701 0.32574961 0.255348
-0.0625965 0.33457309 0.255348
0.014618901 0.33182856 0.255348
-0.18160111 0.34501517 0.255348
-0.024308145 0.34522188 0.255348
0.17845075 0.34593421 0.255348
-0.021747924 0.35112822 0.255348
0.017291026 0.35748801 0.25102091
0.077005461 0.35748801 0.25369048
