# .PCD v0.7 - Point Cloud Data file format
VERSION 0.7
FIELDS x y z
SIZE 4 4 4
TYPE F F F
COUNT 1 1 1
WIDTH 988
HEIGHT 1
VIEWPOINT 0 0 0 1 0 0 0
POINTS 988
DATA ascii
-0.082581043 -0.33578897 -0.237115
0.20126307 -0.33591199 -0.23594271
-0.21941902 -0.32949501 -0.237115
0.24545117 -0.31009319 -0.237115
0.055665322 -0.3048766 -0.237115
0.25930253 -0.29080832 -0.237115
-0.1337287 -0.28855699 -0.237115
-0.021820933 -0.28183663 -0.237115
0.056840893 -0.28420365 -0.237115
0.1006024 -0.2817778 -0.237115
0.19368951 -0.2844035 -0.237115
-0.14483611 -0.27806497 -0.237115
-0.027645223 -0.27518913 -0.237115
-0.25888848 -0.26455683 -0.237115
-0.22439404 -0.26737699 -0.237115
-0.082803383 -0.26559967 -0.237115
-0.049191386 -0.26755434 -0.237115
-0.01329118 -0.26883292 -0.237115
-0.11765856 -0.25728714 -0.237115
0.071123734 -0.25882924 -0.237115
-0.14140728 -0.2457943 -0.237115
-0.077267386 -0.24115038 -0.237115
-0.012201896 -0.24895066 -0.237115
0.12666543 -0.24179448 -0.237115
-0.2372971 -0.23437513 -0.237115
0.021656796 -0.23131698 -0.237115
0.16859815 -0.22783285 -0.237115
-0.072959527 -0.2137872 -0.237115
-0.26982868 -0.2032896 -0.23711501
0.04331927 -0.20268366 -0.237115
0.13439086 -0.20757325 -0.237115
-0.24810083 -0.19515966 -0.237115
-0.0023146793 -0.19003844 -0.237115
0.12301001 -0.18868142 -0.237115
-0.064392388 -0.17793077 -0.237115
-0.17741548 -0.16725291 -0.237115
-0.059120193 -0.16009 -0.237115
-0.24916881 -0.15535954 -0.237115
-0.076642476 -0.15574989 -0.237115
0.0040923879 -0.143282 -0.237115
0.086610459 -0.14724666 -0.237115
-0.10380847 -0.13780367 -0.237115
-0.19473621 -0.12618676 -0.237115
-0.13051061 -0.12082392 -0.237115
0.15560301 -0.12864311 -0.237115
0.22330295 -0.12427293 -0.237115
0.25938779 -0.12396816 -0.237115
0.048061304 -0.11714498 -0.237115
0.16956575 -0.11306023 -0.237115
0.015883543 -0.10345468 -0.237115
0.046251625 -0.10123894 -0.237115
0.28314283 -0.10083798 -0.23146182
-0.22897992 -0.094325826 -0.237115
-0.00490354 -0.099866152 -0.237115
0.23213518 -0.093605399 -0.237115
-0.12893537 -0.082713127 -0.237115
-0.28363621 -0.077231824 -0.237115
-0.23679435 -0.072284609 -0.237115
-0.070272855 -0.075594932 -0.237115
-0.069174789 -0.075975701 -0.237115
0.20996234 -0.073465712 -0.237115
0.24428178 -0.073014066 -0.237115
-0.17078236 -0.06669382 -0.237115
-0.085943758 -0.067572318 -0.237115
-0.16487551 -0.056986071 -0.237115
-0.14928529 -0.059542485 -0.237115
-0.11039595 -0.054789104 -0.237115
0.25493705 -0.04171811 -0.237115
0.085004263 -0.035463329 -0.237115
-0.27419382 -0.026349351 -0.237115
0.24534658 -0.023989022 -0.237115
-0.16427253 -0.015471578 -0.237115
-0.20069721 -0.0051916689 -0.237115
0.0037109738 -0.00078341132 -0.237115
0.014772625 -0.0055511184 -0.237115
-0.25681347 0.0067935139 -0.237115
-0.025524188 0.015026757 -0.237115
-0.12868766 0.028968394 -0.237115
-0.046664916 0.029507354 -0.23711498
0.032009024 0.028686615 -0.237115
0.26290318 0.023646981 -0.23711501
-0.056479402 0.038101673 -0.237115
0.023932062 0.03659676 -0.237115
-0.1151077 0.044333056 -0.237115
0.15497959 0.049913518 -0.237115
0.2648595 0.045338284 -0.237115
0.20413557 0.052576885 -0.237115
-0.11310796 0.060496688 -0.237115
0.055501696 0.060995519 -0.237115
0.20693628 0.06339062 -0.23711498
0.035264231 0.079275638 -0.237115
0.096512072 0.08382953 -0.237115
0.10695803 0.085723512 -0.237115
0.14809452 0.083006591 -0.237115
-0.22958736 0.098734543 -0.237115
0.16526771 0.09715493 -0.23711501
0.075297765 0.10464074 -0.237115
0.10335401 0.10763921 -0.237115
-0.26695633 0.11503279 -0.237115
-0.12357157 0.1143168 -0.237115
0.14240584 0.11991904 -0.237115
0.17030144 0.1107225 -0.237115
-0.083928674 0.1250065 -0.237115
0.095928438 0.12256309 -0.237115
0.15126063 0.12777662 -0.237115
0.21584572 0.12417444 -0.237115
-0.25179172 0.13733065 -0.237115
0.004725486 0.13917431 -0.237115
0.268769 0.13370727 -0.23459785
-0.22896758 0.14141643 -0.237115
-0.24668291 0.15154469 -0.237115
-0.091022246 0.15900469 -0.237115
0.15668286 0.15937725 -0.237115
-0.036680736 0.17439789 -0.237115
-0.0038311146 0.17836562 -0.237115
-0.21090479 0.18465027 -0.237115
0.11207128 0.19388837 -0.237115
0.054735519 0.20636392 -0.237115
-0.057361607 0.21463509 -0.237115
0.093939945 0.21126938 -0.237115
-0.076566599 0.22935268 -0.237115
0.19007495 0.23914014 -0.237115
0.232907 0.23667054 -0.237115
-0.19538575 0.24597567 -0.237115
-0.12131611 0.24268049 -0.237115
-0.094236985 0.2495081 -0.237115
-0.18912484 0.25278756 -0.237115
0.062639587 0.25990859 -0.237115
-0.22231397 0.26963764 -0.237115
-0.05009231 0.26974684 -0.237115
0.032906182 0.26355645 -0.237115
0.072858863 0.26008052 -0.237115
0.1765849 0.26264003 -0.237115
-0.12824479 0.27003413 -0.237115
-0.097658955 0.27272511 -0.237115
-0.06762553 0.27629709 -0.237115
-0.25233364 0.29106772 -0.237115
-0.16739532 0.31732658 -0.237115
0.17720504 0.31976432 -0.237115
0.20256574 0.31595054 -0.237115
-0.02605325 0.32004598 -0.237115
0.040799469 0.32993436 -0.237115
0.21464214 0.32899347 -0.23289666
0.20550552 0.33591199 -0.23695605
-0.265356 -0.33591199 -0.22230424
-0.00081019104 -0.33591199 -0.22510722
0.268769 -0.29904398 -0.22620188
0.268769 -0.22128907 -0.22293295
-0.28449801 -0.19979151 -0.22933021
0.26990873 0.011812826 -0.22347392
-0.28449801 0.045353889 -0.22025293
0.268769 0.15385196 -0.22447488
0.26876903 0.16269673 -0.22322088
-0.12107865 0.33591199 -0.22427706
-0.041703649 0.33591199 -0.22741345
0.057590827 0.33591199 -0.22196712
-0.25715688 -0.33591199 -0.21988045
-0.050913207 -0.33591199 -0.21028891
0.268769 -0.2893489 -0.21600406
0.27614754 -0.15675411 -0.21448502
-0.28232503 -0.1100787 -0.21092977
-0.21765104 -0.10851915 -0.21147095
-0.1684313 -0.10281027 -0.21288137
-0.028896049 -0.10756296 -0.21180277
-0.23857343 -0.09502013 -0.21344514
-0.087550424 -0.098842897 -0.21316849
0.19499196 -0.091078222 -0.21373042
-0.14112794 -0.080208242 -0.21451709
-0.049590107 -0.088444874 -0.21392101
0.057849489 -0.063742384 -0.21570876
0.12181491 -0.069902733 -0.21526292
-0.13283847 -0.039563112 -0.21513981
0.038449436 -0.039628971 -0.21515246
0.090387985 -0.033766165 -0.21402757
-0.13608311 -0.026684443 -0.21266881
0.12047936 -0.029097762 -0.21313184
-0.071191035 -0.019792268 -0.2113464
0.26963046 0.046949256 -0.21035488
-0.28449798 0.25243562 -0.21600351
-0.28449801 0.29790449 -0.21944995
-0.16182847 0.33591199 -0.21304974
0.034833252 -0.33591199 -0.20730549
0.268769 -0.24068114 -0.20286901
-0.11719479 -0.13105917 -0.2036493
-0.033125885 -0.12359839 -0.20623828
0.28449801 -0.12451331 -0.20165983
-0.15136454 -0.11377531 -0.209647
-0.16807452 -0.011463093 -0.2097483
-0.021648984 -0.0030631735 -0.2081366
-0.28449801 0.0055684228 -0.20971382
-0.26238889 0.0074236724 -0.20610237
0.13411242 0.018199904 -0.20087877
0.268769 0.065788805 -0.20587216
-0.28449801 0.18172857 -0.20668623
-0.28449801 0.22706707 -0.20136929
-0.15586764 0.33591199 -0.20477605
0.060708135 0.33591199 -0.20774867
0.19736744 0.33591199 -0.20823655
-0.24841282 -0.33591199 -0.1981937
-0.28449801 -0.28957659 -0.19413087
-0.28449801 -0.26686871 -0.19282904
-0.24757287 -0.15965889 -0.19332601
0.19556881 -0.14897324 -0.19743294
-0.28449801 -0.071056508 -0.19545488
-0.054655023 0.025490154 -0.1973449
0.13051701 0.038759876 -0.1909126
-0.28449801 0.19629987 -0.19469234
0.2572805 0.25550088 -0.19801594
0.037295178 0.33591199 -0.19293904
0.073955566 0.33591199 -0.19294223
0.10515031 0.33591199 -0.19052453
-0.11719722 -0.33591199 -0.18013263
-0.048949003 -0.33591199 -0.18423559
0.081178837 -0.33591199 -0.18435566
0.14805098 -0.33591199 -0.18364182
-0.065645292 -0.17591101 -0.18230623
-0.019801587 -0.1720328 -0.18493587
0.20804656 -0.060008183 -0.18029919
0.21398343 -0.047730371 -0.18100342
0.27569672 -0.044081859 -0.18024687
-0.12300463 0.051743578 -0.18461896
-0.098387972 0.058869064 -0.18097511
0.11987264 0.05371777 -0.183662
0.28449801 0.056961369 -0.18579434
-0.28449801 0.071070701 -0.1859486
-0.28449801 0.24174576 -0.18906425
0.26489434 0.24061346 -0.18035887
-0.27381724 0.33591199 -0.18723437
0.1173147 0.33591199 -0.18222134
-0.081693672 -0.33591199 -0.17352897
0.060956463 -0.33591199 -0.17980368
0.086714409 -0.33591199 -0.17454469
-0.28449801 -0.20115426 -0.17155631
-0.24430476 -0.19153503 -0.17171234
0.046180844 -0.18391781 -0.1768772
0.26345497 -0.11755082 -0.17084789
-0.28449801 -0.079495184 -0.17014277
0.26721147 -0.038372684 -0.17906302
0.27012873 -0.035407938 -0.17844826
0.24960686 -0.022575716 -0.17578737
0.26363862 -0.011440659 -0.17347842
-0.24169262 0.066750109 -0.1741575
-0.11661245 0.06971398 -0.17159356
0.268769 0.21300222 -0.17944564
0.26234412 0.24559948 -0.17668629
-0.15026805 0.33591199 -0.17847587
-0.2772921 -0.33591199 -0.16003929
-0.1395826 -0.33591199 -0.1626742
-0.074051991 -0.33591199 -0.16206592
-0.05464638 -0.33591199 -0.16033299
-0.28449801 -0.27604499 -0.16405462
0.268769 -0.27420396 -0.16755673
-0.28449801 -0.26942649 -0.16332823
0.27304471 -0.22932521 -0.16564775
-0.1545825 -0.20115073 -0.1651924
0.045072619 -0.19842876 -0.16703801
-0.28449801 -0.1754435 -0.16471186
0.26775607 -0.13185386 -0.16612147
0.24737185 0.013514958 -0.16390789
-0.21810541 0.080532387 -0.16223493
-0.16888864 0.081051692 -0.16178571
0.26883763 0.10454363 -0.16829327
0.28435671 0.11100835 -0.16045824
-0.28449801 0.18099141 -0.16215849
-0.28449801 0.19701704 -0.16024508
0.2414501 0.28645313 -0.1675823
-0.28449801 0.30018649 -0.16289854
-0.28449801 0.32905823 -0.16606988
-0.27633452 0.33591199 -0.16334887
-0.22382943 0.33591199 -0.16501732
-0.068140551 0.33591199 -0.16803618
-0.037373148 0.33591199 -0.16943727
0.11779009 0.33591199 -0.16680641
-0.22646871 -0.33591199 -0.15750019
-0.016639195 -0.33591199 -0.1547575
0.0051851869 -0.33591199 -0.15516788
0.268769 -0.32543331 -0.15319613
-0.28449801 -0.22201991 -0.15103467
-0.041543595 -0.21478836 -0.15145046
0.11564508 -0.21073058 -0.15614131
0.17871314 -0.21226951 -0.15436229
-0.28449801 -0.074249245 -0.15336597
0.26182792 0.022900308 -0.15918453
-0.011397824 0.085556179 -0.15788904
-0.062981129 0.094100088 -0.150498
0.14341184 0.092119627 -0.15221122
0.18797427 0.092446215 -0.15192869
-0.28449801 0.17099585 -0.15606028
0.1902705 0.33591199 -0.15353569
-0.24910399 -0.33591199 -0.14354543
-0.033742815 -0.33591199 -0.14829013
0.08192835 -0.33591199 -0.14177696
0.15697001 -0.33591199 -0.14170818
-0.28449801 -0.28565282 -0.14494982
-0.28449798 -0.20832996 -0.14630884
0.19739801 -0.14434487 -0.1480941
0.28449801 0.077906296 -0.14096706
-0.024224805 0.098157719 -0.14698789
0.15264674 0.098220967 -0.14693315
0.16439141 0.09675014 -0.14820553
0.023094915 0.10292601 -0.14184155
0.28349033 0.12280724 -0.14615837
-0.28449801 0.1494951 -0.14206192
0.25626761 0.21755697 -0.14167771
0.22359407 0.32136631 -0.14373092
0.16034552 0.33591199 -0.14349702
-0.11458614 -0.33591199 -0.13502248
0.053862758 -0.33591199 -0.13697897
0.18979536 -0.33591199 -0.13226551
0.268769 -0.31091166 -0.13692014
-0.24059837 -0.228311 -0.13581787
0.016204253 -0.22629207 -0.13815206
0.02466394 -0.22852887 -0.13556632
0.081628822 -0.22715917 -0.13714972
-0.28449801 -0.18930012 -0.13976857
0.19739801 0.084475808 -0.13242297
0.039972126 0.10427251 -0.13985559
0.065073498 0.10519888 -0.13848931
0.071371399 0.11073837 -0.13031915
0.096520752 0.1102865 -0.1309856
0.27711019 0.13292123 -0.13390052
-0.048684411 0.33591199 -0.13071594
0.268769 -0.30843288 -0.12568662
-0.031955317 -0.23793182 -0.12469633
0.044262201 -0.23491499 -0.12818374
0.064025834 -0.23971771 -0.12263186
0.078701876 -0.23718968 -0.12555423
0.28449801 -0.22753447 -0.12402076
0.19739801 -0.034636404 -0.12578608
-0.25131097 0.11566573 -0.12305182
-0.029968645 0.11426107 -0.12512356
0.18016286 0.11346837 -0.12629271
0.28247672 0.14008929 -0.12488653
-0.09653616 0.33591199 -0.12349367
-0.042750843 0.33591199 -0.12002952
-0.031311333 0.33591199 -0.12773016
0.05059737 0.33591199 -0.12605157
0.051034212 -0.33591199 -0.11149497
0.28449801 -0.25461918 -0.11404298
-0.21177828 -0.24451625 -0.11523625
-0.10457106 -0.2435414 -0.11724728
0.026449807 -0.2431397 -0.11807596
0.1336844 -0.2457628 -0.11266476
0.26547527 -0.19651577 -0.11847693
-0.28449801 -0.1885989 -0.1139058
0.19739801 -0.16468328 -0.1185227
-0.28449801 -0.14406894 -0.11671235
-0.12747937 0.12070364 -0.11562145
0.27258235 0.14426804 -0.11572788
0.26221451 0.24585333 -0.11570394
-0.28420958 0.33591199 -0.11384191
-0.02877181 0.33591199 -0.11344001
0.07864438 0.33591199 -0.11257955
0.10172413 -0.33591199 -0.10757434
0.15080965 -0.33591199 -0.10246781
-0.28449801 -0.30343145 -0.10274567
-0.17827293 -0.24886844 -0.10625812
-0.0035928488 -0.24860641 -0.10679868
-0.28449801 -0.18889673 -0.10314113
-0.28449801 0.062892035 -0.10790474
-0.082189649 0.12463814 -0.1098185
-0.28449798 0.17110719 -0.10823251
0.25164229 0.26652527 -0.10023386
-0.28449801 0.33363855 -0.10843828
0.10405149 0.33591199 -0.10856399
-0.27282628 -0.33591199 -0.093644336
-0.16406476 -0.33591199 -0.096268579
-0.064222604 -0.25397977 -0.095713943
0.049732644 -0.25626752 -0.090994522
0.25390765 -0.21290104 -0.098585531
0.2811648 -0.21399716 -0.096407466
-0.28449801 -0.14597592 -0.098724946
-0.28449801 0.05149116 -0.091954067
0.27709132 0.091269411 -0.095830441
-0.23267785 0.1349722 -0.091901943
-0.14049824 0.1342843 -0.093883947
-0.09110295 0.13529648 -0.09096732
-0.035680495 0.13416235 -0.094235197
0.03385834 0.13376123 -0.095390931
0.27731556 0.15188354 -0.09903679
-0.28449801 0.17468292 -0.099021047
0.268769 0.19796397 -0.094496086
-0.28449801 0.22964334 -0.094138414
-0.22824103 -0.33591199 -0.088191032
0.039914034 -0.33591199 -0.085140817
0.19291577 -0.33591199 -0.088495553
0.23039193 -0.33591199 -0.084677316
-0.28449801 -0.2960088 -0.080610439
0.28449801 -0.27845746 -0.082359277
0.14166647 -0.26059327 -0.082070954
-0.013177502 -0.25687122 -0.089749187
0.19739801 -0.21585001 -0.081458345
0.19739801 -0.12658268 -0.08381106
0.19739801 -0.055488784 -0.08017616
-0.28449801 0.043809608 -0.083704293
0.27179289 0.10036238 -0.08197967
-0.26733127 0.13684323 -0.086510643
-0.13764271 0.13769241 -0.084063604
-0.070920229 0.1370391 -0.085945994
0.16092888 0.13574253 -0.089681685
-0.28449801 0.19400522 -0.083396122
0.2444461 0.28059551 -0.084218837
0.22899258 0.31081092 -0.089834884
0.21871251 0.33091098 -0.083030328
-0.18019275 -0.33591199 -0.07245554
0.065685257 -0.33591199 -0.073178597
0.12036587 -0.33591199 -0.075967997
-0.26163906 -0.26394323 -0.075160354
0.20007727 -0.22317562 -0.078169473
0.033957079 0.14185581 -0.072066709
0.12039584 0.14105865 -0.074363589
0.268769 0.18947369 -0.077538148
0.22150749 0.32544613 -0.078770146
-0.16640289 0.33591199 -0.071715958
-0.25802234 -0.33591199 -0.064376064
0.28449801 -0.2816025 -0.065733127
-0.28353378 -0.26859447 -0.061208609
-0.094733 -0.26654387 -0.069795422
0.13918142 -0.26735634 -0.067661725
0.28128734 -0.22853959 -0.06751103
0.19739801 -0.079018071 -0.06165792
0.15104984 0.14316756 -0.068286911
0.2519213 0.24241585 -0.068088189
-0.28449801 0.31661049 -0.065901518
0.021651052 0.33591199 -0.067749396
-0.20045516 -0.33591199 -0.059535354
-0.18951736 -0.33591199 -0.057764791
-0.07673911 -0.33591199 -0.051939581
0.19479877 -0.33591199 -0.055173609
0.26730609 -0.33591199 -0.055116095
-0.041848484 -0.27028877 -0.05237814
-0.26071948 -0.26924458 -0.057820331
-0.00051319599 -0.2691249 -0.058444127
0.069345631 -0.26993692 -0.054212078
0.19739801 -0.25706899 -0.054417871
-0.28449801 -0.24224818 -0.051634677
0.27950856 -0.23389308 -0.052795745
0.28353247 -0.23436712 -0.050509755
0.19739801 0.09368138 -0.054290172
0.24615575 0.11173093 -0.050565153
-0.10344447 0.14791082 -0.054619521
-0.28449801 0.19520222 -0.054288294
-0.26194033 0.33591199 -0.050810106
-0.11125325 0.33591199 -0.050960407
-0.2247709 -0.33591199 -0.042190284
0.0094250888 -0.33591199 -0.049220912
0.096927628 -0.33591199 -0.049603447
-0.0072789192 -0.27090961 -0.049142495
0.1723734 -0.27112195 -0.048035763
0.19739801 -0.24188887 -0.048567422
-0.28449801 -0.22167116 -0.048448011
0.19739801 0.095344946 -0.049161948
0.19739801 0.11474555 -0.047726184
0.268769 0.17974415 -0.04163808
-0.28449801 0.2792176 -0.041796848
-0.23884566 0.33591199 -0.045647837
-0.18346786 0.33591199 -0.041550018
0.084067665 0.33591199 -0.048338156
-0.10803657 -0.33591199 -0.03029659
0.024208974 -0.27329949 -0.036686741
0.16098917 -0.27314281 -0.037503261
-0.28449801 -0.02616244 -0.036320385
-0.28449801 -0.005512625 -0.039562214
-0.28449801 0.0044259918 -0.03268626
-0.28449801 0.041861024 -0.039263278
0.2587873 0.11737026 -0.03129293
-0.24850482 0.15216248 -0.036872078
-0.27913567 0.33591199 -0.03110332
-0.20254591 0.33591199 -0.03476882
-0.14594963 0.33591199 -0.034588397
-0.072999112 0.33591199 -0.034738943
0.15120645 0.33591199 -0.038345963
-0.20945454 -0.33591199 -0.024286211
-0.12123019 -0.33591199 -0.029890027
-0.28449801 -0.31775224 -0.024573587
-0.23529345 -0.27648097 -0.020105207
0.05631239 -0.27562192 -0.024582654
0.13921489 -0.27634904 -0.020792916
0.28449801 -0.26784566 -0.027644616
-0.28449801 -0.25798842 -0.023451591
0.19739801 -0.15660602 -0.022233663
0.19739801 0.019586414 -0.028291659
-0.19616516 0.15307048 -0.024323497
-0.11779124 0.15280193 -0.02803478
0.24196444 0.28544775 -0.029032411
-0.20634031 0.33591199 -0.029163569
-0.035938524 0.33591199 -0.02134252
-0.087127447 -0.33591199 -0.017298266
-0.06428016 -0.33591199 -0.018899441
-0.22754012 -0.27673936 -0.018758528
-0.071146891 -0.27661169 -0.019424034
-0.28449801 -0.22790998 -0.018020893
-0.28449801 -0.0083982395 -0.018446485
-0.28449801 0.088056713 -0.014955069
0.19739801 0.13028105 -0.010448625
-0.22954734 0.15338363 -0.019995688
0.038695455 0.15408023 -0.010368744
0.27733371 0.17475936 -0.013728131
-0.023663867 -0.33591199 -0.005570007
0.268769 -0.30818233 -0.0084052272
0.28449801 -0.28696078 -0.0076022558
-0.060160436 -0.27760902 -0.0087823691
-0.28449801 -0.11174873 -0.0052894237
0.19739801 0.11165382 -0.0022880398
0.018271118 0.15473288 -0.0013486943
-0.28449801 0.24272086 -0.00088344514
-0.10823434 0.33591199 -0.0054209158
0.0974935 0.33591199 -0.0085586123
0.014829769 -0.33591199 0.0053812251
0.11197457 -0.33591199 0.00058531761
0.15484782 -0.33591199 0.0014173277
-0.20988828 -0.27634755 0.008655712
-0.19362631 -0.27644241 0.007344787
-0.10220177 -0.27638814 0.0080946973
0.053130329 -0.27684027 0.0018445451
0.063691445 -0.27662376 0.0048374347
0.16804934 -0.27665186 0.0044487761
0.22493036 -0.24104574 0.0046000192
0.19739801 -0.2207495 0.0014559439
0.19739801 0.078271337 0.0046549798
-0.28449804 0.08560124 0.0032547144
-0.28449801 0.13575357 0.0078977915
-0.14007927 0.1549986 0.0023235148
0.1248983 0.15526198 0.0059631933
0.19739801 0.15098977 0.00079060858
-0.28449801 0.19386968 0.0095154028
0.25309387 0.24505322 0.0053391843
0.12422566 0.33591199 0.00075913221
0.15804636 0.33591199 0.0085501969
0.13164368 -0.33591199 0.014224958
-0.28349903 -0.27613077 0.011652683
-0.15386124 -0.2762073 0.010594604
0.19739801 -0.2550157 0.010893654
0.19739801 -0.23626944 0.011518269
-0.28449801 -0.17480114 0.01184142
-0.28449801 0.017374119 0.019726131
-0.18134177 0.15574047 0.012576234
-0.16274515 0.1555604 0.010087494
-0.079219669 0.15545887 0.014263071
0.15222025 0.15567063 0.013159594
-0.28449801 0.25971404 0.010602973
-0.28449801 0.31618676 0.014645793
-0.15860936 0.33591199 0.01042936
-0.15360031 -0.33591199 0.026807535
-0.14875096 -0.33591199 0.025950734
-0.050883994 -0.33591199 0.021145999
0.268769 -0.29449034 0.029799208
-0.071517259 -0.27517545 0.024858436
0.2339375 -0.23966619 0.028643955
0.19739801 0.068721592 0.020882744
0.23791197 0.11651707 0.029806988
-0.032671764 0.15319529 0.026059713
0.268769 0.1755766 0.023818985
-0.27247494 0.33591199 0.027024269
-0.27409297 -0.33591199 0.039642021
0.2558018 -0.33591199 0.038091905
0.057646345 -0.27423525 0.037855379
0.2359242 -0.23791197 0.038348347
0.19739801 -0.13320203 0.035820857
0.19739801 -0.049211353 0.039835736
-0.28449801 0.077489465 0.035682969
0.28449801 0.14160243 0.03050407
-0.16681723 0.15102139 0.037388835
-0.28449801 0.32327908 0.037335262
-0.28386104 0.33591199 0.037973739
-0.23339088 0.33591199 0.033131376
-0.13840641 0.33591199 0.030229114
-0.037663065 0.33591199 0.038742915
-0.025048234 0.33591199 0.032952778
-0.24640398 -0.33591199 0.043304749
0.063984878 -0.33591199 0.049734507
0.268769 -0.30353591 0.042747825
-0.28449798 -0.28950799 0.049083248
-0.011184163 -0.27382022 0.043592401
0.28449801 -0.26229995 0.043680906
0.19739801 -0.25122637 0.04182402
0.20724234 -0.23523179 0.046459015
0.19739801 0.04049138 0.040804353
-0.28449801 0.096264631 0.04875439
0.28449801 0.12209887 0.048118223
0.28449801 0.13672519 0.042589419
-0.28449801 0.14892516 0.044543233
-0.25248951 0.14997467 0.042843737
-0.16686869 0.14911875 0.047304317
0.17624184 0.14877076 0.049117826
0.27893561 0.17007336 0.049901918
0.268769 0.19839223 0.046174962
-0.28449801 0.23569849 0.042101823
0.2107162 0.32727635 0.047187977
-0.26080778 0.33591199 0.040452857
-0.14853339 0.33591199 0.041395355
0.19590318 0.33591199 0.040084101
-0.039703313 -0.33591199 0.055219617
-0.1677281 -0.27081472 0.052429914
-0.22753388 -0.26840931 0.059360996
-0.28449801 -0.25075394 0.054174572
0.19739801 -0.15769568 0.054229453
-0.28449801 0.082409933 0.058151141
-0.28449801 0.093955286 0.057044886
-0.28449801 0.1295476 0.05108225
-0.19722548 0.14728807 0.056844838
0.17551064 0.14748557 0.055815563
-0.015596464 0.33591199 0.059278809
0.093191259 0.33591199 0.054988068
-0.21230054 -0.33591199 0.069778979
0.044787139 -0.33591199 0.06860701
-0.28449801 -0.14604774 0.062075358
-0.28449801 -0.090302065 0.06801948
-0.2750597 0.14616664 0.062689185
-0.14699212 0.14651628 0.060867019
0.062733255 0.14562057 0.065534949
-0.28449801 0.18558589 0.064557821
-0.045135245 0.33591199 0.060679339
0.015061922 0.33591199 0.06101118
0.063178226 0.33591199 0.061029069
0.27908158 -0.28277802 0.079856053
0.22928143 -0.22706532 0.071172245
-0.28449801 -0.20637564 0.073507905
-0.28449801 -0.126829 0.075223677
-0.28449801 0.061484642 0.079278365
0.28449801 0.11743534 0.077947527
0.28449801 0.12493057 0.076568618
-0.26938933 0.13968688 0.07951948
0.10141823 0.13945749 0.079992026
0.061421029 0.14277342 0.073151708
-0.14330022 0.33591199 0.07577201
-7.7566132e-05 0.33591199 0.070130967
0.13267502 -0.33591199 0.088749923
0.18091814 -0.33591199 0.083839938
0.268769 -0.30232197 0.08830075
0.17775665 -0.26052648 0.082074866
-0.0077065527 -0.25784621 0.089797899
0.13093843 -0.25835541 0.088330656
0.19739801 -0.23200154 0.088914834
-0.28449801 -0.11552267 0.080034301
-0.28449801 0.007618546 0.08910358
-0.23624238 0.13589631 0.087339818
-0.0016919784 0.33591199 0.089714691
0.10554808 0.33591199 0.084223159
0.17801745 -0.25579804 0.095699564
0.19739801 0.072874874 0.093582593
0.28449801 0.096602827 0.098341085
0.19739801 0.11874695 0.092611097
0.097774178 0.13146952 0.096470892
-0.28449801 0.22938871 0.094542325
-0.080944449 0.33591199 0.092954084
-0.018304005 -0.33591199 0.10773592
0.012019768 -0.33591199 0.10523449
0.12314974 -0.33591199 0.10105688
0.268769 -0.2861279 0.10985759
0.28449801 -0.25611553 0.10284977
-0.28449801 -0.22046389 0.10375166
-0.28449801 0.010990962 0.1066414
-0.1875529 0.12907097 0.10141952
-0.083758987 0.12874436 0.1020928
-0.048888698 0.129342 0.10085988
0.24753995 0.23462369 0.10414104
-0.28449801 0.32294589 0.1064986
-0.13320722 0.33591199 0.10489894
0.23289576 -0.20292673 0.11180307
0.19739801 -0.014766503 0.11528752
-0.28325093 0.12161716 0.11679611
-0.1453093 0.12489553 0.11003279
-0.28449801 0.22553775 0.11554745
0.049288806 0.33591199 0.11579278
0.20833316 0.33193627 0.11493057
-0.28330636 -0.33591199 0.12781362
0.11864533 -0.33591199 0.12650411
0.12087303 -0.33591199 0.12723184
0.16082306 -0.33591199 0.12254542
-0.28449801 -0.025341302 0.12848747
0.19739801 0.085189089 0.12713981
0.28449801 0.090277731 0.12536129
-0.28402075 0.11511517 0.12547502
-0.16990681 0.11310509 0.12779865
-0.12790447 0.11677696 0.12355404
-0.28449801 0.16130799 0.12035356
-0.28449801 0.18952331 0.12477864
0.25716114 0.24007513 0.12786348
-0.1863429 0.33591199 0.12205271
-0.28141648 -0.33591199 0.13797703
-0.24668492 -0.33591199 0.13490099
0.22655357 -0.33591199 0.1371218
0.26841432 -0.33591199 0.13071017
-0.28449801 -0.2748301 0.13435102
-0.10418927 -0.23201999 0.13159108
0.080634885 -0.22850542 0.13677467
0.22923048 -0.18150194 0.13370335
0.28449801 -0.18494183 0.13132772
-0.28449801 -0.133791 0.13525862
-0.25173637 0.10804431 0.1336488
-0.11726563 0.10300441 0.13947484
0.075836666 0.11116426 0.1300422
-0.28449801 0.13582706 0.13677615
-0.22611645 0.33591199 0.13295345
-0.02690657 0.33591199 0.13638151
0.092228651 -0.33591199 0.14625163
0.14413923 -0.33591199 0.14423241
-0.28449801 -0.30026281 0.14721695
-0.28449801 -0.29551643 0.14895664
0.268769 -0.26185775 0.14178412
-0.28449798 -0.23348485 0.14285251
-0.0078619793 -0.22586092 0.14067502
0.10715503 -0.22101353 0.14637198
-0.22904275 -0.21883078 0.14825994
0.24347946 -0.17400715 0.14038439
0.20872392 -0.16410676 0.14920983
0.24784881 -0.16732159 0.14634404
0.19739801 -0.13946259 0.14182219
-0.28449801 -0.12343535 0.14793192
0.19739801 -0.087194577 0.14061797
0.19739801 -0.049987271 0.14231952
0.26598862 0.039230578 0.14940509
-0.23995307 0.099396266 0.14364578
-0.13132855 0.098026097 0.14522967
-0.067756422 0.097311713 0.14605547
0.034884565 0.099452347 0.14358096
0.268769 0.13396995 0.14837015
0.25457588 0.22086503 0.14406987
0.2606411 0.24005041 0.1429251
-0.28417587 0.33591199 0.14716747
0.17168593 0.33591199 0.14005946
-0.19957836 -0.33591199 0.15192851
0.037107043 -0.33591199 0.15830632
0.087271422 -0.33591199 0.15025991
0.268769 -0.3218669 0.15973485
-0.28449801 -0.15094295 0.15044062
0.28449801 0.052684754 0.15617487
-0.035478942 0.087535486 0.15735662
-0.0067776665 0.088742375 0.15596147
0.268769 0.15558317 0.15197231
-0.28449801 0.22976601 0.15189531
0.23088682 0.30710724 0.15940219
-0.17772022 0.33591199 0.15351172
-0.011601612 0.33591199 0.15920764
0.016141288 0.33591199 0.15307304
0.080303572 0.33591199 0.15953559
0.097071223 0.33591199 0.15384582
-0.1612528 -0.33591199 0.16164152
0.17469963 -0.33591199 0.16238213
0.268769 -0.24124226 0.16189991
0.13908568 -0.20061496 0.16401777
-0.13581154 -0.19589667 0.16809911
0.069939002 -0.19501443 0.1688624
0.19739801 -0.047066573 0.16124682
0.25090209 0.018184625 0.16322163
0.28449801 0.041594703 0.16238296
-0.28449801 0.051010627 0.16216324
0.11163867 0.084567279 0.16078782
-0.28449801 0.26752034 0.16227591
-0.28449801 0.28798091 0.16258842
0.22317089 0.3221938 0.16201913
0.11803745 0.33591199 0.16438644
-0.23429395 -0.33591199 0.17751552
-0.1916173 -0.33591199 0.17260639
-0.12276868 -0.33591199 0.17500682
-0.037874952 -0.33591199 0.17242919
-0.020857878 -0.33591199 0.17615601
0.029428922 -0.192957 0.17064211
0.19739801 -0.14010264 0.17670794
0.19739801 -0.11527016 0.17987657
0.23277968 -0.092371382 0.1772795
0.20781612 -0.045743667 0.17935793
0.27316305 -0.021068104 0.176292
0.28449801 0.058007859 0.17995951
-0.15466112 0.06932725 0.17175588
-0.021558158 0.066587739 0.17361346
-0.28449801 0.074227348 0.17145345
0.268769 0.11351934 0.17678109
-0.28449801 0.26203233 0.17078681
0.021772087 0.33591199 0.17568333
0.1856539 0.33591199 0.17074604
-0.17644681 -0.33591199 0.18250737
0.2195389 -0.33591199 0.18787056
0.268769 -0.22585824 0.18450007
-0.12720507 -0.16332972 0.18973646
0.22468527 -0.061729483 0.18027575
0.28449801 -0.023713302 0.18292278
-0.28449801 0.018614773 0.18192938
-0.16736752 0.044566531 0.18854538
0.1190363 0.044887885 0.18832748
-0.19157034 0.056280009 0.18060282
0.26348105 0.2433776 0.18459526
0.003386654 0.33591199 0.18101478
0.078171149 0.33591199 0.18316145
0.19056363 0.33591199 0.180934
0.18770301 -0.33591199 0.19503233
-0.28449801 -0.32688904 0.19941977
0.272744 -0.18923387 0.19705138
-0.1457594 -0.16085513 0.19093598
-0.18317212 -0.15961477 0.19153723
0.084893912 -0.15194824 0.19525352
0.19739801 -0.15061145 0.19163683
0.063842349 -0.14474976 0.19874293
-0.16613176 0.021811258 0.19917458
-0.15599371 0.02157167 0.19925772
0.048436441 0.027578644 0.19717327
0.18903749 0.026498234 0.19754817
-0.079078622 0.036438216 0.19405694
-0.022648623 0.03767962 0.19321519
0.029086819 0.031785615 0.19571343
0.095044896 0.034741003 0.1946879
-0.28449801 0.14252569 0.19137359
-0.28449801 0.26949939 0.19032295
-0.092939757 0.33591199 0.1994815
0.011860989 0.33591199 0.19595587
0.050627559 0.33591199 0.19456163
-0.25053978 -0.33591199 0.20722002
-0.091691732 -0.33591199 0.20364225
-0.038595699 -0.33591199 0.2082082
0.061392464 -0.33591199 0.20870188
0.1841704 -0.14070585 0.20070317
-0.16724718 -0.13758692 0.20221506
0.011133662 -0.13102135 0.20539765
0.11242557 -0.13122402 0.20529941
-0.13790327 -0.1255721 0.20689116
-0.22853132 -0.1107251 0.20974007
-0.19600806 -0.11895793 0.20816031
0.007338427 -0.11561044 0.20880264
0.18806201 0.016776837 0.20092154
0.27979907 0.051389601 0.20682915
0.268769 0.062802985 0.2058621
-0.28449801 0.28610075 0.20064977
-0.26478815 0.33591199 0.20452634
0.037656717 0.33591199 0.2020092
0.1152859 0.33591199 0.20419832
0.12024818 0.33591199 0.20896849
-0.15099257 -0.33591199 0.21605334
0.12027374 -0.10230592 0.21135557
0.28449801 -0.09429267 0.21718499
-0.24802516 -0.071560964 0.21666138
0.16964087 -0.062573195 0.21601067
-0.26742205 -0.050227843 0.2151172
0.069066137 -0.058142088 0.21568996
-0.16023815 -0.047502689 0.21491998
-0.097959012 -0.048574261 0.21499753
-0.019186366 -0.043198008 0.21460845
0.10883298 -0.043687969 0.21464391
0.19739801 -0.04566573 0.2105893
-0.24415621 -0.037466832 0.21419367
-0.234438 -0.03283767 0.21385866
-0.21675798 -0.036013015 0.21408845
-0.19386749 -0.031268701 0.21374513
-0.18505448 -0.037166007 0.21417192
-0.03266748 -0.035962615 0.21408483
0.14318754 -0.038878702 0.21429586
0.077807233 -0.02581116 0.21335016
0.1078819 -0.027925177 0.21350315
0.28449804 -0.029730514 0.21948105
0.092848331 -0.012373483 0.21103682
0.268769 0.14316696 0.21170367
-0.28449801 0.19757336 0.21676667
0.26755914 0.21315105 0.21881506
0.23627548 0.29657111 0.21860312
-0.21615002 0.33591199 0.21337204
-0.072420634 0.33591199 0.21996957
0.0073377565 0.33591199 0.21150021
-0.10478414 -0.33591199 0.22369657
-0.28449801 -0.31539842 0.22530037
-0.28449801 -0.23412371 0.22633463
0.268769 -0.18528667 0.22399056
0.28449801 -0.13100076 0.22144838
-0.28449801 -0.042631201 0.22769374
0.28449801 -0.038052369 0.22474837
0.26645461 0.212586 0.22630739
-0.20268713 -0.33105469 0.237115
0.10750066 -0.32149759 0.237115
0.11002162 -0.32985234 0.237115
-0.28262642 -0.31835425 0.23399761
0.044098958 -0.31280169 0.237115
-0.15181908 -0.30805922 0.237115
0.005285345 -0.30750209 0.237115
0.047433354 -0.30790657 0.237115
0.16697827 -0.29882324 0.237115
-0.17021517 -0.28467798 0.237115
0.2469141 -0.28107753 0.237115
-0.282787 -0.2765753 0.237115
-0.15189315 -0.2729612 0.237115
0.19812833 -0.26066804 0.237115
0.25168982 -0.26700619 0.237115
0.12347356 -0.24926214 0.237115
0.22610551 -0.24118713 0.237115
-0.12283843 -0.22293034 0.237115
-0.07616438 -0.22626206 0.237115
-0.052210741 -0.22216831 0.237115
-0.20614518 -0.20037514 0.237115
0.057333946 -0.20485598 0.237115
0.12089004 -0.20311134 0.237115
0.029424138 -0.19448303 0.237115
-0.061015055 -0.18991978 0.237115
-0.18947794 -0.17672843 0.237115
-0.09524966 -0.17156586 0.237115
-0.23453747 -0.16839252 0.237115
-0.18909547 -0.16920057 0.237115
-0.13945907 -0.16292168 0.237115
-0.072686076 -0.16453744 0.237115
-0.038075492 -0.15114263 0.237115
-0.27180019 -0.14365084 0.237115
-0.20240033 -0.1461596 0.23711498
0.19124946 -0.13461702 0.237115
-0.23456529 -0.12541217 0.237115
-0.20193993 -0.12490387 0.237115
0.081944078 -0.12573403 0.237115
-0.21570498 -0.11500687 0.237115
-0.094509557 -0.10562228 0.237115
-0.066289157 -0.10513207 0.237115
0.2664068 -0.10262379 0.237115
-0.037069418 -0.088217482 0.237115
0.17115557 -0.075030282 0.237115
-0.022035997 -0.067018226 0.237115
0.14454365 -0.064911127 0.237115
-0.23506671 -0.050784245 0.237115
-0.22539511 -0.055817641 0.237115
-0.11031315 -0.058013231 0.237115
-0.081549376 -0.051081873 0.237115
0.0035465918 -0.051733807 0.237115
0.087591082 -0.04352941 0.237115
-0.23832713 -0.037084371 0.237115
-0.034037068 -0.032243878 0.237115
-0.026461046 -0.039257869 0.237115
-0.14880081 -0.024079829 0.237115
0.16340178 -0.0134614 0.237115
0.20546672 0.006127377 0.237115
0.091347203 0.016254691 0.237115
0.18027613 0.019376371 0.237115
0.21063027 0.016025471 0.237115
0.0030869916 0.022096619 0.237115
0.268769 0.02494661 0.23269741
0.021071866 0.035060011 0.237115
0.011251874 0.059068792 0.237115
0.090009257 0.059252564 0.237115
0.17975177 0.056126941 0.237115
-0.28190535 0.063565761 0.237115
-0.17891847 0.070205905 0.237115
-0.044177294 0.073924527 0.237115
-0.081931241 0.089136831 0.237115
-0.089319572 0.090042613 0.237115
-0.27776021 0.11878558 0.237115
-0.040022574 0.12321305 0.237115
0.14450158 0.12234849 0.237115
0.21666163 0.12323103 0.23711498
0.24875396 0.12616485 0.237115
-0.059923448 0.13867097 0.237115
0.23747391 0.13265169 0.237115
0.057946328 0.14974487 0.237115
0.16035055 0.14069831 0.237115
-0.19371462 0.15760043 0.237115
-0.0037141144 0.15719083 0.237115
0.051010147 0.15788804 0.237115
0.164037 0.15340404 0.237115
0.21628271 0.15247773 0.237115
-0.28449801 0.17316957 0.23275961
-0.26098371 0.17671603 0.237115
-0.24375005 0.17929235 0.237115
-0.15277478 0.17521523 0.237115
-0.052586436 0.1752924 0.237115
-0.026413754 0.17001575 0.23711501
0.15735742 0.1770222 0.237115
0.18196872 0.17674012 0.237115
0.011651799 0.18566415 0.237115
0.098914996 0.18458799 0.237115
0.010783389 0.20480803 0.237115
0.068222374 0.20925513 0.237115
0.12295549 0.20365283 0.237115
0.18535674 0.202454 0.237115
0.17045653 0.21713552 0.23711498
-0.20485891 0.22757757 0.23711498
-0.11832812 0.22300968 0.237115
-0.017225362 0.23088786 0.237115
-0.00030639768 0.23742618 0.237115
-0.083472185 0.24309468 0.237115
-0.15053944 0.25315708 0.237115
0.057834335 0.25533059 0.237115
-0.2514239 0.26593852 0.237115
0.1241132 0.26434696 0.237115
0.13333423 0.27634275 0.237115
0.18196991 0.27497745 0.237115
0.068930529 0.28153029 0.237115
0.15696716 0.28051937 0.237115
0.11211806 0.30473614 0.237115
0.15559405 0.31724316 0.237115
-0.05994612 0.32874465 0.237115
0.020659022 0.32331496 0.237115
0.12451342 0.32954049 0.237115
-0.17451048 0.33591199 0.23633088
-0.15929501 0.33548534 0.23711501
0.045371063 0.33591199 0.23232216
0.16385654 0.3328833 0.237115
