# .PCD v0.7 - Point Cloud Data file format
VERSION 0.7
FIELDS x y z
SIZE 4 4 4
TYPE F F F
COUNT 1 1 1
WIDTH 973
HEIGHT 1
VIEWPOINT 0 0 0 1 0 0 0
POINTS 973
DATA ascii
-0.037039317 -0.36076355 -0.2714822
-0.15108845 -0.35576928 -0.27056783
0.14679527 -0.35487252 -0.27295607
-0.18708619 -0.34346434 -0.27027923
-0.041654028 -0.34413049 -0.27144518
-0.029175505 -0.34357697 -0.27154523
-0.20188995 -0.33292034 -0.27016053
0.072916746 -0.32407391 -0.27236378
-0.039673992 -0.3073951 -0.2714611
0.055526048 -0.2923395 -0.27222434
-0.17290638 -0.28435776 -0.27039292
0.11191783 -0.28883871 -0.27267647
0.15708709 -0.28211296 -0.2730386
-0.099193789 -0.27774996 -0.27098387
-0.025089614 -0.27984178 -0.27157801
0.012647532 -0.27551678 -0.27188057
-0.13383432 -0.26937512 -0.27070615
-0.11285434 -0.26884109 -0.27087435
-0.10117157 -0.26830027 -0.27096805
-0.093406573 -0.26611158 -0.27103028
-0.039797246 -0.26084104 -0.27146012
-0.16761076 -0.24861541 -0.27043536
-0.10985129 -0.24812204 -0.27089846
-0.094619073 -0.22889788 -0.27102059
0.13554378 -0.22686645 -0.27286589
0.15833731 -0.22191456 -0.27304864
0.16235515 -0.19571333 -0.27308086
-0.18433374 -0.18998235 -0.27030131
0.03477972 -0.18147337 -0.27205801
0.088701412 -0.18761855 -0.27249032
0.010485403 -0.17553225 -0.27186325
-0.16798271 -0.16891412 -0.27043238
0.16231979 -0.16236278 -0.27308056
-0.122455 -0.15837687 -0.2707974
0.036401503 -0.159641 -0.272071
-0.10251024 -0.14796591 -0.27095729
0.14881738 -0.13665771 -0.27297229
-0.089417003 -0.11900145 -0.27106225
-0.043259338 -0.11676829 -0.27143234
0.1537313 -0.11961053 -0.27301171
0.092163719 -0.10990691 -0.2725181
0.16293505 -0.10833374 -0.2730855
-0.065468758 -0.09087044 -0.27125427
-0.015605383 -0.098728269 -0.27165407
-0.18878762 -0.085066848 -0.27026558
-0.077931918 -0.081633866 -0.27115434
-0.14972977 -0.066937983 -0.27057871
-0.11064492 -0.063799955 -0.27089208
0.0020998623 -0.056987248 -0.27179602
0.17867945 -0.050206829 -0.27321172
-0.062579438 -0.048913226 -0.27127743
-0.058759771 -0.046663344 -0.27130806
0.060070317 -0.040338725 -0.27226079
-0.1560391 -0.038342349 -0.27052814
-0.091878623 -0.036128514 -0.27104253
0.10299149 -0.036698453 -0.27260488
0.15297776 -0.038770199 -0.27300566
-0.18337137 -0.022293108 -0.27030903
-0.17488781 -0.029399496 -0.27037701
-0.16568837 -0.025330275 -0.27045077
-0.030224707 -0.026538307 -0.27153683
-0.141324 -0.014511347 -0.27064613
-0.078953572 -0.018530894 -0.27114618
-0.066566154 -0.016894102 -0.27124548
-0.080376387 0.018778045 -0.27113476
0.16611856 0.014987618 -0.27311099
-0.043377303 0.026380386 -0.27143139
0.12871401 0.022363655 -0.27281111
0.17668009 0.028707609 -0.27319568
-0.095259443 0.034680128 -0.27101544
-0.060296789 0.033613615 -0.27129576
0.16856994 0.034674212 -0.27313066
-0.18124846 0.042611256 -0.27032602
0.17971997 0.053651266 -0.27235147
0.07611113 0.065067962 -0.27238938
0.058241531 0.074881464 -0.27224612
-0.14475837 0.098142602 -0.27061856
0.032303356 0.090501189 -0.27203816
0.10764696 0.10736544 -0.27264223
-0.028835025 0.11480958 -0.27154797
-0.1458168 0.13482189 -0.27061009
0.049458906 0.15234692 -0.27217573
0.022106813 0.1743702 -0.27195641
0.070686996 0.17336945 -0.2723459
0.12165518 0.17117721 -0.27275452
0.16521125 0.17861944 -0.27310371
-0.012962684 0.18069105 -0.27167523
0.14144373 0.18231478 -0.27291319
-0.022434242 0.19067809 -0.27159929
-0.10246286 0.20376033 -0.27095768
0.10359596 0.20046288 -0.27260974
0.1694842 0.2153841 -0.27313799
0.12582831 0.22734646 -0.27278802
0.12700704 0.24288069 -0.27279744
0.10269015 0.25157019 -0.2726025
-0.17494255 0.26294464 -0.27037656
-0.13762161 0.26088768 -0.27067581
-0.017806038 0.26555169 -0.27163643
0.070631407 0.26273307 -0.27234542
0.17055553 0.26128674 -0.27314657
-0.14183816 0.27243751 -0.27064198
0.1015398 0.27498782 -0.27259326
0.13098989 0.27163664 -0.27282935
-0.041883122 0.28372797 -0.27144337
0.054865949 0.29693934 -0.27221906
0.14786807 0.2912406 -0.27296469
-0.0091213882 0.30537599 -0.27170604
-0.19264401 0.3103807 -0.27023467
0.1396001 0.316342 -0.27289841
0.041481443 0.32796293 -0.27211174
-0.048589297 0.3631196 -0.2713896
0.14526077 0.36428782 -0.27294379
0.1199261 -0.36087835 -0.26904646
-0.20245314 -0.22750556 -0.26979935
0.17973925 -0.18066606 -0.26994932
0.17978293 -0.013634607 -0.26451063
0.1797848 -0.00061133888 -0.2642774
-0.20239398 0.013839692 -0.26242065
0.17977324 0.038457379 -0.26571631
-0.2024084 0.048082486 -0.26421922
-0.20245343 0.17598769 -0.26983666
0.17981569 0.21844088 -0.2604185
0.17825566 0.36655498 -0.26093104
-0.20230879 -0.23761088 -0.25179574
0.17983823 -0.21781608 -0.25760183
0.17985155 -0.18292245 -0.25594521
-0.20233068 -0.1662987 -0.25452602
-0.20234925 -0.041776702 -0.25684494
0.17982632 0.088033319 -0.25910616
-0.20231579 0.14611816 -0.25267029
-0.20236118 0.2894448 -0.258331
0.17987502 0.33478785 -0.25299102
-0.030605368 0.36655501 -0.25852761
-0.13480556 -0.36536762 -0.24276692
-0.049462244 -0.3638646 -0.24420843
0.025569106 -0.36254349 -0.24369422
0.063035324 -0.36188328 -0.24687174
-0.2022804 -0.0086106546 -0.24825692
0.17993473 0.035581067 -0.24560453
-0.20225574 0.078547135 -0.24518178
0.17997625 0.26119781 -0.2403937
-0.20228854 0.3356576 -0.24927355
-0.15068296 0.36655504 -0.2495015
-0.068780802 0.36655504 -0.24607816
0.08952982 0.36655501 -0.24898472
0.10117386 0.36655501 -0.24540541
-0.20214888 -0.16677716 -0.23185493
-0.18881734 0.36655501 -0.2309981
-0.1118204 0.36655501 -0.23695037
0.10775134 0.36655504 -0.23272273
0.12454922 0.36655501 -0.23550996
-0.19593625 -0.36644626 -0.22730452
-0.17883895 -0.36614519 -0.22736403
0.18010956 -0.28559166 -0.22377613
0.19047958 -0.030400839 -0.22508527
-0.20206219 -0.026210561 -0.22104293
-0.2021053 -0.018493041 -0.22641945
0.18008043 0.08975181 -0.22741988
0.19516945 0.081578061 -0.22664727
0.1800655 0.13306661 -0.22929537
0.18008941 0.33220679 -0.22627008
-0.15347728 0.36655501 -0.22376399
-0.12160644 0.36655501 -0.22759601
-0.0018377677 -0.36303005 -0.2155928
0.0095375404 -0.36282945 -0.21784514
0.024550254 -0.36256546 -0.21509364
0.18014021 -0.2700606 -0.21995406
-0.20205002 -0.1316188 -0.21952546
-0.20202509 -0.1260367 -0.2164157
0.046238437 -0.0024188363 -0.2136178
0.013541708 0.039938744 -0.21919461
0.068131775 0.037598237 -0.21888646
0.1295348 0.065311395 -0.21754487
-0.20205073 0.070566788 -0.21961303
-0.00030931085 0.086021371 -0.21481825
0.1455189 0.083902895 -0.21509716
0.19908258 0.11258041 -0.2118801
-0.20201877 0.36465782 -0.21562637
-0.19453232 0.36655501 -0.21914408
-0.15875587 0.36655501 -0.21516368
-0.10367203 0.36655504 -0.21032651
0.076904386 0.36655501 -0.21636327
-0.20193516 -0.36474282 -0.20520014
0.18028636 -0.19529027 -0.20170908
0.18026572 -0.15827006 -0.20429188
0.18916538 -0.070846036 -0.20950253
-0.015523465 -0.034289185 -0.20095934
0.1337721 -0.029392885 -0.20298742
-0.055027403 -0.013878457 -0.2085095
0.16289268 -0.012473686 -0.20999551
-0.055027403 0.089353532 -0.20711505
-0.055027403 0.091005653 -0.20894602
0.19917783 0.096097842 -0.20001946
-0.20193693 0.15827234 -0.20542216
-0.20191742 0.25509951 -0.20298815
-0.11739531 0.36655498 -0.20413224
-0.074553445 0.36655504 -0.20410696
0.18027882 0.36650264 -0.20265463
0.10998918 -0.36106318 -0.19932957
0.18037504 -0.34168974 -0.19067316
-0.20187156 -0.17695172 -0.19726817
0.19918376 -0.058626987 -0.1993254
0.13329048 -0.040129323 -0.1985403
-0.055027403 0.018097807 -0.19451872
-0.024727361 0.14475563 -0.19321787
0.18031017 0.16277626 -0.19882949
0.18035543 0.21666643 -0.19315708
0.026892133 0.36655501 -0.192651
-0.12902525 -0.36527333 -0.18989727
-0.20177767 0.039117388 -0.18555883
-0.055027395 0.030238995 -0.18023027
-0.20176217 0.045083813 -0.18362546
0.19931114 0.11920889 -0.18338329
-0.028382253 0.15368339 -0.18659881
-0.18486167 0.36655501 -0.18546814
-0.15344004 0.36655501 -0.1814729
-0.063572265 0.36655504 -0.18450832
0.0096112303 -0.36283472 -0.17092511
0.18046215 -0.34108248 -0.17981303
-0.20172939 -0.28911749 -0.17953806
0.18049383 -0.22235298 -0.1758415
-0.20166397 -0.086254567 -0.17138059
0.19933957 -0.067128219 -0.17990199
0.19937687 -0.055419505 -0.17524083
0.1994033 0.040941253 -0.17194445
-0.20172849 0.053748973 -0.17942457
-0.055027399 0.11061706 -0.17725441
0.19939794 0.13504097 -0.17254852
-0.055027403 0.15419619 -0.1715146
0.10661119 0.16890924 -0.1749154
0.12895939 0.17363203 -0.17129143
0.13356711 0.17161903 -0.17283607
-0.13625734 0.36655498 -0.17837498
0.015629854 0.36655501 -0.17866085
0.048935086 0.36655501 -0.17496832
0.092839479 0.36655501 -0.17305098
-0.12270276 -0.36516491 -0.16949627
-0.2015959 -0.3471173 -0.16289008
0.18794964 -0.13592719 -0.16051099
0.11932794 -0.090595014 -0.1638605
0.088129804 -0.084359728 -0.16864511
0.19942869 -0.083285153 -0.16879643
0.19946353 0.10281412 -0.16443519
0.19945203 0.11228588 -0.16584128
0.19942346 0.13770944 -0.16937914
0.026503935 0.17534114 -0.16997994
0.033846486 0.17832372 -0.16769129
-0.20162368 0.18849641 -0.16635473
0.14676788 0.18537405 -0.16201329
-0.20159554 0.27653122 -0.16284582
-0.20160452 0.30143499 -0.16396356
-0.13419135 -0.3653689 -0.15718371
-0.018338483 -0.36332878 -0.1575107
0.0062452964 -0.36289647 -0.15342271
0.14612845 -0.36043271 -0.15752581
-0.20150995 -0.16192803 -0.15217243
0.038846795 -0.095112875 -0.15880767
-0.055027403 0.1507457 -0.15790839
0.10737648 0.18824989 -0.15460785
0.15969421 0.18679082 -0.15130015
0.0038398728 0.19216537 -0.15316243
0.041216288 0.19273928 -0.15241449
0.084128484 0.19287874 -0.15223274
0.18064827 0.24273136 -0.15656883
-0.20152819 0.28442568 -0.15444627
0.18068512 0.30549112 -0.15206487
-0.20156138 0.35221866 -0.1585848
0.13183014 0.36655501 -0.15106297
-0.2014796 -0.36534286 -0.14838576
-0.10986105 -0.36494198 -0.14643291
-0.20146346 -0.2849946 -0.14637148
0.18074861 -0.23215967 -0.14409374
0.18070689 -0.2160472 -0.14929047
-0.031263087 -0.10304083 -0.14847584
0.0036052167 -0.1061651 -0.14440426
0.067887977 -0.1060742 -0.14452273
0.072027408 -0.10690968 -0.14343391
0.13649186 -0.10849112 -0.14137295
0.18723059 0.0063952096 -0.1495602
0.19958501 0.049104787 -0.14928226
-0.055027395 0.089668736 -0.14639343
0.078840867 0.18192159 -0.14026169
0.14053486 0.18329126 -0.14336672
0.095750943 0.19983149 -0.14317149
0.15998 0.19841543 -0.14490074
0.036477592 0.20071156 -0.14202453
0.18981521 0.20966841 -0.1405253
-0.20146975 0.28725815 -0.14715721
-0.18656731 0.36655504 -0.14687662
-0.067443587 0.36655501 -0.14117026
0.12378877 -0.36082923 -0.13526851
-0.20136219 -0.22466461 -0.13374335
-0.20139042 -0.0048545077 -0.13726404
-0.055027399 0.016798656 -0.13604078
-0.055027395 0.13649398 -0.1371451
0.19970451 0.15434106 -0.13426052
-0.0022785626 0.18086821 -0.13732512
0.18079662 0.24423094 -0.13805002
0.18080221 0.31089681 -0.137436
-0.18676275 0.36655501 -0.1349531
-0.033055354 -0.363592 -0.12897339
0.14642657 -0.36043239 -0.12275205
-0.2013078 -0.35834956 -0.12696043
-0.20128503 -0.31974185 -0.12412389
0.1809411 -0.25300601 -0.12009388
-0.20132042 -0.091533788 -0.12853348
0.19976211 -0.095108904 -0.12723655
-0.055027403 -0.029203704 -0.12741452
0.19975665 0.14227177 -0.12781136
-0.20132184 0.16180557 -0.12871286
-0.046568669 0.18613584 -0.12941912
-0.033653609 0.2103696 -0.12943771
-0.2012596 0.27559599 -0.12094961
0.044803932 0.36655501 -0.12271295
0.18098722 -0.33331221 -0.11434253
-0.20124519 -0.31480965 -0.11914991
-0.20122735 -0.098386347 -0.11692753
-0.20124897 -0.063992903 -0.11962582
-0.20122606 0.053470042 -0.11676528
0.10199641 0.21811762 -0.11699098
0.18094775 0.25745887 -0.11922897
0.18333043 0.31686372 -0.11359677
0.095385052 0.36655501 -0.11775002
-0.16358392 -0.36589384 -0.10508785
0.080724195 -0.36159238 -0.10110343
-0.20109585 -0.24761558 -0.10052875
-0.20113316 -0.23987332 -0.10517997
-0.20111293 -0.1621628 -0.1026578
0.0321531 -0.13185616 -0.10139936
0.19990525 -0.060943387 -0.10933593
-0.20115909 -0.046731059 -0.10841396
-0.055027395 -0.037280228 -0.10398291
0.19665977 0.2313752 -0.10075687
-0.20117025 0.30540887 -0.10980654
-0.20116986 0.3251681 -0.109759
0.18115355 -0.24938753 -0.093604594
0.085834637 -0.1360151 -0.091358952
0.15496954 -0.13582467 -0.091818675
-0.055027399 -0.052359637 -0.094088376
-0.055027395 0.094968259 -0.091876134
0.20003262 0.11552057 -0.093465269
-0.055027403 0.15372008 -0.093351111
-0.016169624 0.22603208 -0.097884387
0.19722603 0.23361163 -0.096658409
-0.13471928 0.36655498 -0.093911894
-0.035908222 0.36655501 -0.098267183
-0.18878938 -0.36634004 -0.088257313
-0.12359013 -0.36519173 -0.089791074
0.15174522 -0.36034393 -0.085707039
-0.20096505 -0.2392389 -0.084215984
-0.010880379 -0.1375023 -0.084779739
0.066783607 -0.13692763 -0.089155965
0.069226123 -0.12148136 -0.086520322
0.16551401 -0.12765731 -0.087099083
-0.055027395 0.084391356 -0.083422661
-0.055027399 0.14544863 -0.089565381
0.20007119 0.18975663 -0.088647522
0.074057236 0.23127066 -0.085237727
0.2000962 0.23192792 -0.085493445
-0.20095542 0.29643494 -0.083013304
-0.17994988 0.36655501 -0.088739328
0.17755529 0.36655501 -0.087028801
-0.17722815 -0.36613825 -0.075508893
-0.16527757 -0.36592814 -0.073305838
-0.13343567 -0.36536777 -0.070891105
0.087565735 -0.36147565 -0.074777432
-0.20088074 -0.31754673 -0.073700488
0.18127701 -0.30627918 -0.078210764
-0.20088923 -0.29299042 -0.074759409
-0.2008898 -0.22924104 -0.074828461
0.19717786 -0.18264195 -0.076849848
-0.20090735 -0.17042573 -0.077018507
0.20015249 -0.15524395 -0.078481667
0.14175744 -0.14205791 -0.076770753
-0.2008677 0.031818658 -0.07207337
-0.20091802 0.078779459 -0.07835196
-0.055027403 0.091163337 -0.071852028
-0.2008667 0.14378719 -0.071949095
0.20021844 0.15389456 -0.070186645
-0.055027399 0.19432263 -0.078783125
-0.084676228 0.36655501 -0.076756194
0.024601363 0.36655501 -0.077008307
0.048851974 0.36655498 -0.073630482
-0.17112865 -0.36603171 -0.069333516
-0.20079842 -0.20451787 -0.063432053
0.19011965 -0.18562545 -0.066659294
0.070753232 -0.14376356 -0.067934252
-0.055027399 -0.13274999 -0.064076282
-0.055027395 -0.044529129 -0.060928032
0.20025145 0.013154322 -0.06615144
-0.055027399 0.18398999 -0.062300291
0.049573936 0.23624632 -0.069736376
-0.2007814 0.26480871 -0.061312251
-0.20079383 0.34694135 -0.062860839
-0.20070183 -0.35859033 -0.051388368
-0.20071003 -0.21587536 -0.052410427
0.097482674 -0.14606157 -0.050477348
0.20032009 -0.11453383 -0.057625435
-0.20071572 -0.10345943 -0.05312096
0.20030367 -0.079310492 -0.059629861
-0.20073088 -0.040429797 -0.055008762
-0.055027399 -0.02379952 -0.051648762
-0.20072365 0.061282441 -0.054109156
-0.055027395 0.068332493 -0.05109388
-0.2007471 0.20303702 -0.057034224
0.12086485 0.23761104 -0.059369288
0.18148606 0.35150433 -0.052105721
-0.18741666 0.36655498 -0.055560917
0.13405162 0.36655498 -0.055599913
-0.025257967 -0.36346686 -0.042812869
0.1815547 -0.22423619 -0.043587897
-0.20064706 -0.20804843 -0.044558734
0.068014339 -0.14674981 -0.045249075
0.12531456 -0.14713711 -0.042307049
-0.20065278 -0.13474986 -0.045269657
-0.20064533 -0.037543915 -0.044342592
0.20041771 -0.034119003 -0.045412693
-0.20061226 0.052975457 -0.040217798
0.20039964 0.058978096 -0.047666661
0.20042463 0.080407865 -0.044563875
-0.20063484 0.098194562 -0.043031909
-0.20062685 0.17228457 -0.042037278
0.20039633 0.20070846 -0.048117705
-0.022923002 0.23930776 -0.046480164
0.15951738 0.2398214 -0.04257828
0.19246161 0.2479046 -0.042763989
0.18152085 0.25573114 -0.047774445
-0.17741457 -0.36614704 -0.036568999
-0.16494954 -0.36592808 -0.032714508
0.17359924 -0.3599658 -0.038436234
-0.20057331 -0.34004998 -0.035359293
0.18163238 -0.26134613 -0.033902943
0.20053521 -0.18917146 -0.030746486
0.022445684 -0.14800745 -0.035695411
0.042716376 -0.14820093 -0.034225576
0.2004666 -0.14438909 -0.039300989
0.20049022 0.046839781 -0.036367137
0.0091015212 0.24084273 -0.034819715
0.18163264 0.25729811 -0.033837851
0.10166052 0.36655501 -0.036929395
0.18116482 0.36655501 -0.035541669
0.20061953 -0.17646436 -0.020204805
0.11978552 -0.14929748 -0.025895692
0.20055024 -0.14177093 -0.028855355
-0.055027399 -0.10234857 -0.025709953
0.20056826 0.067439221 -0.02664607
-0.055027399 0.11285261 -0.027869502
0.18168381 0.2636787 -0.027476653
-0.13448074 0.36655504 -0.023755301
-0.10142569 0.36655501 -0.026549704
0.052126959 0.36655501 -0.027656794
-0.18599911 -0.36630148 -0.013092455
-0.074288771 -0.36433437 -0.013393234
0.035742398 -0.3623969 -0.012943573
-0.20044839 -0.35290134 -0.019779533
-0.20044337 -0.34799224 -0.019154787
-0.20043978 -0.28480899 -0.018707573
-0.20037505 -0.20873064 -0.010632575
-0.20043322 -0.11200869 -0.017888486
-0.20040926 0.045155585 -0.014900759
-0.20040029 0.066803001 -0.013782054
-0.025908887 0.24116859 -0.015960107
0.067733735 0.24092112 -0.014080068
0.12845416 0.24089009 -0.013844438
0.19563861 0.24892274 -0.01063418
0.1817556 0.26733714 -0.018533431
0.18179169 0.27657333 -0.014019642
-0.1108045 0.36655498 -0.019942075
-0.080006018 0.36655501 -0.017230332
0.049930029 0.36655504 -0.010816604
0.16017382 0.36655501 -0.015867524
-0.025068598 -0.36346951 -0.0001720041
-0.20031117 -0.25551423 -0.0026670545
0.19235183 -0.19255236 -0.0029834043
-0.033754095 -0.14685941 -0.0038879216
0.11764057 -0.14668444 -0.0025587375
0.15167397 -0.14742137 -0.0081568528
0.20077427 -0.14181182 -0.00091077923
-0.20033108 -0.093803912 -0.0051508956
-0.20036022 -0.065221764 -0.0087853968
-0.055027403 0.088399403 -0.0063752234
0.18183225 0.25823942 -0.0089545166
-0.20034185 0.30339319 -0.0064947605
-0.15157461 0.36655501 -0.0075615719
0.049775239 0.36655501 -0.007226909
-0.017316464 -0.36333331 0.0019668201
0.12074991 -0.36090264 0.0054547116
-0.20028028 -0.26825765 0.0011840016
0.11102576 -0.14524306 0.0083905682
-0.055027399 -0.13096426 0.0042850021
0.20079477 -0.12520617 0.0015993826
-0.055027399 -0.085287273 0.0047150734
0.20080933 -0.073041946 0.0034686867
-0.20026475 -0.059892491 0.0031217709
-0.055027399 -0.040077537 0.0031899577
0.20084432 -0.043989353 0.0078002894
0.20079729 -0.0036421679 0.0019352287
-0.055027399 0.026229408 0.002503424
0.20083092 0.050048258 0.0061147641
-0.20022774 0.11203606 0.0077384785
-0.20026451 0.2190721 0.0031522661
0.0071071014 0.23786801 0.0091125714
0.15568523 0.23789538 0.0089045893
0.19833103 0.24862346 0.0015473459
0.18193583 0.3369866 0.0039989501
-0.15161967 0.36655501 0.003534086
0.043373927 0.36655501 0.0032515987
-0.19234702 -0.36641732 0.015469059
-0.039957758 -0.36373419 0.017305851
0.18198664 -0.24730761 0.010269165
0.18199787 -0.22669271 0.01166774
-0.20015799 -0.21041176 0.016436718
0.064078063 -0.14424831 0.01594715
-0.20015277 -0.050941549 0.017087983
-0.055027403 -0.018446174 0.016141541
0.20087902 -0.016182221 0.012130965
0.20087588 -0.00023199432 0.011738069
-0.055027403 0.087518588 0.019311028
-0.20015553 0.1138581 0.016743496
-0.055027395 0.13627762 0.015114115
-0.20018658 0.17950954 0.012870014
-0.055027399 0.21116699 0.017969066
0.20086369 0.22011346 0.010161774
0.18881987 0.24820483 0.018693976
0.18203633 0.2559275 0.016496545
0.16513139 0.36655501 0.019850679
-0.014802448 -0.36329275 0.027948052
0.026943065 -0.36255673 0.021639287
-0.20012355 -0.32095909 0.020733193
0.20102139 -0.084612377 0.029922068
0.20100228 -0.051588375 0.027507484
-0.055027399 0.11772166 0.021528427
-0.20009193 0.13650784 0.02467509
0.030584615 0.2356483 0.025974382
0.044598088 0.23580202 0.024806611
-0.037264332 -0.36368972 0.038159631
0.14600654 -0.36046255 0.038410231
-0.19999452 -0.12660968 0.036823332
-0.20004654 0.031649753 0.030334674
0.20104575 0.079412982 0.032875378
-0.20001701 0.096011698 0.034020752
-0.055027399 0.1522544 0.031957198
0.12314159 0.23227105 0.034518052
0.18218699 0.26234591 0.035263132
-0.1999875 0.30791464 0.03769803
0.18619585 0.30291292 0.030806025
-0.13053934 -0.36533272 0.042118773
-0.19992414 -0.25147733 0.045600541
0.20118046 -0.14257221 0.04974214
-0.19994542 -0.13868953 0.042946346
0.045553628 -0.13346705 0.04920594
-0.19993109 -0.10841516 0.044733703
-0.19989455 -0.099518679 0.04929217
0.2011137 -0.068765685 0.041430451
-0.19996893 -0.050399587 0.040014237
0.20112109 -0.030435892 0.04232613
-0.055027403 -0.017434197 0.047788892
0.20114599 0.0096250251 0.045432996
-0.055027399 0.053949818 0.041733753
0.20113538 0.09714628 0.044083513
0.20112835 0.1018135 0.043212168
-0.19989321 0.13874882 0.049457096
-0.19993722 0.24152541 0.043968916
-0.19992682 0.28411281 0.045267172
-0.014280751 0.36655501 0.047067314
0.064682886 0.36655501 0.04633389
0.023570843 -0.36262113 0.057179697
-0.19982511 -0.30292732 0.057951204
-0.055027399 -0.0823429 0.052871481
-0.1998108 -0.029834107 0.05973693
-0.19983698 -0.0073369443 0.056470446
0.20120215 0.15605131 0.052441388
-0.055027399 0.16956423 0.054588579
-0.19987991 0.18128467 0.051116131
0.034862019 0.2219795 0.059363749
0.11394189 0.22484589 0.052443776
0.14893518 0.22343865 0.05584107
-0.19988611 0.23522711 0.050343908
0.18238358 0.25745007 0.059788488
-0.19982275 0.31530872 0.058244966
0.18233566 0.34755063 0.053864736
0.056980342 0.36655501 0.058125421
-0.0017951876 -0.36306864 0.063164063
0.18239909 -0.2753281 0.061694682
0.098834381 -0.12744176 0.06375207
0.20126903 -0.10299621 0.060826235
-0.19975051 -0.086069211 0.067252636
-0.055027399 -0.018421588 0.067564324
-0.19973408 -0.0091888532 0.069303654
0.20131643 0.072795801 0.066636182
0.18243322 0.33900836 0.066036448
0.0074048415 0.36655498 0.064751856
-0.14513126 -0.36559457 0.076729439
0.18250464 -0.34038907 0.074856058
-0.19970894 -0.32732034 0.072438605
0.19239528 -0.17495354 0.075597808
0.20137417 -0.15619923 0.073891938
0.023946067 -0.12087992 0.076923825
-0.046283752 -0.11913043 0.07920377
0.20138007 -0.11842885 0.074663877
0.20138308 -0.093558952 0.07505843
-0.19970778 -0.040472269 0.072583623
0.20139113 -0.042645227 0.076009631
-0.055027399 -0.026616551 0.073382221
-0.055027403 0.11148804 0.079774179
-0.055027399 0.20877267 0.073731132
-0.19616811 0.36655501 0.075628579
-0.14641722 0.36655504 0.076390028
-0.11180741 0.36655501 0.071312688
-0.19934127 -0.36655074 0.087987944
-0.047506001 -0.36387599 0.080252513
-0.039690677 -0.36373967 0.089519225
-0.19959611 -0.31228516 0.086510375
0.18262234 -0.21003881 0.089533471
0.14140913 -0.11251213 0.087828808
0.17343807 -0.11735529 0.081517152
0.20146845 -0.023509184 0.085654758
-0.19962089 -0.015858229 0.083421007
-0.055027399 0.10397205 0.081057489
-0.19957089 0.18943956 0.089655504
-0.19960427 0.24953842 0.085492164
-0.11646222 0.36655501 0.082042746
0.04319986 0.36655498 0.088369012
0.12713578 0.36655501 0.086352885
0.17798668 -0.35990694 0.091872141
0.18264675 -0.3595804 0.092573725
-0.19950104 -0.19355746 0.098369278
-0.19949286 -0.17900354 0.09938857
-0.19950905 -0.14476436 0.097367264
0.056649409 -0.110016 0.091081776
0.051882155 -0.10675618 0.09533
0.13867137 -0.10707006 0.094920948
0.20152375 -0.0068164747 0.09253896
0.20157696 0.0096867764 0.099153638
-0.055027403 0.048668444 0.092827253
0.20152505 0.12604414 0.092708521
-0.19955918 0.18490297 0.091116376
0.15729834 0.20318568 0.090496302
-0.19953844 0.33503437 0.093700983
0.0019725375 0.36655501 0.099016011
0.094583832 0.36655501 0.098533355
0.10424396 0.36655501 0.099951379
-0.18908602 -0.36637282 0.10692076
-0.19948097 -0.30077192 0.10087074
0.18272656 -0.18713903 0.10252548
0.03462309 -0.096622452 0.10853638
-0.19947626 -0.088533714 0.10145861
-0.055027399 0.019637411 0.10524043
-0.055027399 0.03749894 0.10953373
0.20161879 0.15257162 0.10439298
0.20162332 0.17724547 0.10491145
0.03271443 0.19009835 0.10755236
0.11812176 0.19309132 0.10365177
-0.1994596 0.24657324 0.10353559
0.18274724 0.26333272 0.10511364
0.18270743 0.27756661 0.10016643
-0.19947222 0.36289468 0.10196055
-0.14371616 -0.36557469 0.11238923
-0.11119118 -0.36500266 0.117537
-0.015202388 -0.36331147 0.11071097
0.18281108 -0.30837333 0.11306171
0.18283179 -0.20741445 0.11564626
0.15546966 -0.095298618 0.1102616
0.1591157 -0.085422873 0.11952515
-0.055027395 0.14953715 0.11262222
0.10771391 0.17766707 0.119891
0.049311306 0.18305856 0.11575402
0.10399571 0.1808788 0.11742658
0.13697726 0.1872943 0.11120672
0.13952744 0.36655501 0.11077257
0.15710315 0.36655501 0.11036737
0.10659058 -0.36116904 0.12648909
0.12935823 -0.36076796 0.12518144
0.18287855 -0.32551977 0.12147604
-0.19928744 -0.24347883 0.12500495
0.18289903 -0.22643514 0.12403122
0.18289587 -0.21171956 0.12363585
0.20181856 -0.13187648 0.12932184
-0.19925165 -0.11115012 0.12947048
-0.023076477 -0.082404487 0.12184123
0.20179851 -0.086428255 0.12687546
-0.0075668273 -0.071855329 0.1299358
0.099282712 -0.0736681 0.12854482
-0.19927512 -0.05151657 0.12654179
0.20175427 -0.033650126 0.12130667
-0.12368149 0.36655504 0.1223635
0.0007366091 0.36655498 0.12495853
-0.13100487 -0.36535451 0.13829033
-0.11347055 -0.36504507 0.13336939
0.10949413 -0.36111966 0.13876548
-0.19923645 -0.2831485 0.13136502
-0.19921751 -0.24662536 0.13372588
-0.19923741 -0.22190626 0.13124612
0.20184076 0.023897156 0.13202822
-0.19924107 0.067043886 0.13078928
0.090502128 0.15602866 0.13649449
0.1439023 0.28357783 0.13737258
0.15339272 0.293129 0.13436821
0.13391595 0.36655501 0.13410617
-0.018419154 -0.36337253 0.14215742
0.18309894 -0.35364637 0.14895181
-0.19916652 -0.15705404 0.14008653
0.018673053 -0.047472116 0.14719385
-0.055027395 0.044921085 0.14337112
0.073329113 0.065534569 0.14742036
0.15517625 0.064143911 0.14995156
0.039747283 0.071552485 0.14602321
0.10815811 0.071585461 0.14603446
0.20190662 0.11459161 0.14029685
0.18308836 0.19865742 0.14768928
0.18306708 0.32320431 0.14503393
0.053585596 0.36655504 0.14302358
-0.19907999 -0.26903984 0.15087846
0.18313621 -0.19654645 0.15360101
0.18312962 -0.17886376 0.15277855
-0.19907248 -0.089250699 0.1518124
0.0070598684 -0.038678028 0.15083644
0.048158694 -0.037338447 0.1513913
0.16216746 -0.036958519 0.15154867
-0.043763656 -0.024351573 0.15677059
-0.050348952 -0.019400863 0.1588212
0.20201735 -0.019895514 0.15408318
-0.19906975 0.12079275 0.15215394
0.15118138 0.12340675 0.15414679
0.16127588 0.12759647 0.15241137
0.10187247 0.13183187 0.15065704
-0.19907618 0.14314355 0.15135306
-0.19903773 0.15536457 0.15614629
0.2020341 0.16557558 0.15613565
-0.19902569 0.27027842 0.1576494
0.17228663 0.293129 0.15209955
0.18317956 0.31785801 0.15905696
-0.1990194 0.36449039 0.15843348
-0.12173028 0.36655504 0.15841115
0.046464562 0.36655501 0.15898743
0.13912338 0.36655501 0.15329325
-0.17288266 -0.36609605 0.16765496
0.18319985 -0.15500504 0.16155541
-0.028937643 -0.0099693649 0.16272782
0.11928511 0.0083500836 0.16673063
0.11093519 0.017868306 0.16798382
0.064445212 0.021287357 0.16843396
0.06995862 0.059384063 0.16074355
0.06492947 0.074450724 0.16784933
0.0036887024 0.088736735 0.16615592
0.15881476 0.082627282 0.16696045
0.1713998 0.090227142 0.1659597
0.083024159 0.10756627 0.16070803
0.092345819 0.10555758 0.16154003
0.14412718 0.28941125 0.16542748
-0.1989958 0.33222765 0.16137719
-0.14433603 0.36655501 0.16092812
-0.13239831 0.36655504 0.16556135
0.10265569 0.36655498 0.16696696
-0.16658674 -0.36598656 0.17732717
0.18327148 -0.33021244 0.17046824
-0.19886291 -0.32304344 0.17794964
-0.19890697 -0.31566921 0.17245579
-0.19888254 -0.25412428 0.17550209
-0.19891365 -0.033318102 0.17162409
0.0091138035 0.054787673 0.17062558
0.20221193 0.063022822 0.1783479
0.20221499 0.086971208 0.17871866
0.18327692 0.18407026 0.17121023
-0.19885726 0.21870346 0.1786543
-0.19890328 0.28927824 0.17291591
-0.053693436 0.36655498 0.17339826
0.0099533275 0.36655501 0.17438045
0.12305965 0.36655501 0.17269678
0.18178044 -0.35985371 0.18801773
0.1834048 -0.26003227 0.18709171
-0.19881678 -0.16292523 0.18370524
-0.19878539 -0.13583487 0.18761578
-0.19882558 0.029560633 0.18260607
-0.19878025 0.12474602 0.18825844
0.18566754 0.12754822 0.1848323
-0.19882187 0.1640186 0.18306674
0.18341599 0.17666902 0.18855168
-0.19878632 0.22975199 0.18750118
-0.19880231 0.34043926 0.18550828
-0.12550879 0.36655501 0.18893655
-0.12515178 -0.36525992 0.19846898
0.10527196 -0.36120233 0.19789755
0.18344623 -0.32977241 0.19225566
-0.19868764 -0.088559784 0.19980827
-0.19869173 -0.042179991 0.19929992
0.20235385 0.092352793 0.19601347
0.18782032 0.10850383 0.19519633
0.17654161 0.26750901 0.19106647
-0.19873457 0.31048712 0.19395876
-0.0028644279 0.36655501 0.19216
0.094933279 0.36655501 0.1978918
0.11350527 0.36655501 0.1995163
0.060349032 -0.36199474 0.20750384
0.11529913 -0.36102688 0.20573084
0.1606646 -0.36022729 0.20045473
0.1953049 -0.02787503 0.2010181
0.20178695 0.0011770404 0.20755038
0.20239288 0.011899967 0.20088758
-0.19866484 0.12087458 0.20265141
0.14444064 0.27710623 0.20454752
0.073899262 0.36655501 0.20550135
0.076075546 -0.36171851 0.2122926
0.13015945 -0.36076686 0.21739583
0.14060183 -0.36058319 0.21866143
0.18362391 -0.32482442 0.21440975
0.18364596 -0.28901875 0.21715873
-0.19856119 0.16726902 0.21557762
0.18364264 0.2562378 0.21677458
-0.051876225 0.36655501 0.21652703
0.1345389 0.36655501 0.21986268
0.16073543 0.36655501 0.21574137
0.041820534 -0.36232391 0.22798668
0.13841967 -0.36062229 0.22356769
-0.19847266 -0.33991221 0.2266202
0.1837315 -0.1125122 0.22788167
0.18373892 -0.058470622 0.22880255
0.18372968 0.043749832 0.22765219
-0.19850695 0.072342455 0.22234254
0.18368304 0.071841851 0.22182222
-0.19844763 0.21057996 0.22974238
-0.1985212 0.36324924 0.22056526
-0.081250146 -0.36449212 0.23544839
-0.19838582 -0.34365916 0.23744994
-0.19840686 -0.29847479 0.23482448
-0.19839564 -0.26116198 0.23622531
-0.19838181 -0.14754495 0.2379484
0.18382521 -0.11473336 0.23954727
-0.1984072 -0.051222242 0.23478195
-0.19839907 0.034439579 0.23579901
0.18380108 0.12580226 0.23653567
0.18377905 0.19226094 0.23378502
0.18381947 0.20218012 0.23882309
0.18376142 0.25489432 0.23157619
-0.19839741 0.30613875 0.23600285
0.1837873 0.33566979 0.23482083
-0.19081406 0.36655501 0.23379706
-0.024519943 -0.36349452 0.24507511
0.074562788 -0.36174926 0.24141166
0.18388818 -0.22471294 0.24738684
-0.19836454 -0.15425938 0.24010372
0.18387808 -0.13933867 0.24612999
0.18389228 0.03959915 0.24789822
-0.19834858 0.2569631 0.24209318
-0.089839466 0.36655501 0.24129388
-0.078536406 0.36655501 0.24658063
0.091514193 0.36655498 0.2424759
0.01969941 -0.36271793 0.25969589
0.053083602 -0.36212888 0.25137061
-0.19825961 -0.2317864 0.2531901
-0.19823304 0.047159106 0.25650546
0.18397462 0.041323386 0.25815362
0.18393376 0.078992441 0.25306642
-0.19823243 0.14748769 0.25658172
-0.19826794 0.23047273 0.25215131
0.031989723 -0.3625018 0.26207927
0.18399625 -0.31817544 0.26083285
-0.19818915 -0.11776155 0.26197681
-0.19814973 -0.083425179 0.26689348
-0.19818142 0.060073815 0.26294109
-0.19814236 0.096523419 0.26781204
0.18405676 0.097818285 0.26838267
0.18400258 0.21125668 0.26163462
-0.19814731 0.22083904 0.26719642
-0.09945292 -0.35582179 0.27242887
0.12999761 -0.35125846 0.2705887
0.17289951 -0.3550618 0.2702446
0.069519565 -0.3450169 0.2710737
-0.11713747 -0.3339715 0.2725707
0.076458775 -0.33908916 0.27101806
0.092726395 -0.33247459 0.27088758
-0.1470124 -0.32762778 0.27281028
0.12465626 -0.32467344 0.27063152
-0.12563725 -0.31128564 0.27263886
0.0016985461 -0.2975373 0.27161765
0.093608774 -0.29099253 0.27088052
0.00061418116 -0.28474098 0.27162635
-0.091875903 -0.27352977 0.27236807
-0.071941793 -0.26708591 0.27220821
0.030647803 -0.26892388 0.27138546
-0.11335695 -0.25627863 0.27254036
0.019491315 -0.24177867 0.27147493
0.05698384 -0.24176991 0.27117425
-0.13231072 -0.23923613 0.27269238
0.059116572 -0.23107964 0.27115715
-0.090045154 -0.22475332 0.27235341
0.031113803 -0.21701984 0.27138174
-0.16045119 -0.19135132 0.27291808
-0.099161923 -0.18769625 0.27242655
-0.13429514 -0.1746199 0.2727083
0.075492345 -0.17502594 0.27102581
-0.10273834 -0.16892774 0.27245522
0.10785182 -0.16638553 0.27076629
-0.10193381 -0.1585865 0.27244878
0.065989979 -0.15155518 0.27110201
-0.19474284 -0.14025362 0.27319309
0.052631192 -0.14845 0.27120915
0.13889532 -0.1490339 0.27051732
-0.045109659 -0.13305609 0.27199304
0.013336807 -0.11206689 0.27152431
-0.010946998 -0.1046368 0.27171904
-0.093422011 -0.095793255 0.27238047
-0.1804539 -0.080440693 0.2730785
-0.10130194 -0.081598274 0.27244371
0.0001289174 -0.082401447 0.27163023
0.18377931 -0.088060603 0.27015734
-0.17626019 -0.072496012 0.27304485
-0.12848099 -0.076189987 0.27266169
-0.0032554734 -0.065423317 0.27165738
0.036109116 -0.064755522 0.27134168
-0.1129727 -0.052569576 0.27253729
-0.17791636 -0.049054131 0.27305815
-0.14512901 -0.048639506 0.2727952
-0.031602617 -0.043728683 0.27188468
0.14874443 -0.043460265 0.27043831
-0.16262698 -0.039406598 0.27293551
0.16820675 -0.033359215 0.27028224
-0.10226291 -0.022953786 0.2724514
-0.17100179 -0.019713439 0.27300268
-0.12589005 -0.01150874 0.27264088
-0.036386333 0.025649846 0.27192307
-0.0056426972 0.02158919 0.27167651
0.05144655 0.027193248 0.27121866
0.048460677 0.036514148 0.27124262
0.055188917 0.049092237 0.27118868
0.090897948 0.041387189 0.27090228
-0.19580889 0.058801621 0.27320164
-0.15068078 0.066997319 0.27283973
-0.026211023 0.091009319 0.27184144
-0.136922 0.12756136 0.27272937
-0.16966867 0.13196178 0.27299199
-0.079137363 0.13178316 0.27226594
0.041076269 0.16965953 0.27130184
-0.084798165 0.17084698 0.27231133
0.135838 0.17443126 0.27054185
-0.10169418 0.18697672 0.27244684
0.11684359 0.1899998 0.2706942
0.05933027 0.19697334 0.27115542
-0.16517892 0.20252916 0.27295598
0.064481676 0.21644114 0.27111411
-0.047372743 0.22443347 0.27201119
0.021453526 0.22648165 0.27145919
0.066620238 0.22943705 0.27109694
0.093193904 0.22498129 0.27088386
-0.11952183 0.2305284 0.2725898
-0.087714702 0.23261182 0.27233472
-0.034048267 0.23162399 0.27190432
0.020826556 0.23113777 0.27146423
-0.12825459 0.24843745 0.27265984
-0.10549943 0.24989194 0.27247733
-0.14834221 0.25902718 0.27282098
0.022148475 0.25881118 0.27145362
0.058654115 0.2503027 0.27116084
0.074189916 0.26444793 0.27103627
0.18369254 0.26434201 0.27015805
-0.19811699 0.27115038 0.27097672
0.011591405 0.27967188 0.27153832
0.041979779 0.27865863 0.27129459
-0.15669179 0.28314555 0.27288792
-0.024915352 0.28219432 0.27183107
-0.00061319768 0.28244412 0.27163616
0.033490352 0.28484151 0.27136266
0.18106768 0.28511438 0.27017909
-0.15953791 0.29006466 0.27291074
-0.10176669 0.31157809 0.27244744
-0.19757381 0.32641363 0.27321577
-0.13103691 0.32471561 0.27268219
-0.089008428 0.3264375 0.2723451
0.058636755 0.32695803 0.27116099
-0.103612 0.34661651 0.27246222
-0.089972839 0.34081578 0.27235281
0.11605914 0.34056681 0.27070045
0.044704013 0.35248253 0.27127272
