# .PCD v0.7 - Point Cloud Data file format
VERSION 0.7
FIELDS x y z
SIZE 4 4 4
TYPE F F F
COUNT 1 1 1
WIDTH 977
HEIGHT 1
VIEWPOINT 0 0 0 1 0 0 0
POINTS 977
DATA ascii
-0.15620543 -0.33281898 -0.284475
0.0897322 -0.33285734 -0.284475
0.011771299 -0.32707626 -0.284475
0.1588867 -0.32101652 -0.284475
0.1986661 -0.31047359 -0.284475
-0.18192038 -0.30665976 -0.284475
0.17528109 -0.28694174 -0.284475
-0.16594148 -0.27453369 -0.284475
-0.094358027 -0.27788001 -0.284475
-0.23488045 -0.26562968 -0.284475
-0.052738693 -0.26941955 -0.284475
0.08632569 -0.26851341 -0.284475
0.13795254 -0.26406124 -0.284475
0.14122851 -0.26566851 -0.284475
-0.18161303 -0.25925076 -0.284475
-0.18744756 -0.24905512 -0.284475
0.0099435374 -0.24413443 -0.284475
0.17114303 -0.22605225 -0.284475
-0.24022016 -0.20786804 -0.284475
0.090432093 -0.20991915 -0.284475
-0.056541022 -0.17827019 -0.284475
0.015055116 -0.17532632 -0.284475
-0.11637764 -0.16080782 -0.284475
-0.046019562 -0.16673169 -0.284475
-0.0052961707 -0.14352411 -0.284475
-0.11625964 -0.13973433 -0.284475
-0.077504553 -0.13622735 -0.284475
-0.04291549 -0.13073942 -0.284475
0.030481741 -0.13579383 -0.284475
-0.22890615 -0.11297684 -0.284475
-0.14219396 -0.1103256 -0.284475
-0.042178825 -0.11177055 -0.284475
-0.23610437 -0.10804469 -0.284475
-0.24095902 -0.094811022 -0.2829363
-0.22480363 -0.091548599 -0.284475
-0.086268865 -0.095672578 -0.284475
-0.10801675 -0.088957414 -0.284475
-0.010238871 -0.082606517 -0.284475
-0.0019131824 -0.07757163 -0.284475
0.11989938 -0.079420142 -0.28447497
0.17917472 -0.079994649 -0.284475
-0.074711457 -0.060460102 -0.284475
-0.043166615 -0.06062717 -0.284475
0.015642166 -0.063728735 -0.284475
-0.054041743 -0.051946416 -0.284475
0.018960435 -0.045687724 -0.284475
-0.1457864 -0.038243547 -0.284475
-0.048585951 -0.037573289 -0.284475
0.06464079 -0.039752401 -0.284475
0.088136345 -0.030167408 -0.284475
0.068918079 -0.025505591 -0.284475
0.20379306 -0.026109345 -0.284475
-0.1020702 -0.010961559 -0.284475
-0.083617315 -0.009122137 -0.284475
-0.0054158792 -0.0058978554 -0.284475
-0.20217659 0.0044804513 -0.284475
-0.10333886 0.0085879117 -0.284475
-0.24095902 0.011409834 -0.28297067
0.12153637 0.015986545 -0.284475
0.13437226 0.010718936 -0.284475
0.11354171 0.023313668 -0.284475
0.1685971 0.023274414 -0.284475
-0.20788041 0.033871688 -0.284475
-0.20086282 0.048650444 -0.284475
-0.11929809 0.048317499 -0.284475
0.0084364712 0.047554329 -0.284475
0.15399097 0.043353658 -0.284475
0.096291177 0.053480055 -0.284475
0.18120798 0.059083655 -0.284475
0.13920899 0.065733925 -0.284475
0.1655364 0.067298785 -0.284475
-0.19515763 0.072473213 -0.284475
-0.048880629 0.074541897 -0.284475
0.20588699 0.071749404 -0.28441292
-0.16785936 0.082462788 -0.284475
-0.1558893 0.088282362 -0.284475
-0.063227616 0.086498544 -0.284475
-0.073778145 0.09845145 -0.284475
-0.19837469 0.10008116 -0.284475
0.05244286 0.1007885 -0.284475
0.088746332 0.10208137 -0.284475
-0.12049272 0.11433214 -0.284475
-0.0060903877 0.11613879 -0.284475
-0.20994306 0.12232107 -0.28447503
-0.17243011 0.12545612 -0.284475
0.13411957 0.12637378 -0.284475
-0.1929079 0.13278003 -0.284475
0.11440814 0.1306207 -0.284475
0.025391039 0.14099404 -0.284475
0.037626393 0.14695077 -0.284475
-0.19061938 0.16678107 -0.284475
-0.03591767 0.17120588 -0.284475
-0.046341442 0.18949236 -0.284475
0.04129706 0.18053666 -0.284475
0.17465131 0.18691926 -0.284475
0.067034349 0.20572206 -0.284475
0.035121519 0.2157056 -0.284475
-0.035720512 0.22116159 -0.284475
0.16220087 0.22602101 -0.2832934
-0.0083326176 -0.333186 -0.27387869
-0.240959 -0.1382695 -0.27829495
0.205887 -0.081278354 -0.27400705
0.20588699 -0.079895794 -0.27233413
-0.23913993 -0.33318597 -0.26691282
0.10582903 -0.333186 -0.26938987
0.205887 -0.27734628 -0.26005694
-0.240959 -0.23458138 -0.26516077
-0.24095899 -0.21441229 -0.26779649
0.205887 -0.13114378 -0.26741549
0.205887 -0.12045731 -0.263217
-0.240959 -0.11703911 -0.26742074
-0.24095899 -0.029327895 -0.26788589
0.205887 0.059947856 -0.26957041
0.20588699 0.12073662 -0.26542893
-0.240959 0.20845293 -0.26159337
0.205887 0.21344201 -0.2650767
-0.14336741 0.22602099 -0.26337346
-0.08293651 0.22602099 -0.26014245
0.12636524 0.22602101 -0.2681393
-0.18913451 -0.333186 -0.25070667
0.073805869 -0.333186 -0.25084162
0.1455496 -0.333186 -0.25433579
0.20588702 0.097839072 -0.2573998
0.053920701 0.22602101 -0.25139058
0.049824841 -0.33318597 -0.24849948
0.057263695 -0.33318597 -0.24814436
0.083259955 -0.333186 -0.245588
0.20588702 -0.27813578 -0.24980605
-0.24095899 -0.21527508 -0.24106294
-0.24095902 -0.16307294 -0.24442402
0.205887 -0.16440673 -0.24190488
-0.24095899 -0.14790356 -0.24579504
-0.24095902 0.046268098 -0.24501008
0.048950389 0.22602102 -0.2470665
-0.17476729 -0.333186 -0.23355052
0.18500012 -0.333186 -0.23804492
-0.24095899 -0.1378725 -0.23640652
0.20588702 -0.014714227 -0.2357164
0.205887 0.059992 -0.23862773
-0.24095899 0.10469833 -0.23261864
-0.240959 0.22176206 -0.23113593
-0.11137198 0.22602101 -0.23634619
-0.043309465 0.22602101 -0.23996979
-0.010051966 0.22602099 -0.23160446
0.17071822 0.22602099 -0.23833765
-0.19537477 -0.333186 -0.22266734
0.00036316365 -0.33318603 -0.2273832
0.076523423 -0.333186 -0.2273705
0.19423744 -0.333186 -0.22835116
0.20588702 -0.19381393 -0.22058761
0.205887 0.17116217 -0.22924119
0.20588699 0.18710822 -0.22135259
0.205887 0.20613104 -0.22911558
-0.19667061 0.22602101 -0.22510315
-0.18096313 0.22602101 -0.22505596
0.089930356 0.22602102 -0.22865398
0.18878672 0.22602101 -0.22356857
-0.17514239 -0.333186 -0.2197451
0.14905789 -0.33318597 -0.21755126
0.205887 -0.2249245 -0.21012083
-0.240959 0.22463866 -0.21505554
-0.065626062 0.22602101 -0.21892083
0.016561754 0.22602101 -0.21674922
-0.19978881 -0.333186 -0.2087957
-0.1202261 -0.333186 -0.20432265
0.15531003 -0.333186 -0.2092683
-0.240959 0.011477657 -0.208408
0.205887 0.025135618 -0.2084112
-0.240959 0.050770514 -0.20647162
0.205887 0.080546081 -0.20174241
0.205887 0.1688789 -0.2086401
0.20588699 0.21145223 -0.20497164
-0.13262592 0.22602101 -0.20421696
-0.11189397 0.22602101 -0.20028079
-0.031078525 0.22602099 -0.20517942
0.023774132 0.22602099 -0.20660518
-0.081764601 -0.333186 -0.19829877
-0.0061022937 -0.33318597 -0.1921688
0.090953477 -0.333186 -0.19775827
0.20588699 -0.17042071 -0.19205938
-0.240959 -0.16032641 -0.19172323
-0.15225722 -0.091083162 -0.19019113
0.205887 0.059058324 -0.19084899
0.205887 0.069977097 -0.19773081
-0.240959 0.089959532 -0.19420615
0.071025521 0.22602099 -0.19262102
0.12474556 0.22602099 -0.19671167
0.056967463 -0.33318603 -0.18852749
0.10705628 -0.333186 -0.189055
-0.240959 -0.32348421 -0.1802479
-0.24095902 -0.2450618 -0.18773913
0.03819102 -0.14504836 -0.18220179
-0.17418754 -0.13366564 -0.18480028
0.082040176 -0.13572928 -0.18452862
-0.040236983 -0.10116727 -0.18907936
-0.0042265616 -0.096409962 -0.18970563
-0.098789275 -0.069399461 -0.18733613
0.030007441 -0.065451682 -0.18681635
0.18297911 -0.062615603 -0.18644293
0.21439651 -0.064449564 -0.1866844
0.043430388 -0.057724547 -0.18579896
0.11273289 -0.059325997 -0.18600981
-0.094867468 -0.044568673 -0.18406676
-0.078591667 -0.040426888 -0.1828936
0.023572534 -0.041446138 -0.18331578
0.205887 -0.018217565 -0.18980238
-0.20596872 0.22602101 -0.1858725
0.0072226822 -0.333186 -0.1743571
0.14941081 -0.333186 -0.17193595
-0.240959 -0.23049954 -0.17684492
-0.24095902 -0.19624797 -0.17342676
-0.0049029589 -0.17341711 -0.17045154
0.14803696 -0.17285378 -0.17068484
-0.01889221 -0.15410554 -0.17845035
-0.21822801 -0.058797639 -0.17544563
0.03716179 -0.03185641 -0.17934376
-0.037238352 -0.022871055 -0.17562205
0.067376763 -0.025275845 -0.1766181
0.20522639 -0.02497709 -0.17649436
0.23575929 -0.027567666 -0.17756738
-0.1072378 -0.018697076 -0.17389321
0.23274523 -0.017339997 -0.17333111
-0.2231995 0.22602099 -0.17986244
-0.076246329 -0.333186 -0.16146165
-0.065018788 -0.333186 -0.16753596
0.12935048 -0.333186 -0.16170114
0.205887 -0.28667909 -0.16757478
-0.12445864 -0.18050078 -0.1675175
0.038308237 -0.17627846 -0.16926637
0.068809532 -0.17976438 -0.16782251
0.240959 -0.041813031 -0.1644965
-0.21822801 -0.0055578137 -0.16039267
0.043006621 -0.0073300553 -0.16918501
0.18625565 -0.0037519967 -0.16770302
-0.21808587 0.0033241182 -0.1647449
-0.240959 0.067246452 -0.16317195
0.20588702 0.08295022 -0.16669093
-0.240959 0.12766406 -0.16518001
0.205887 0.21981469 -0.16391063
0.20187345 0.22602101 -0.16141066
-0.048232839 -0.333186 -0.15109351
0.20588702 -0.28440642 -0.15907171
0.027790302 -0.20365325 -0.15206537
0.048393242 -0.20240876 -0.15302029
0.13621262 -0.20454991 -0.15137734
0.17223048 -0.20556211 -0.15060064
0.20160067 -0.19997489 -0.15488787
0.205887 -0.17636268 -0.15523697
0.20588699 -0.11629336 -0.15669911
-0.11661378 0.018341063 -0.15322217
-0.10326181 0.022141725 -0.15030587
-0.057139114 -0.333186 -0.14542951
-0.20856249 -0.21557134 -0.14292027
-0.011018552 -0.21230969 -0.14542301
0.061594199 -0.21179923 -0.1458147
0.11604155 -0.21598423 -0.14260346
0.205887 -0.11254177 -0.14269201
-0.21822801 -0.058631673 -0.14866787
-0.240959 0.0054699928 -0.14264244
0.24095902 0.00739758 -0.1473632
-0.0054915845 0.029607387 -0.14457732
0.012814462 0.022602957 -0.14995193
-0.1135157 0.032977544 -0.14199135
-0.066760376 0.032150798 -0.14262573
0.12216225 0.031189028 -0.14336373
0.18436489 0.032809034 -0.14212066
0.21720016 0.033376072 -0.14168556
0.22757664 0.032502301 -0.14235601
-0.24095899 0.13610031 -0.14661074
-0.17908064 0.22602099 -0.14969748
-0.21232504 -0.333186 -0.13892058
-0.072484814 -0.333186 -0.13226354
0.030380383 -0.333186 -0.13732821
-0.20186193 -0.22076982 -0.13893132
-0.15444835 -0.22053331 -0.1391128
-0.082526386 -0.22839457 -0.1320461
0.046843931 -0.22342479 -0.13689408
0.080884144 -0.22933789 -0.13081679
0.13141741 -0.22461301 -0.13598232
-0.24095899 -0.20361294 -0.13238677
0.24095899 -0.19844857 -0.13394338
-0.240959 -0.1727477 -0.134728
0.240959 -0.013803517 -0.13121754
-0.21822801 -0.005844973 -0.1346768
-0.24095902 0.035998158 -0.13186522
0.20588699 0.057422623 -0.13442205
0.0083970949 0.22602099 -0.13141157
0.052621268 -0.333186 -0.12943195
0.11648779 -0.333186 -0.12549296
-0.11305398 -0.23388062 -0.12489678
0.1342248 -0.23604684 -0.12207381
0.1932075 -0.23746426 -0.12022662
0.24004209 -0.23189659 -0.12748234
-0.240959 -0.16967942 -0.12802985
0.24095902 -0.14519501 -0.12840208
-0.21822801 -0.13636371 -0.12947495
-0.24095899 -0.1167204 -0.12219286
-0.218228 0.031086709 -0.1284347
-0.0023903102 0.049022913 -0.12626928
-0.24095902 0.121507 -0.12393393
-0.24095902 0.15017259 -0.12212884
0.20588699 0.17489439 -0.1232115
0.205887 0.19477503 -0.127866
-0.24095899 0.21976197 -0.12817183
-0.22396521 0.22602101 -0.12179983
-0.18693888 0.22602101 -0.12439936
-0.0019603819 0.22602101 -0.12239391
0.01195096 -0.333186 -0.11028312
0.13037533 -0.24033965 -0.11647947
-0.21822801 -0.19703782 -0.11530608
-0.240959 -0.17820388 -0.11433136
0.20588702 -0.14792702 -0.11671554
0.24095902 -0.12465118 -0.11751951
0.205887 -0.017228609 -0.11377353
-0.21822801 0.013378429 -0.11648037
0.240959 0.016126383 -0.11089872
-0.15863419 0.055978239 -0.11720476
-0.240959 0.073268034 -0.11269504
-0.24095899 0.12306346 -0.11396719
-0.1432911 0.22602102 -0.11176948
-0.039981794 0.22602099 -0.1112721
-0.0087746419 0.22602101 -0.11760527
-0.12170798 -0.333186 -0.10543782
0.205887 -0.33248612 -0.10182606
-0.21785137 -0.25062263 -0.10307885
-0.042031825 -0.2518104 -0.10153098
-0.024673667 -0.25083095 -0.10280737
-0.012395136 -0.24772483 -0.10685523
0.02957621 -0.24720971 -0.10752654
0.240959 -0.24106833 -0.10109691
-0.240959 -0.2260409 -0.1029304
-0.24095899 -0.18899103 -0.10827857
0.24095899 -0.09792012 -0.10185144
-0.218228 -0.065347083 -0.10935186
-0.240959 0.0031215921 -0.10363567
-0.218228 0.0095415711 -0.10099635
0.205887 0.039870504 -0.10071813
0.078149892 0.063665837 -0.10718591
0.205887 0.1891591 -0.10438833
-0.2112436 0.22602101 -0.10497308
0.10651234 0.22602101 -0.10376566
0.049244899 -0.333186 -0.098417379
-0.240959 -0.27954835 -0.099593014
-0.031720869 -0.25377005 -0.098977223
-0.24095899 -0.23076741 -0.097832672
-0.218228 -0.23764007 -0.092699215
-0.218228 -0.22204156 -0.097184792
-0.240959 -0.15065843 -0.092859328
-0.240959 0.16380775 -0.091567382
0.15286475 0.22602102 -0.092355371
-0.13295436 -0.333186 -0.080292515
0.15744171 -0.333186 -0.084581308
-0.16742173 -0.26164776 -0.083221048
0.205887 -0.26026726 -0.08465147
-0.218228 -0.11929069 -0.089455098
0.205887 -0.069467433 -0.084552988
0.20588699 -0.022787925 -0.08119867
-0.218228 0.071064785 -0.089251772
-0.15467773 0.075252131 -0.089474611
-0.22957981 0.22602101 -0.089706175
-0.16770551 0.22602099 -0.081449039
0.055193741 0.22602099 -0.084923774
0.16788878 0.22602101 -0.0898856
0.1889639 0.22602101 -0.082107238
0.19187723 0.22602101 -0.084303878
-0.12112893 -0.333186 -0.070727564
0.12834409 -0.33318597 -0.072912082
-0.240959 -0.29968157 -0.071220137
-0.076796383 -0.26574734 -0.073323257
-0.024954619 -0.26578262 -0.073237993
-0.218228 -0.074143596 -0.0741916
0.205887 -0.025571514 -0.078386836
-0.21822798 0.038749855 -0.070674583
0.205887 0.049165688 -0.076453023
-0.18107277 0.22602102 -0.072009154
-0.068069242 -0.333186 -0.063048191
-0.046190113 -0.333186 -0.066940218
0.13765012 -0.27091032 -0.060857967
-0.19447246 -0.26931614 -0.064706944
0.24095899 -0.26063004 -0.065690599
-0.24095899 -0.17218944 -0.065264374
0.205887 -0.14869252 -0.060974229
0.205887 -0.068006329 -0.069835439
0.205887 -0.0011933632 -0.069817208
0.205887 0.16092364 -0.06459792
-0.19062458 0.22602101 -0.06316492
0.041185133 0.22602101 -0.065683976
0.068395957 0.22602101 -0.069450721
0.040723994 -0.333186 -0.05435323
-0.16467491 -0.27507553 -0.050801698
0.240959 -0.2374282 -0.053764638
-0.240959 -0.21560432 -0.0514329
0.20588699 -0.18551293 -0.053264156
0.205887 -0.15812634 -0.059394639
-0.24095902 -0.13448316 -0.054144122
0.20588699 -0.10362057 -0.053680971
-0.218228 -0.014988441 -0.053081095
-0.218228 0.012946714 -0.057772517
0.073115647 0.089319259 -0.055514839
0.205887 0.2010794 -0.059667796
-0.094251975 -0.27656618 -0.042802472
0.12238237 -0.27600497 -0.047065549
0.17890927 -0.27674893 -0.041414354
-0.21822801 -0.24942566 -0.04467909
0.240959 -0.17605163 -0.045788337
-0.24095902 -0.066210903 -0.041568428
-0.21822798 -0.053046346 -0.046708696
-0.218228 -0.002689939 -0.041030079
-0.24095899 0.035879813 -0.047472693
0.205887 0.038847428 -0.044005893
-0.240959 0.04681465 -0.049132876
-0.13063331 0.092225127 -0.046882879
0.205887 0.12487287 -0.04135704
-0.240959 0.14684182 -0.042318523
-0.24095899 0.18863812 -0.040739104
-0.18433136 0.22602099 -0.04214989
-0.0032001436 0.22602101 -0.042073287
-0.0030186027 -0.33318597 -0.032421939
-0.13192879 -0.27707246 -0.038956568
-0.039624132 -0.27698696 -0.039606251
0.0090720952 -0.27752015 -0.035555936
0.10156216 -0.27774554 -0.033843856
-0.218228 -0.063344002 -0.038282085
-0.1721921 0.093498416 -0.037211083
-0.099644594 0.094191015 -0.031950161
0.022990102 0.094128162 -0.03242759
0.1966375 0.093624771 -0.03625128
-0.24095899 0.22380503 -0.038212687
-0.041948304 -0.333186 -0.020341426
-0.11434467 -0.27937323 -0.021479726
-0.049416758 -0.27921739 -0.022663431
-0.21822801 -0.23617868 -0.025243666
0.205887 -0.14579421 -0.024234939
-0.21822798 -0.10059267 -0.028411772
0.205887 -0.087631859 -0.028617447
-0.240959 -0.059927978 -0.023337571
-0.21822801 0.006334126 -0.024649883
0.240959 0.0074894652 -0.028221028
-0.218228 0.034955259 -0.021210365
0.240959 0.065351382 -0.024633391
-0.095777504 0.095706955 -0.020435188
0.17590176 0.095727444 -0.020279652
0.20588702 0.12593697 -0.022538593
0.17726037 0.22602102 -0.024522245
0.2049607 0.22602102 -0.024791084
-0.042230904 -0.333186 -0.014352031
-0.007541351 -0.333186 -0.018160272
-0.16366512 -0.28048342 -0.013046492
0.205887 -0.28585631 -0.019617295
-0.20916331 -0.27995956 -0.017026016
0.205887 -0.15187626 -0.017871413
-0.218228 0.022839375 -0.01971248
-0.240959 0.092213221 -0.01284337
-0.13509125 0.096465595 -0.014672676
0.04324723 0.096131667 -0.017209135
0.10818802 0.09643402 -0.014912481
0.17157891 0.096068576 -0.017688405
-0.24095899 0.12938982 -0.013419598
-0.19634312 -0.333186 -0.0055804998
-0.13462946 -0.28134549 -0.0064981701
0.22070649 -0.2814219 -0.0059178118
0.20588699 -0.27209875 -0.0012456654
0.240959 -0.25195754 -0.0009438183
0.205887 -0.14804423 -0.0020337328
-0.218228 -0.023426317 -0.00024555667
-0.24095899 0.022366531 -0.0063031316
0.20588702 0.020875765 -0.0058781472
-0.21822798 0.059829246 -0.00022173394
-0.240959 0.069934137 -0.0021321923
0.205887 0.079029143 -0.0044951667
0.14705396 0.098133862 -0.0020007035
0.205887 0.091976851 -0.0090889782
-0.24095902 0.21186155 -0.0072542727
0.13670391 0.22602099 -0.00059417635
0.20244336 0.22602101 -0.0040000081
0.059302621 -0.333186 0.00041440874
-0.041263364 -0.28181928 0.0028997473
0.026829123 -0.28183421 0.0027864657
0.17822537 -0.28166884 0.0040426534
0.20036322 -0.28114718 0.0080052977
0.21037349 -0.28117904 0.0077632209
0.205887 -0.048206251 0.0062621087
-0.21822798 0.077788271 0.0065842113
0.036030822 0.098228842 0.0012799185
0.095627978 0.09787789 0.0039457278
0.10749324 0.097641625 0.0057403101
-0.24095902 0.12890591 0.0090234205
-0.22019207 0.22602099 0.0086847842
-0.032332726 -0.333186 0.010740653
0.076245554 -0.333186 0.014041673
0.090049997 -0.333186 0.010966077
-0.24095899 -0.26130378 0.013361685
0.205887 -0.25872344 0.019640347
-0.240959 -0.18062356 0.010735419
0.205887 -0.13590083 0.014364585
-0.240959 -0.047014408 0.016247226
-0.218228 -0.010323193 0.01239377
0.20588702 0.005094938 0.011886634
0.20588699 0.037609681 0.011511287
-0.19236183 0.096040674 0.0179008
-0.1036256 0.096140943 0.017139113
-0.074418545 0.09692096 0.011214316
0.022999108 0.096075363 0.017637309
0.21211727 0.096531667 0.014171329
0.21169245 0.123675 0.012912114
-0.1037195 0.22602101 0.011601157
-0.086173974 0.22602101 0.012117149
0.11394725 0.22602102 0.014135737
0.022121798 -0.33318603 0.021915678
-0.24095899 -0.28637215 0.022036344
0.080731638 -0.27936769 0.021522356
-0.24095902 -0.26883402 0.020422697
-0.240959 -0.21778867 0.025942519
0.24095899 -0.096272975 0.021927537
0.096614599 0.094820768 0.027166937
0.14300922 0.095030412 0.02557449
0.1539737 0.095699087 0.020495396
0.17938672 0.095049635 0.025428543
-0.240959 0.12127967 0.026611857
0.20623814 0.123675 0.020830855
0.205887 0.20515791 0.028307769
-0.084911257 0.22602101 0.023631744
-0.11094749 -0.333186 0.030358106
0.19296348 -0.333186 0.030635513
0.15054297 -0.27800491 0.0318738
0.20588699 -0.19688402 0.036420859
0.240959 -0.14214271 0.034056161
-0.218228 -0.13058959 0.033746809
0.240959 -0.12142608 0.033206891
-0.24095902 -0.11869688 0.032741316
-0.218228 -0.087513112 0.030397192
-0.21822798 -0.0031768233 0.035259787
0.205887 0.070967026 0.031286351
-0.218228 0.088996023 0.035935484
-0.12061307 0.093893185 0.034212731
-0.021988411 0.09320128 0.039468233
0.036131822 0.09323141 0.039239321
0.205887 0.12049469 0.031522106
-0.24095902 0.158851 0.032582223
0.205887 0.21041566 0.03267106
0.15306607 0.22602101 0.039614648
-0.23891564 -0.333186 0.041113049
-0.12491024 -0.33318597 0.041713357
-0.24095902 -0.28984833 0.04213503
-0.1591662 -0.27604163 0.046787106
0.24095902 -0.13074243 0.041845828
0.20588702 -0.098082349 0.049061395
0.205887 0.037854791 0.046499811
0.011720717 0.092567265 0.044284023
-0.240959 0.16366617 0.042249069
0.205887 0.18582225 0.049050588
-0.24095902 0.21068045 0.042113356
0.18767422 0.22602102 0.041634478
-0.24042824 -0.333186 0.055531509
-0.15234569 -0.333186 0.052634627
-0.10211203 -0.333186 0.054765277
-0.18571129 -0.27313727 0.055481292
-0.17205125 -0.27441064 0.052406993
-0.051189382 -0.27236566 0.057344269
0.1167252 -0.27234808 0.05738673
0.22437352 -0.2747798 0.051515654
-0.24095899 -0.23041239 0.058744714
0.20588702 -0.21647036 0.056427874
-0.218228 -0.19580385 0.055604689
-0.218228 -0.15851186 0.056935724
0.240959 0.023486068 0.051299825
0.015821643 0.088722363 0.056955822
-0.24095902 0.19124103 0.055490874
0.205887 0.21324313 0.053063639
0.00538655 0.22602102 0.051348571
-0.22031663 -0.333186 0.065330669
-0.085949704 -0.333186 0.060958624
-0.028998464 -0.333186 0.066202044
0.18872999 -0.333186 0.066204131
0.19559553 -0.333186 0.064328104
-0.070081502 -0.26807141 0.067712143
0.029989563 -0.26993817 0.063205145
0.16172363 -0.2675401 0.068994887
0.205887 -0.25763389 0.066638768
0.240959 -0.15706401 0.06094899
0.205887 -0.1252601 0.069129802
-0.21822798 -0.084312633 0.060762461
-0.218228 -0.048147812 0.06182421
0.1086017 0.22602099 0.062766388
-0.07548444 -0.333186 0.079016253
0.093286872 -0.26663005 0.071192034
0.11829218 -0.26454642 0.076222681
0.16001672 -0.26333719 0.079142198
0.240959 -0.16257094 0.077558316
0.24095902 -0.13420828 0.071384609
-0.218228 -0.12140474 0.075122617
0.24095902 -0.11767678 0.071368724
-0.240959 0.016238328 0.077250682
-0.24095902 0.086751312 0.072989039
-0.16871025 0.082260743 0.072554961
0.017617553 0.081913531 0.073393159
0.13727975 0.082879364 0.071061552
-0.240959 0.15104103 0.075921945
-0.15086308 0.22602102 0.077916652
0.066809714 0.22602102 0.075085551
-0.21570192 -0.333186 0.083433896
0.20516704 -0.33318603 0.089058973
-0.24095902 -0.2937153 0.086203404
-0.240959 -0.27509481 0.082145602
0.24095899 -0.25733382 0.082900941
0.20588702 -0.21710832 0.087941945
0.240959 -0.042287301 0.081134751
0.205887 0.004743062 0.085241124
-0.12602827 0.22602099 0.080725431
0.11972993 0.22602101 0.086610191
0.20585974 0.22602101 0.085171208
-0.086547159 -0.333186 0.092742823
-0.24095902 -0.31736314 0.099666916
-0.068500504 -0.25370547 0.099061385
-0.0018818304 -0.25765824 0.092853203
0.079895258 -0.25574812 0.096399382
0.1170316 -0.25471744 0.097742572
0.2301023 -0.25764591 0.092882961
-0.240959 -0.23029397 0.092569649
0.24095902 -0.15004325 0.092841811
0.24095902 -0.090616331 0.091274366
-0.039760798 0.069633558 0.099408478
-0.18349722 0.074379496 0.091581263
-0.16869558 0.073485985 0.093738295
-0.054524645 0.072560035 0.095594555
0.02095715 0.071863458 0.096502364
0.205887 0.13647898 0.097220272
-0.07709983 0.22602099 0.096745014
0.066343427 0.22602101 0.093170077
-0.078964762 -0.333186 0.101072
-0.240959 -0.29554185 0.10482785
-0.20374979 -0.2518203 0.10151812
0.0035965368 -0.25013518 0.10371411
-0.218228 -0.21190557 0.10028109
0.205887 -0.13995241 0.10495053
-0.21822798 0.022537868 0.10593982
0.240959 0.022331895 0.10990743
0.20588702 0.047966156 0.10331973
0.24095899 0.044159427 0.10093492
-0.13106519 0.063708074 0.10713086
-0.24095902 0.1056346 0.10974679
-0.24095902 0.19609329 0.10469294
0.0032727197 -0.333186 0.11827581
-0.14609824 -0.24120831 0.11534747
0.056873888 -0.24142365 0.11506683
0.065533176 -0.24438728 0.11120468
0.12460042 -0.24093191 0.11570766
0.17480543 -0.23852846 0.1188398
-0.24095902 -0.22573711 0.11246745
-0.218228 -0.076363839 0.1152435
0.24095902 0.049257696 0.11518294
-0.10939118 0.056271963 0.11682196
-0.0049450076 0.055608679 0.11768639
0.0099337325 0.056183662 0.11693704
-0.24095899 0.081848145 0.11414552
0.217915 0.21760774 0.11826216
-0.1182808 0.22602102 0.11803076
0.083297521 0.22602101 0.11686397
-0.16724026 -0.333186 0.12283157
-0.077571228 -0.333186 0.12879816
0.0179158 -0.333186 0.12169979
0.10076081 -0.333186 0.12284903
0.021385416 -0.23311272 0.1258975
0.14647168 -0.23423176 0.1244392
0.15722549 -0.23726781 0.12048265
0.22748511 -0.23686379 0.12100917
-0.240959 -0.22265677 0.12287887
-0.21822801 -0.22116476 0.12307399
0.20588702 -0.22951065 0.12832233
0.24095902 -0.19045715 0.1291391
-0.24095899 -0.18406565 0.12792158
-0.218228 -0.0491703 0.12325358
0.240959 -0.0045821005 0.12289014
-0.24095902 0.048356242 0.12915088
-0.17411548 0.053236876 0.12077744
0.240959 0.050027918 0.12237623
-0.24095902 0.19705001 0.12548321
0.218227 0.19098967 0.12685171
-0.14303249 -0.333186 0.13458431
-0.009495398 -0.22136249 0.13847655
-0.24095902 -0.19583017 0.13046631
-0.24095902 -0.16503957 0.13170767
-0.240959 -0.10248934 0.13023883
0.20588702 -0.091759071 0.13323282
-0.24095902 -0.049879547 0.13537905
0.044743925 0.03843065 0.1378071
-0.043973967 0.045535196 0.13081464
-0.240959 0.1382412 0.13545179
-0.15801364 0.22602102 0.1359002
0.012674326 0.22602099 0.1349884
-0.21778966 -0.333186 0.14628777
0.20588702 -0.29202515 0.14312054
0.20588702 -0.25816309 0.14144474
-0.098979145 -0.21161029 0.14595968
0.01203391 -0.21282709 0.14502601
0.15333125 -0.21090788 0.14649868
0.22172625 -0.21458077 0.14368035
-0.059372302 -0.20737319 0.14921093
-0.240959 -0.021558989 0.14553532
0.205887 0.0147918 0.14460951
-0.218228 0.02447078 0.14214404
-0.14666888 0.033981256 0.1412212
0.01424706 0.035116337 0.14035022
0.15834522 0.033314504 0.1417328
-0.10347449 -0.333186 0.15472367
-0.03633453 -0.333186 0.15061006
0.11746667 -0.333186 0.15733314
0.205887 -0.2861636 0.15323277
0.205887 -0.25240785 0.15692766
-0.21664998 -0.20049572 0.15448824
-0.21822798 -0.16793028 0.15287653
-0.21822801 -0.10776441 0.15413539
-0.21822801 -0.070161223 0.15958923
-0.218228 0.0020365631 0.15757568
-0.023594838 0.012600105 0.15762728
-0.057544138 0.02186632 0.15051718
0.20848633 0.021651722 0.15068184
0.15398984 -0.333186 0.16389319
0.20588699 -0.23708265 0.16293272
-0.14144054 -0.1878473 0.16419373
0.076976426 -0.18335378 0.16633587
0.22650474 -0.1856221 0.1653963
0.20588699 -0.14330636 0.16731489
0.240959 -0.14593522 0.16671363
-0.24095902 -0.025737956 0.16685423
-0.055767123 -0.0078923898 0.16941819
-0.0090095885 -0.0044699986 0.16800056
-0.077168696 0.0062884046 0.16247037
0.205887 0.0058844425 0.16997498
-0.033043873 0.22602101 0.16922507
0.11401877 0.22602099 0.1632683
-0.24095899 -0.26879328 0.17336096
-0.240959 -0.20635113 0.17115659
-0.18166006 -0.16904216 0.17226401
-0.10018668 -0.16862381 0.17243731
-0.063616 -0.16269089 0.17489484
0.15463215 -0.16981301 0.17194471
-0.11116809 -0.15669344 0.1773791
0.040280294 -0.15189618 0.17936622
0.20660517 -0.15578811 0.1777541
-0.240959 -0.13462472 0.17718744
-0.0104248 -0.032683548 0.17968713
-0.1691353 -0.029015075 0.1781676
0.025509235 -0.020942584 0.17482381
-0.24095902 0.031856306 0.17721309
-0.15457204 0.22602102 0.17368132
0.13110225 0.27469388 0.172114
-0.11802876 -0.333186 0.18163334
0.10754547 -0.333186 0.18540359
0.11721132 -0.333186 0.18984646
0.14298844 -0.333186 0.18463363
-0.24095899 -0.25711817 0.18896151
-0.24095899 -0.21694505 0.18143678
-0.1649268 -0.1427594 0.18315086
-0.12047722 -0.14125484 0.18377405
0.046281639 -0.14858142 0.18073925
0.012740873 -0.13952249 0.18403006
0.11072666 -0.13007516 0.18527374
-0.021640752 -0.12358545 0.18612808
0.017420981 -0.12928721 0.18537746
0.18003497 -0.1204357 0.18654269
-0.15110986 -0.11843158 0.18680656
-0.128674 -0.11103404 0.18778042
-0.050189927 -0.11499003 0.18725963
0.13540655 -0.11362585 0.18743917
-0.0056470335 -0.10652573 0.18837388
0.16825147 -0.10145368 0.18904153
-0.1914922 -0.088879339 0.18990102
-0.12681563 -0.088536166 0.18985586
0.15806469 -0.086709447 0.18961537
-0.086846426 -0.071710892 0.18764088
-0.04489895 -0.075164557 0.18809554
0.24095902 -0.062244307 0.18624365
-0.054010537 -0.053746857 0.18527599
0.1912006 -0.057896841 0.18582231
0.2314285 -0.056102976 0.18558617
-0.090334758 -0.048413217 0.18457383
-0.063445561 -0.04265802 0.18381618
0.18123093 -0.042253621 0.18365122
-0.16385911 0.22602101 0.18298542
-0.13910371 0.22602101 0.1851553
-0.11809668 0.22602102 0.18114448
-0.043841407 0.22602102 0.1841071
0.205887 0.22332418 0.1893816
0.070793599 0.31277692 0.18883085
-0.09590289 -0.333186 0.19887123
-0.080915473 -0.333186 0.19575462
0.20588702 -0.3298758 0.19818603
-0.240959 -0.2519449 0.19028541
0.205887 -0.21824317 0.1940206
0.20588699 -0.020082321 0.19825211
-0.12922713 0.22602101 0.19515368
0.070793599 0.27394667 0.19298355
0.07222975 0.333186 0.19904424
0.12164994 -0.333186 0.20290917
-0.240959 -0.2386893 0.20600957
-0.240959 -0.024944469 0.20730433
0.20588702 0.073171154 0.2060609
0.205887 0.15011778 0.2026982
-0.22394024 0.22602101 0.20755376
-0.066635646 0.22602102 0.20159876
0.20588702 0.31782579 0.20197497
0.18834233 0.333186 0.2097685
-0.027973868 -0.333186 0.21073663
0.20588702 -0.26903403 0.21052822
0.205887 -0.24374235 0.21707869
0.205887 0.0014643297 0.21641117
0.205887 0.16301468 0.21015586
-0.037637018 0.22602102 0.21812436
-0.13794416 -0.333186 0.22139266
-0.11281087 -0.333186 0.22898436
-0.10943443 -0.333186 0.22607738
-0.064793944 -0.33318597 0.22610599
0.15944338 -0.33318603 0.22680886
0.19015732 -0.333186 0.22194219
0.205887 -0.24971443 0.22831298
-0.240959 -0.19186664 0.22750206
0.205887 -0.07779035 0.22430551
0.20588702 -0.011787206 0.22990707
-0.240959 -0.0038321465 0.22305489
-0.240959 0.042993777 0.2231684
-0.240959 0.15201026 0.22638169
-0.17546232 -0.33318597 0.23872122
0.036117762 -0.33318597 0.23912011
0.20588702 -0.20799877 0.23185411
-0.240959 -0.077853367 0.23209913
0.20588702 0.03723627 0.23191118
-0.24095899 0.094060674 0.23565438
-0.18609068 0.22602102 0.23641998
0.205887 0.3035568 0.2399123
0.14685485 0.333186 0.23750179
0.19700015 -0.333186 0.24629372
0.205887 -0.31384808 0.24813634
0.205887 -0.16746643 0.24213666
0.20588699 -0.02434526 0.24553673
0.20588702 0.089471988 0.24592012
-0.24095899 0.11568477 0.24807772
0.20588699 0.21826005 0.24418151
-0.063329503 0.22602101 0.24998555
0.070793599 0.32303411 0.24713811
0.17865549 0.33318603 0.24409039
-0.19037578 -0.333186 0.25248045
-0.13109 -0.333186 0.25266981
0.080713004 -0.333186 0.25112653
0.1956923 -0.333186 0.25921881
-0.24095902 -0.22674617 0.25640091
-0.24095902 0.02232907 0.25724885
0.205887 0.023552783 0.25554374
-0.24095902 0.032181833 0.25949702
-0.240959 0.099443555 0.2586337
0.205887 0.12183627 0.25116193
0.205887 0.18317458 0.25934619
-0.240959 0.20569822 0.25635886
0.12781823 0.333186 0.25496748
0.19723019 0.333186 0.25941217
-0.23929906 -0.333186 0.2604962
-0.064137973 -0.333186 0.26624018
-0.03828638 -0.333186 0.26607856
-0.24095902 0.20855634 0.26479039
-0.076758407 0.22602102 0.26304507
0.205887 0.22183008 0.26241344
0.1593664 0.333186 0.26350772
0.205887 0.33304256 0.26103953
-0.18359628 -0.333186 0.27454957
-0.024418671 -0.33318603 0.27706409
-0.240959 -0.27563658 0.27333167
0.205887 -0.23003033 0.27118021
-0.24095902 -0.17700574 0.27367377
0.20588702 -0.15822218 0.27593929
-0.240959 -0.10032795 0.27377501
-0.24095899 0.056841917 0.27247244
-0.033711657 -0.33000392 0.284475
-0.19085804 -0.32475361 0.284475
-0.16590276 -0.32246193 0.284475
-0.13481179 -0.32373947 0.284475
-0.12509964 -0.32392401 0.284475
-0.085034072 -0.31983966 0.284475
0.15007487 -0.31388652 0.284475
-0.0054309815 -0.30321848 0.284475
-0.028830977 -0.29646179 0.284475
0.061067358 -0.29941976 0.284475
0.075287282 -0.28045738 0.284475
-0.17087333 -0.27018708 0.284475
0.067980513 -0.27745175 0.284475
-0.240959 -0.26077321 0.28333655
-0.044721916 -0.25949818 0.284475
0.0055710301 -0.25683993 0.284475
0.15540218 -0.22006349 0.284475
0.079680063 -0.21427628 0.284475
-0.21048744 -0.20823699 0.284475
-0.14348572 -0.20011044 0.284475
0.12710205 -0.20545742 0.284475
-0.037753746 -0.19546567 0.284475
-0.1985268 -0.18059686 0.284475
0.037851475 -0.17215584 0.284475
0.010906294 -0.16286336 0.284475
0.1485204 -0.16042081 0.284475
-0.22886238 -0.1555676 0.284475
0.01227764 -0.1582468 0.284475
-0.21743631 -0.14760149 0.28447503
0.032221571 -0.14992648 0.284475
0.07265234 -0.14263564 0.284475
-0.14070387 -0.13560437 0.284475
-0.127671 -0.13159746 0.284475
-0.0072386786 -0.13857238 0.284475
0.039969001 -0.13628218 0.284475
-0.038024217 -0.12591305 0.284475
-0.01790553 -0.12597838 0.284475
-0.13582441 -0.11561307 0.284475
0.078998052 -0.11795191 0.284475
0.0044851005 -0.10984848 0.284475
0.061823756 -0.10350595 0.284475
-0.22634698 -0.092241712 0.28447497
-0.17718928 -0.096841238 0.284475
0.021351423 -0.094350293 0.284475
0.13400033 -0.090885259 0.284475
-0.17939535 -0.087827809 0.284475
0.14335045 -0.070053041 0.284475
0.15295012 -0.071266994 0.284475
0.18538597 -0.077168852 0.284475
-0.23181768 -0.063033171 0.284475
-0.15181893 -0.061741956 0.284475
0.11443585 -0.0654618 0.284475
-0.025600407 -0.05068247 0.284475
0.098262236 -0.041070201 0.284475
-0.063082904 -0.039397247 0.284475
0.023264121 -0.03851603 0.284475
0.18716723 -0.020436186 0.28447497
0.0031186119 -0.016440168 0.284475
-0.19933397 0.003939487 0.284475
-0.1417322 0.0093353912 0.284475
-0.0094795302 0.0068776086 0.284475
-0.240959 0.013814479 0.28412524
-0.12920496 0.018481337 0.284475
0.00038360246 0.014523098 0.284475
0.03431404 0.010798637 0.284475
0.19307271 0.014152426 0.284475
0.020233482 0.028938722 0.284475
-0.053667709 0.030422352 0.284475
-0.0039478838 0.030008489 0.284475
0.060106806 0.035981342 0.284475
-0.22668582 0.046461791 0.284475
-0.21328841 0.040512256 0.284475
-0.19933695 0.045711823 0.284475
0.01277717 0.046548069 0.284475
0.040893398 0.044727415 0.284475
0.062786736 0.041522659 0.284475
0.086663887 0.04788553 0.284475
0.18415348 0.051935397 0.284475
0.205887 0.054561798 0.28261292
-0.19705887 0.079639025 0.284475
-0.17655253 0.085475668 0.284475
0.11708149 0.089149229 0.284475
-0.0098938048 0.091330439 0.284475
0.14162648 0.092802972 0.284475
0.16698609 0.11256066 0.284475
0.20588702 0.11536481 0.2810339
-0.17897408 0.14415388 0.284475
-0.1622059 0.15190597 0.284475
-0.069938265 0.16817018 0.284475
0.097078666 0.1613014 0.284475
-0.14259002 0.17098536 0.28447497
-0.081118219 0.17514542 0.284475
-0.035568625 0.17190933 0.284475
-0.20671958 0.18738125 0.284475
-0.1873477 0.18951905 0.284475
-0.014627501 0.1832878 0.284475
0.11204495 0.18793207 0.284475
-0.21374811 0.19654557 0.284475
-0.10848384 0.20630956 0.284475
0.12728246 0.2082386 0.284475
0.015749186 0.211913 0.284475
-0.13468644 0.22602101 0.28411329
0.13027117 0.25413123 0.284475
0.16926804 0.26611841 0.284475
0.124838 0.2798124 0.284475
0.1546596 0.30702734 0.284475
