# .PCD v0.7 - Point Cloud Data file format
VERSION 0.7
FIELDS x y z
SIZE 4 4 4
TYPE F F F
COUNT 1 1 1
WIDTH 970
HEIGHT 1
VIEWPOINT 0 0 0 1 0 0 0
POINTS 970
DATA ascii
-0.15387768 -0.26130909 -0.37478399
-0.1429048 -0.26395872 -0.37478399
-0.063394301 -0.26523197 -0.37384799
-0.022231437 -0.26319084 -0.37478399
-0.083617449 -0.25946677 -0.37478399
-0.001106143 -0.25218967 -0.37478399
0.032581158 -0.25110173 -0.37478399
-0.17466111 -0.24904996 -0.37478399
0.18453068 -0.24914521 -0.37478399
-0.023955397 -0.23079845 -0.37478399
0.041709647 -0.23319599 -0.37478399
0.075283974 -0.23766546 -0.37478399
0.089470774 -0.23854668 -0.37478399
-0.05497916 -0.22887537 -0.37478399
-0.17676413 -0.20747966 -0.37478399
-0.079493828 -0.19536768 -0.37478399
-0.025033154 -0.19229971 -0.37478399
-0.096199691 -0.18240565 -0.37478399
-0.10887095 -0.17463499 -0.37478399
-0.0053132214 -0.17622459 -0.37478399
0.010001361 -0.17577885 -0.37478399
-0.080725573 -0.16896369 -0.37478399
0.0220033 -0.16875431 -0.37478399
-0.17186496 -0.14117086 -0.37478399
-0.0049200132 -0.14198107 -0.37478399
0.16464898 -0.14368276 -0.37478399
0.18032952 -0.14864098 -0.37478399
-0.15525426 -0.12636818 -0.37478399
-0.10519245 -0.12953132 -0.37478399
0.0023890436 -0.12145971 -0.37478399
0.091973498 -0.10158423 -0.37478399
-0.028550237 -0.090092123 -0.37478399
0.15612884 -0.096644804 -0.37478399
-0.16833061 -0.083223291 -0.37478399
0.12477 -0.086386055 -0.37478399
0.1809186 -0.086685888 -0.37478399
-0.00045710802 -0.077644981 -0.37478399
0.056558039 -0.072000258 -0.37478399
0.17938451 -0.077610485 -0.37478399
0.19772431 -0.069767639 -0.37478399
-0.18981385 -0.05796241 -0.37478399
-0.13671145 -0.054719079 -0.37478399
-0.097005919 -0.052514274 -0.37478399
0.15605135 -0.053513259 -0.37478399
0.197963 -0.057853363 -0.37077492
-0.048177145 -0.042054757 -0.37478399
-0.077941604 -0.033072151 -0.37478399
0.10315384 -0.037184991 -0.37478399
0.11770138 -0.033335738 -0.37478399
-0.17088729 -0.023351287 -0.37478399
-0.16226903 -0.028344272 -0.37478399
0.014930716 -0.013737905 -0.37478399
0.096223444 -0.01109881 -0.37478399
-0.15151092 -0.0026358068 -0.37478399
0.012527761 0.008753052 -0.37478399
-0.045858249 0.015929155 -0.37478399
0.16222295 0.01466801 -0.37478399
0.092715889 0.037360296 -0.37478399
-0.04006134 0.049391478 -0.37478399
-0.086161748 0.056343842 -0.37478399
0.12475252 0.06696035 -0.37478399
-0.13273636 0.087038755 -0.37478399
0.061865963 0.081412278 -0.37478399
0.029463468 0.092154711 -0.37478399
0.093718186 0.094975591 -0.37478399
0.1905925 0.10599767 -0.37478399
-0.18182418 0.11412254 -0.37478399
0.15908602 0.11968613 -0.37478399
-0.022826664 0.12910163 -0.37478399
-0.0073944181 0.12628371 -0.37478399
0.057580411 0.13749667 -0.37478399
0.12063719 0.13302784 -0.37478399
0.068575643 0.16299176 -0.37478399
0.11590593 0.16626811 -0.37478399
0.14442006 0.16281468 -0.37478399
-0.16395698 0.17840476 -0.37478399
-0.085377343 0.1772916 -0.37478399
-0.0026927143 0.17889039 -0.37478399
0.098104075 0.17134865 -0.37478399
-0.15066956 0.1938996 -0.37478399
0.085566647 0.1981575 -0.37478399
0.19035907 0.19684696 -0.37478399
-0.13393164 0.20159268 -0.37478399
-0.18030719 0.21038756 -0.37478399
0.062369827 0.21728627 -0.37478399
0.083205551 0.21940666 -0.37478399
0.091419622 0.21465039 -0.37478399
0.15721308 0.21457598 -0.37478399
0.14553939 0.22257005 -0.37478399
-0.18869451 0.23395644 -0.37478399
0.047899716 -0.265232 -0.36372271
0.12950523 -0.265232 -0.36225688
0.197963 -0.23977758 -0.3613731
0.197963 -0.20300558 -0.36976418
-0.19027501 -0.13788259 -0.36465478
-0.190275 -0.11949977 -0.36170787
0.197963 -0.062396385 -0.3648304
-0.19027501 0.01056388 -0.36845315
-0.190275 0.062539518 -0.362957
-0.17304078 0.249856 -0.36636493
-0.14760409 0.249856 -0.36179399
0.14664371 0.249856 -0.36777321
-0.190275 -0.2454367 -0.35923147
-0.19027501 -0.17484581 -0.35352862
-0.190275 -0.11819992 -0.35440338
0.16628021 0.249856 -0.35753503
0.079859413 -0.265232 -0.34880713
-0.190275 -0.1353955 -0.34685445
-0.190275 0.21577902 -0.34510836
-0.10173576 0.249856 -0.34540147
-0.190275 -0.22423133 -0.33815485
0.197963 -0.18773867 -0.33059278
0.197963 -0.045937389 -0.33363634
-0.19027501 -0.031815402 -0.33192682
0.197963 -0.037185706 -0.33045882
-0.190275 0.046903685 -0.33327165
0.197963 0.075210765 -0.33372977
-0.19027498 0.099630415 -0.33692616
0.197963 0.10954748 -0.33580509
-0.19027498 0.15237454 -0.33879307
0.197963 0.16397132 -0.33510208
0.197963 0.23334083 -0.33106723
-0.18350212 0.249856 -0.33384985
-0.150925 0.249856 -0.33642957
0.17613068 0.249856 -0.33301097
-0.068604678 -0.265232 -0.32419142
-0.041324992 -0.265232 -0.32544738
0.16263565 -0.265232 -0.32344979
0.197963 -0.24079855 -0.32602823
0.197963 -0.21263835 -0.32594469
-0.190275 -0.094286218 -0.32188082
0.197963 -0.076422475 -0.3253051
-0.190275 0.10175849 -0.32291123
0.197963 0.2281881 -0.32313958
-0.041906998 0.249856 -0.32275322
-0.13746373 -0.265232 -0.31283444
-0.095812231 -0.265232 -0.31623611
0.13678142 -0.265232 -0.31204164
0.197963 -0.21120709 -0.31283244
-0.190275 -0.20151019 -0.31280047
0.197963 -0.1303167 -0.31685856
-0.19027501 -0.062179413 -0.31052682
-0.190275 0.080819346 -0.31572515
-0.14556934 -0.265232 -0.30271605
0.10161507 -0.265232 -0.30273119
0.12667134 -0.265232 -0.30497572
0.1389838 -0.265232 -0.30537698
0.19796298 -0.2322804 -0.30197367
-0.190275 -0.099396609 -0.30708453
-0.190275 -0.04412473 -0.30623594
-0.19027498 0.029835448 -0.30598891
-0.190275 0.091556087 -0.30512491
0.197963 0.095490016 -0.30684283
0.197963 0.12298433 -0.30453107
-0.19027498 0.20125766 -0.30808145
-0.1685719 0.24985598 -0.30467978
0.197963 -0.10704516 -0.29534164
0.197963 -0.059954315 -0.29322109
-0.19027498 0.088673718 -0.29852268
0.197963 0.21352886 -0.29926106
0.17885862 0.249856 -0.29543734
-0.037154101 -0.265232 -0.28279221
-0.19027501 -0.16489494 -0.28614062
0.197963 -0.073767215 -0.28288063
-0.190275 0.081730664 -0.28863257
-0.079985261 0.249856 -0.28796786
0.15491712 0.249856 -0.28971148
-0.094913617 -0.265232 -0.2748948
-0.086745918 -0.265232 -0.27324432
0.084446058 -0.265232 -0.27331454
-0.190275 -0.15136763 -0.27910417
0.197963 -0.11102746 -0.27964509
0.197963 -0.087042823 -0.2718038
0.197963 0.086172521 -0.27431303
0.197963 0.094338305 -0.27398306
-0.19027498 0.20245482 -0.27381283
-0.0036389939 0.249856 -0.27882394
0.047678456 -0.265232 -0.26952872
0.094108865 -0.265232 -0.26246688
0.197963 -0.25436571 -0.2631436
-0.190275 0.098811448 -0.26920891
-0.190275 0.11879065 -0.26698813
-0.17928974 -0.265232 -0.25491849
0.071240447 -0.265232 -0.25050315
0.197963 -0.21428941 -0.25371686
0.197963 0.036793515 -0.25652665
0.197963 0.14411779 -0.25581256
0.197963 0.22827736 -0.25017563
-0.15349659 0.249856 -0.25216159
-0.013087885 0.249856 -0.25458869
0.13954902 0.249856 -0.25499263
-0.19027498 -0.11386569 -0.24601686
0.197963 -0.046457358 -0.24703658
0.042761028 0.249856 -0.24571888
0.067129493 0.249856 -0.24726641
0.076019272 0.249856 -0.242836
0.086188681 -0.265232 -0.23260519
-0.190275 -0.24143714 -0.23264818
0.197963 -0.083812535 -0.23979878
-0.190275 -0.04784742 -0.23321472
0.197963 0.099651009 -0.23776431
-0.190275 0.20313425 -0.23321335
0.040933356 0.249856 -0.23838778
0.11633013 -0.265232 -0.22363418
-0.190275 -0.16308573 -0.22441363
0.197963 0.23894462 -0.22146617
0.14344238 0.24985601 -0.22908795
-0.190275 -0.26396501 -0.21440086
-0.16018716 -0.265232 -0.21760362
-0.041362658 -0.265232 -0.21151093
0.012611464 -0.265232 -0.21723613
0.197963 -0.20649645 -0.21934645
-0.190275 -0.19566934 -0.21272598
0.197963 -0.078757592 -0.21123418
0.197963 -0.061285265 -0.21062581
-0.18215175 0.249856 -0.21538074
-0.17772169 0.249856 -0.21934317
0.019814745 0.249856 -0.21943551
0.058630135 0.249856 -0.21069616
0.16802523 0.249856 -0.21914464
-0.14559767 -0.265232 -0.20352113
0.197963 -0.19536701 -0.20917317
-0.19027498 -0.18503892 -0.20996517
0.197963 0.059664689 -0.20302533
0.197963 0.081812337 -0.20957506
-0.190275 0.12427752 -0.20959124
0.197963 0.18596578 -0.20733224
-0.016957067 0.249856 -0.20718116
0.10661674 0.249856 -0.20579946
0.197963 0.2430916 -0.2036334
-0.14036968 -0.265232 -0.19894141
-0.084356189 -0.265232 -0.19723801
0.197963 0.084901571 -0.19757952
0.197963 0.17178871 -0.19960278
0.197963 0.19921423 -0.19692834
-0.034959566 0.249856 -0.19099443
-0.029410008 0.249856 -0.19832058
0.1476457 0.249856 -0.19889498
-0.190275 -0.22377238 -0.18096644
0.197963 -0.090533607 -0.18016709
-0.190275 -0.064051546 -0.18356058
0.197963 -0.034422152 -0.18424892
-0.190275 -0.009536244 -0.18101679
0.197963 0.071335793 -0.18996991
0.197963 0.13566457 -0.1836153
0.197963 0.14365752 -0.18082298
-0.017060943 0.249856 -0.18107767
0.13318506 0.249856 -0.18212169
-0.00056144595 -0.265232 -0.17513847
0.11784664 -0.26523203 -0.17344892
0.16546178 -0.265232 -0.17598245
-0.190275 -0.21867573 -0.17708173
-0.190275 -0.14334653 -0.17119268
0.197963 -0.029784493 -0.17737332
0.197963 -0.0056349337 -0.17357872
0.197963 0.11242521 -0.17281851
0.197963 0.1881835 -0.17699629
-0.190275 0.22847417 -0.17161836
0.064992465 0.249856 -0.17870089
0.197963 0.19203582 -0.16043651
-0.1035164 0.249856 -0.16124964
0.0130715 0.249856 -0.16090083
0.096006431 0.249856 -0.16153324
-0.052322522 -0.265232 -0.15515752
0.12661086 -0.26523197 -0.15217358
0.197963 -0.25554496 -0.159428
0.197963 0.12157428 -0.15266119
-0.190275 0.24104503 -0.1525417
-0.040051974 0.249856 -0.15705122
0.018798728 0.249856 -0.15752459
-0.16701403 -0.265232 -0.1440821
0.1312243 -0.265232 -0.14093199
-0.190275 -0.17159881 -0.14685804
0.197963 0.0011213124 -0.14087409
-0.190275 0.24946286 -0.14382875
-0.050074808 0.249856 -0.14241967
0.1670139 0.249856 -0.14596632
0.197963 0.24513431 -0.14472046
0.12652865 -0.265232 -0.13023493
0.15763231 -0.265232 -0.13699591
-0.190275 -0.05949574 -0.13819781
-0.19027498 0.1247299 -0.13541612
-0.12973431 0.249856 -0.13793457
0.033155989 0.249856 -0.13724208
-0.15303624 -0.265232 -0.12567961
-0.1175286 -0.265232 -0.12516819
0.043211672 -0.265232 -0.12305757
0.17182799 -0.265232 -0.12228432
-0.19027501 -0.049694858 -0.1218887
-0.19027498 0.011140242 -0.12536225
-0.12524179 0.249856 -0.12035877
-0.11884651 0.249856 -0.12345631
0.004126789 0.249856 -0.12681963
0.13579701 0.249856 -0.12677473
0.12229568 -0.265232 -0.11395293
-0.190275 -0.02758985 -0.11965317
-0.190275 -0.012777902 -0.11361905
0.197963 0.22480333 -0.11358982
-0.15042585 0.249856 -0.11438282
0.013425704 0.249856 -0.11282768
-0.10031692 -0.265232 -0.10440977
-0.07888826 -0.265232 -0.10289125
0.066036731 -0.265232 -0.10474803
-0.190275 -0.22892487 -0.10632624
-0.19027498 -0.19613868 -0.10120478
0.197963 -0.15169036 -0.10111205
-0.190275 -0.14840023 -0.10999137
-0.190275 -0.082149193 -0.1044897
-0.19027501 0.14712791 -0.1040379
-0.19027501 0.20897684 -0.10888106
-0.11273967 0.249856 -0.10374841
0.17520678 0.24985601 -0.10913834
-0.190275 -0.053339269 -0.09595032
0.197963 0.13169278 -0.098055772
0.087731354 -0.265232 -0.084442653
0.197963 -0.17194833 -0.082472987
-0.19027498 -0.055100732 -0.083582073
0.197963 -0.017747805 -0.088559642
-0.050735135 0.249856 -0.080151141
0.043726906 0.249856 -0.088826276
-0.18353938 -0.265232 -0.073367298
-0.096480288 -0.26523197 -0.077763908
0.197963 -0.23981568 -0.076005273
-0.190275 -0.13592096 -0.077188037
-0.19027498 -0.11248288 -0.070828974
-0.19027501 0.046707429 -0.077967212
0.197963 0.043026358 -0.07938052
0.197963 0.23303317 -0.070802659
0.13339072 0.249856 -0.078997009
-0.070264585 -0.265232 -0.065924458
0.14156014 -0.265232 -0.066857018
-0.19027498 -0.1044355 -0.065635473
-0.19027501 -0.011668444 -0.061659604
-0.12950855 0.249856 -0.066032968
-0.10649704 0.249856 -0.068972155
-0.045909472 0.249856 -0.069803268
0.197963 -0.26420134 -0.053551
0.197963 -0.20304134 -0.059162959
0.197963 -0.15184018 -0.05888382
0.197963 -0.11740359 -0.05314111
-0.19027498 0.13388351 -0.054851353
0.197963 0.17578164 -0.058025923
0.197963 0.20882975 -0.051857378
-0.11348101 0.249856 -0.052405793
0.14356607 0.249856 -0.052808493
0.19630539 0.249856 -0.059980724
-0.19027498 -0.26074809 -0.048156217
-0.190275 -0.080007695 -0.04279561
0.197963 0.0093832165 -0.047457941
0.197963 0.072486982 -0.040141296
0.197963 0.11096172 -0.040138833
0.197963 0.14370033 -0.042020127
-0.190275 0.20071584 -0.047338031
-0.190275 0.21609272 -0.041940231
0.11568083 0.249856 -0.048624303
-0.10841355 -0.265232 -0.033923
-0.061639823 -0.265232 -0.030853789
-0.054675624 -0.265232 -0.03694313
0.073166803 -0.265232 -0.031362902
0.11373289 -0.265232 -0.039399926
-0.190275 -0.18738362 -0.037248217
0.197963 -0.13023561 -0.030930433
0.197963 0.03832949 -0.036561206
-0.11437774 0.249856 -0.036144532
-0.19027498 -0.12680228 -0.029330023
-0.190275 -0.09617196 -0.02588236
0.197963 0.097058669 -0.028617319
-0.10367608 0.249856 -0.029412886
0.12327714 0.249856 -0.02440751
0.197963 0.24048135 -0.028237686
-0.10781454 -0.265232 -0.016583782
0.020683128 -0.265232 -0.016525779
-0.190275 -0.1635503 -0.015550326
-0.19027501 -0.09871313 -0.018470179
0.197963 -0.093724892 -0.015755896
0.197963 -0.033751979 -0.017833186
-0.190275 -0.027890079 -0.012638876
0.197963 -0.010421544 -0.013315341
0.197963 0.093787074 -0.017553367
-0.11008055 0.249856 -0.013200483
0.043584909 0.249856 -0.013833152
0.171909 0.249856 -0.013105199
-0.10327111 -0.26438034 -0.0057661799
-0.054951239 -0.265232 -0.0097745359
-0.024779528 -0.265232 -0.006764167
0.048965909 -0.265232 -0.0067418935
-0.022514544 -0.24660937 -0.0057661794
0.057536274 -0.23811695 -0.0057661803
0.12989305 -0.23466048 -0.0057661799
0.044155098 -0.22052675 -0.0057661799
0.064560398 -0.22710162 -0.0057661794
0.12596773 -0.22947931 -0.0057661799
0.072977051 -0.21766597 -0.0057661803
0.090512127 -0.21404786 -0.0057661799
0.11052734 -0.21614422 -0.0057661794
0.096608698 -0.20663002 -0.0057661799
-0.13894434 -0.19682273 -0.0057661799
-0.12441102 -0.19098942 -0.0057661799
0.09829551 -0.18096864 -0.0057661799
0.12814431 -0.18623742 -0.0057661799
0.1543882 -0.17596409 -0.0057661799
0.17692691 -0.1724388 -0.0057661799
-0.19002017 -0.16753492 -0.0057661799
0.14020172 -0.16713582 -0.0057661799
-0.088693932 -0.15085137 -0.0057661799
0.014493309 -0.15552472 -0.0057661803
0.0022275522 -0.13464275 -0.0057661799
0.073761761 -0.13345708 -0.0057661799
-0.070598818 -0.12162466 -0.0057661799
0.13068956 -0.12031058 -0.0057661799
-0.020715572 -0.11198691 -0.0057661799
0.17679995 -0.11795714 -0.0057661794
0.033434235 -0.10513221 -0.0057661799
0.047006764 -0.1065946 -0.0057661799
0.034711283 -0.083861209 -0.0057661799
0.18379202 -0.088901751 -0.0057661794
-0.00093087181 -0.073595256 -0.0057661799
-0.082722336 -0.052649841 -0.0057661799
0.197963 -0.055436485 -0.0074954126
-0.074711554 -0.040521555 -0.0057661799
0.0049798731 -0.049768876 -0.0057661799
0.014958628 -0.043479867 -0.0057661799
0.18954869 -0.043819569 -0.0057661799
-0.18076435 -0.037040591 -0.0057661794
-0.0010468811 -0.037232906 -0.0057661799
0.096125066 -0.038454264 -0.0057661803
-0.190275 -0.018722326 -0.0090486351
0.11642922 -0.018311657 -0.0057661799
-0.18474817 0.0020358562 -0.0057661799
-0.052227169 0.0041819215 -0.0057661799
0.0052029928 0.0032820217 -0.0057661799
0.10535534 0.0062830895 -0.0057661799
0.17210111 0.00017461181 -0.0057661799
0.0036304938 0.013706539 -0.0057661799
0.125853 0.019501584 -0.0057661799
-0.18603322 0.026095085 -0.0057661799
-0.1284496 0.023988195 -0.0057661799
-0.080678508 0.029880416 -0.0057661799
-0.044296823 0.025097989 -0.0057661799
-0.025985911 0.029532911 -0.0057661799
0.0028223842 0.022250958 -0.0057661803
-0.12544808 0.030076392 -0.0057661803
0.030946523 0.030557111 -0.0057661799
0.06762629 0.034382135 -0.0057661799
-0.17243111 0.047499724 -0.0057661799
-0.15416244 0.041892685 -0.0057661803
-0.063773423 0.049668498 -0.0057661799
-0.053232484 0.047662973 -0.0057661799
-0.011823483 0.04077854 -0.0057661794
0.1777513 0.041794822 -0.0057661799
-0.17638956 0.052080534 -0.0057661799
-0.051112346 0.0561582 -0.0057661799
-0.0047200434 0.077170625 -0.0057661799
0.11942166 0.072977982 -0.0057661799
-0.0074747298 0.082625881 -0.0057661799
-0.088742062 0.096273847 -0.0057661799
0.17164673 0.091969274 -0.0057661799
-0.14402318 0.1035152 -0.0057661799
-0.10900356 0.10358866 -0.0057661799
-0.19004685 0.11596213 -0.0057661799
-0.14537506 0.11203536 -0.0057661799
0.13963056 0.11482568 -0.0057661799
0.056713991 0.12352279 -0.0057661799
0.010004312 0.13104695 -0.0057661799
-0.060962036 0.14551668 -0.0057661794
-0.047515441 0.15898983 -0.0057661794
0.044957623 0.15630768 -0.0057661799
0.10194743 0.15797436 -0.0057661803
0.14497538 0.15073642 -0.0057661799
-0.15487643 0.16699083 -0.0057661794
-0.1422841 0.17154664 -0.0057661799
-0.019128844 0.17482558 -0.0057661794
0.0052092075 0.1763474 -0.0057661794
0.099724203 0.17299497 -0.0057661803
-0.18182613 0.19567783 -0.0057661799
-0.046618592 0.20980597 -0.0057661794
0.090652175 0.20336895 -0.0057661799
0.11549793 0.20334306 -0.0057661794
0.12963328 0.20635031 -0.0057661799
0.197963 0.20501417 -0.0069073867
-0.14034371 0.21906422 -0.0057661799
-0.023246124 0.21863161 -0.0057661799
-0.18969995 0.22622406 -0.0057661799
-0.0065225735 0.2304548 -0.0057661799
-0.15962254 0.24153233 -0.0057661799
-0.097223632 0.249856 -0.0096891522
-0.06286636 0.24358313 -0.0057661799
0.065116629 0.24969226 -0.0060634683
-0.190275 -0.26422557 0.0058898563
0.053612262 -0.26302007 0.0057661799
0.1311141 -0.2414269 0.0057661799
0.081356615 -0.23778191 0.0057661799
-0.030108765 -0.22790873 0.0057661799
-0.022113584 -0.22303066 0.0057661799
-0.12048832 -0.21318346 0.0057661799
0.064079851 -0.21502471 0.0057661799
-0.04206248 -0.20225909 0.0057661799
0.011489488 -0.2028195 0.0057661799
-0.1236288 -0.19652212 0.0057661799
0.10136738 -0.19127892 0.0057661799
-0.18341358 -0.1890666 0.0057661794
0.018967621 -0.17617363 0.0057661799
0.083035395 -0.17577694 0.0057661799
0.17208229 -0.17469116 0.0057661799
-0.045150779 -0.16622429 0.0057661799
0.1409525 -0.16754657 0.0057661799
0.071170829 -0.15577209 0.0057661799
0.12329628 -0.15713756 0.0057661799
-0.17536564 -0.14321376 0.0057661794
0.018723622 -0.14520591 0.0057661799
0.08152274 -0.14564362 0.0057661799
0.16503923 -0.13628849 0.0057661799
-0.082146138 -0.12640044 0.0057661799
-0.07352984 -0.12266531 0.0057661799
0.017797172 -0.12198913 0.0057661799
-0.12130752 -0.11703089 0.0057661799
0.12756535 -0.11481993 0.0057661799
-0.10479292 -0.10272336 0.0057661794
-0.087783627 -0.10386185 0.0057661794
0.018921614 -0.10888258 0.0057661799
0.187758 -0.10027868 0.0057661799
-0.18568636 -0.098807827 0.0057661799
-0.1429604 -0.081426308 0.0057661799
0.12812895 -0.082384795 0.0057661799
-0.11987204 -0.072880104 0.0057661799
0.046550445 -0.073131062 0.0057661799
0.197963 -0.072226755 0.00993043
-0.10194172 -0.064873144 0.0057661799
-0.008743979 -0.061939768 0.0057661803
0.049723051 -0.06136987 0.0057661799
-0.095438793 -0.045847602 0.0057661799
-0.029601082 -0.04897406 0.0057661799
-0.0018190518 -0.042403482 0.0057661799
0.0077303196 -0.046578996 0.0057661799
0.13886288 -0.018409081 0.0057661799
-0.15914947 0.0028148815 0.0057661799
-0.062743291 0.0012915581 0.0057661794
0.19750279 0.0082266554 0.0057661799
-0.010991603 0.020438246 0.0057661799
0.055635039 0.028026363 0.0057661799
-0.15762946 0.040689647 0.0057661799
-0.025881708 0.046704967 0.0057661799
-0.12912098 0.068146139 0.0057661799
-0.084198736 0.065395221 0.0057661799
-0.055187583 0.062852338 0.0057661799
-0.19027498 0.083139628 0.0062688729
-0.16991329 0.099716216 0.0057661799
-0.06839069 0.099168889 0.0057661799
-0.18171518 0.10206322 0.0057661799
-0.0046986789 0.11376414 0.0057661799
0.13549845 0.11961647 0.0057661803
0.15828507 0.1271079 0.0057661794
0.18951006 0.12649857 0.0057661794
0.014778897 0.14955106 0.0057661799
0.0033450946 0.15993881 0.0057661794
0.12405917 0.15177394 0.0057661794
0.197963 0.15673423 0.0071669137
-0.1248744 0.16533725 0.0057661799
-0.0021319166 0.16899064 0.0057661799
0.064318553 0.16121489 0.0057661803
0.054265931 0.17342357 0.0057661794
-0.10051812 0.18978672 0.0057661803
-0.083985686 0.18409 0.0057661794
0.041779943 0.18581013 0.0057661794
0.1242796 0.1802168 0.0057661799
0.15825637 0.1828773 0.0057661799
-0.13567212 0.20037457 0.0057661799
-0.11281602 0.22950923 0.0057661799
-0.09293893 0.23395538 0.0057661799
-0.15422128 -0.265232 0.013959823
-0.12754263 -0.265232 0.018363506
0.197963 -0.13227698 0.010294423
0.197963 0.0075815916 0.018430244
0.197963 0.17697598 0.010557529
-0.016656741 0.249856 0.011239894
0.013925016 0.249856 0.016881956
-0.190275 -0.26437625 0.029028703
-0.049173299 -0.265232 0.028272042
0.197963 -0.19507839 0.022833172
0.197963 -0.15611221 0.021449734
-0.19027498 -0.043503068 0.022335719
-0.190275 0.14725408 0.024492346
0.19796298 0.16977692 0.02398669
-0.055018529 -0.265232 0.036703363
-0.190275 -0.13986905 0.039969247
-0.190275 -0.024700463 0.033115588
0.07346274 0.249856 0.033218093
-0.16359562 -0.265232 0.045944069
-0.0010221973 -0.265232 0.047166005
0.10304295 -0.265232 0.045821514
0.15446922 -0.265232 0.043006472
0.16347696 -0.265232 0.045104884
-0.190275 -0.11221962 0.048481196
0.197963 0.033107452 0.045640349
-0.097842313 0.249856 0.042118356
-0.054487348 0.249856 0.044148002
-0.035096675 0.249856 0.040124759
-0.0045541599 -0.265232 0.053396292
0.026981946 -0.265232 0.057618093
-0.190275 -0.24723729 0.052142974
0.197963 -0.095197544 0.054716595
0.197963 0.018330052 0.056112397
-0.190275 0.17267415 0.051395677
0.197963 0.21711814 0.057329699
-0.19027501 0.24188757 0.053940553
-0.023998648 0.249856 0.053614769
0.11079171 0.249856 0.056834802
-0.11890469 -0.265232 0.06000052
0.063175693 -0.265232 0.066375531
-0.190275 -0.095975518 0.060476176
0.197963 0.028035812 0.066644773
0.197963 0.049526729 0.068028986
0.011315204 0.249856 0.060475454
0.070827007 0.249856 0.067536533
-0.17083737 -0.265232 0.075630561
-0.14260051 -0.265232 0.078642726
-0.074615277 -0.265232 0.078102551
0.054689564 -0.265232 0.076158352
0.1903708 -0.265232 0.07432013
-0.190275 -0.11531942 0.078614168
0.197963 0.043700583 0.079004332
0.19796301 0.081442654 0.071678981
-0.16168138 0.249856 0.075734198
0.023867775 0.249856 0.076165892
-0.14828123 -0.265232 0.08929719
0.16558143 -0.265232 0.083884314
0.17928058 -0.265232 0.081981368
-0.190275 -0.18941534 0.085303083
0.079941094 0.249856 0.081605583
0.12589698 0.24985601 0.088572666
0.076135367 -0.265232 0.090195633
-0.19027498 -0.147623 0.09081807
0.197963 -0.13188481 0.094919421
-0.190275 -0.062342651 0.098293222
-0.190275 -0.01419948 0.09325131
-0.190275 0.01880873 0.092189185
0.197963 0.1035139 0.099748969
-0.190275 0.12331773 0.096875198
-0.19027501 0.17600231 0.0941796
-0.17692313 0.249856 0.092443101
-0.1131356 0.249856 0.090311937
0.15444289 0.249856 0.093265444
-0.055177383 -0.265232 0.10548046
0.06157393 -0.265232 0.10894431
0.197963 -0.17923728 0.10181296
0.197963 -0.13562074 0.10959665
-0.19027501 -0.018296603 0.10579698
-0.190275 0.0040063784 0.10267232
-0.190275 0.10132802 0.10673728
-0.190275 0.11580409 0.10200275
0.17242241 0.249856 0.10735445
-0.029192477 -0.265232 0.11230902
0.197963 -0.26070857 0.11964736
-0.19027501 -0.17588425 0.11651236
0.197963 -0.062583707 0.11846064
0.197963 -0.024756879 0.1174967
0.197963 0.13344333 0.11527851
-0.11618783 0.249856 0.11010139
-0.01552308 0.249856 0.11398565
-0.0092055537 0.249856 0.11014066
0.197963 -0.059033267 0.12194393
0.197963 0.22491744 0.12726222
-0.10500104 -0.265232 0.13071406
0.0086863246 -0.265232 0.13211836
0.15879463 -0.265232 0.13747883
-0.19027501 -0.15925127 0.13344511
0.197963 -0.12764576 0.13470379
0.197963 -0.067346454 0.13266179
0.197963 0.023201013 0.13829461
-0.190275 0.11251292 0.13755649
0.197963 0.23919813 0.1309987
-0.047862075 0.249856 0.13834681
-0.005797945 0.249856 0.13974527
0.14697716 0.24985601 0.1327143
0.19651847 0.249856 0.1316409
-0.072302349 -0.265232 0.14037256
-0.040336043 -0.265232 0.14398575
0.019498631 -0.265232 0.14361691
0.197963 -0.24144995 0.1496281
0.197963 -0.13362592 0.14745775
0.197963 0.0042295307 0.14630792
-0.190275 0.057094473 0.14712161
0.197963 0.09219715 0.14711791
-0.190275 0.13314621 0.14449696
0.197963 0.21733592 0.14571081
-0.12183149 -0.265232 0.15110466
0.16451396 -0.265232 0.15303086
0.197963 -0.23579769 0.15358996
0.197963 -0.22881489 0.15770882
-0.190275 -0.090189032 0.15657789
-0.15336092 0.249856 0.1573827
0.00085328147 0.249856 0.15003289
-0.096076913 -0.265232 0.16910106
-0.048157558 -0.265232 0.16001083
-0.190275 -0.15867007 0.16941504
0.197963 -0.15049893 0.16305913
0.197963 0.11081381 0.16434374
0.197963 0.17978418 0.16904339
-0.19027501 0.24770191 0.16324329
-0.051250301 0.249856 0.16489492
0.010164735 0.249856 0.16120967
-0.029273551 -0.265232 0.17660911
0.079406798 -0.265232 0.17716338
0.12083374 -0.265232 0.17651209
-0.190275 -0.24814901 0.17382053
-0.190275 -0.16225415 0.17008175
-0.190275 -0.10992642 0.17242236
0.197963 0.11202837 0.17350411
-0.19027501 0.22221804 0.17375648
-0.12511736 0.249856 0.17113997
0.067856371 0.249856 0.1773563
-0.15680043 -0.265232 0.18238814
0.197963 -0.22871043 0.18011194
-0.19027501 -0.19856307 0.18605685
-0.190275 -0.023547702 0.18339607
0.197963 0.044390358 0.18658195
-0.190275 0.07547234 0.18780483
0.197963 0.10932022 0.18657346
-0.190275 0.24521104 0.1819257
-0.012980033 0.249856 0.18975337
-0.091220073 -0.265232 0.19797496
0.11627389 -0.265232 0.19356416
-0.190275 0.079272807 0.1908658
-0.15558812 0.24985601 0.19868781
-0.14880137 0.249856 0.19764075
0.022082403 0.249856 0.19835296
0.052545324 0.249856 0.19603521
0.16690843 0.249856 0.19523117
-0.056452595 -0.265232 0.20060551
-0.023279682 -0.265232 0.20292029
0.028818376 -0.265232 0.20266189
-0.190275 -0.17265008 0.20373559
0.197963 -0.13107134 0.20804018
-0.190275 -0.076594532 0.20468095
0.197963 -0.047275983 0.20175274
0.197963 0.019615211 0.20620628
-0.190275 0.20117606 0.20541766
-0.05747582 0.249856 0.20992553
0.065337241 -0.265232 0.2156474
0.090704434 -0.26523197 0.21161045
0.11261146 -0.265232 0.21425118
-0.190275 -0.24572441 0.21122922
0.197963 0.0062468145 0.21783927
-0.190275 0.032888912 0.219824
0.197963 0.23635638 0.21615416
-0.18018878 0.249856 0.21740708
0.17853624 0.249856 0.21247163
-0.16313615 -0.265232 0.22879003
-0.12072679 -0.265232 0.22342426
-0.092160136 -0.265232 0.22394869
-0.069634147 -0.265232 0.222822
0.019643456 -0.265232 0.22980326
0.11902934 -0.265232 0.22708187
-0.19027501 -0.22786687 0.2285759
0.197963 -0.20132181 0.2235785
0.197963 0.060809214 0.22797802
0.197963 0.20162719 0.22668935
0.197963 0.23380841 0.22270024
0.197963 0.24011222 0.22051381
0.025277175 -0.265232 0.23852772
0.092425779 -0.265232 0.23532538
-0.19027498 -0.25580567 0.23775038
-0.190275 -0.22551164 0.23640236
-0.190275 -0.14469567 0.2306914
0.197963 -0.12479478 0.23457518
0.197963 0.13379553 0.23190019
-0.190275 0.17074423 0.23306356
-0.19027501 0.21177533 0.23206419
0.0068876352 0.249856 0.23514806
-0.19027501 -0.073573515 0.2492364
0.197963 -0.077154301 0.24010949
0.197963 -0.023547104 0.2402578
-0.15917531 0.249856 0.24928878
-0.10188007 0.249856 0.24965696
0.088801719 0.249856 0.24859974
0.19602457 -0.265232 0.25663573
-0.190275 -0.1520431 0.25499293
0.197963 -0.014796898 0.25306717
0.197963 0.0548786 0.25426775
-0.190275 0.12852609 0.25575015
0.039811093 0.249856 0.25266367
-0.14434741 -0.26523197 0.26587278
0.197963 -0.04962381 0.26350549
0.197963 0.1343334 0.26232773
0.197963 0.19825788 0.26047033
0.197963 0.22978026 0.26744935
0.197963 0.23408392 0.26451442
-0.18136469 0.249856 0.26417479
0.11359849 0.249856 0.26196486
0.18565367 0.249856 0.26515996
-0.072254755 -0.265232 0.27099013
-0.031660885 -0.265232 0.27805638
-0.0046942085 -0.265232 0.27681184
0.197963 -0.25399846 0.27737203
-0.19027498 -0.23373753 0.27557039
0.197963 0.043037467 0.27207756
-0.19027501 0.10915542 0.27450666
0.197963 0.1595805 0.27086166
-0.13998273 -0.265232 0.28384492
0.197963 -0.090856299 0.28163233
0.197963 0.033218682 0.28563127
0.197963 0.077232637 0.28334773
-0.051583558 0.249856 0.28529844
-0.01210637 0.249856 0.28721267
0.14408055 0.249856 0.28416887
0.15943114 0.24985601 0.28113204
0.16082905 0.249856 0.28298712
0.17604545 0.249856 0.28668758
-0.18918161 -0.265232 0.29683009
-0.17209604 -0.265232 0.29882923
-0.12147234 -0.265232 0.29720527
-0.078433461 -0.265232 0.29527682
0.037859768 -0.265232 0.2985687
0.12079522 -0.265232 0.29734576
0.13992569 -0.265232 0.29848102
0.16827077 -0.265232 0.29273376
-0.19027501 -0.1739191 0.29686403
-0.190275 -0.12826829 0.29661044
-0.190275 -0.11452181 0.29813027
0.197963 0.16271812 0.29247567
-0.190275 -0.24104077 0.30998883
0.197963 0.16440651 0.30314219
-0.0045463741 0.249856 0.30405742
-0.190275 -0.26518232 0.31929001
0.090125397 -0.265232 0.31399268
-0.190275 -0.12116584 0.31416109
-0.190275 -0.027582906 0.31638524
0.197963 -0.0050605834 0.31588256
0.197963 0.089005299 0.31439003
-0.190275 0.22788341 0.31603646
-0.16008899 0.249856 0.3158735
-0.068090983 0.249856 0.31678444
0.095081903 0.249856 0.31765172
0.14979322 0.249856 0.31923994
0.050743192 -0.265232 0.32492858
0.13757287 -0.265232 0.32352144
-0.19027501 0.12608553 0.32317996
-0.17833516 0.249856 0.32033765
0.0017662346 0.249856 0.32190466
0.062555715 -0.265232 0.33487278
0.19621235 -0.265232 0.3373611
-0.19027498 -0.21092454 0.33317432
0.197963 -0.21325943 0.33594003
-0.19027498 -0.20384513 0.33264637
0.197963 -0.20942342 0.332432
0.197963 0.0087781176 0.33328593
-0.090558216 0.249856 0.33170041
-0.012820452 0.249856 0.33379811
-0.10767426 -0.265232 0.34525743
0.030970108 -0.265232 0.34867993
-0.190275 0.0079415068 0.34549981
0.197963 0.21457635 0.34437287
-0.061148271 0.249856 0.34630859
-0.035400197 0.249856 0.34774026
0.08198037 -0.265232 0.35083032
0.197963 -0.26452416 0.35457382
0.197963 -0.18668163 0.35770294
-0.190275 -0.17978412 0.35162938
-0.190275 -0.10578422 0.35655826
-0.190275 -0.084244609 0.35485208
-0.190275 0.0062717497 0.35659188
0.197963 0.079682693 0.35891777
-0.03413032 0.249856 0.35527009
0.039221317 0.249856 0.35155818
0.197963 0.24541867 0.353331
0.12767121 -0.265232 0.36733752
-0.19027501 -0.21068949 0.36054409
-0.190275 -0.13461113 0.36637416
-0.190275 -0.10101677 0.36722782
0.197963 -0.068728574 0.36491126
-0.19027498 0.090395324 0.36200553
0.197963 0.16671053 0.36163837
-0.18764836 0.24985598 0.36399698
-0.047272548 -0.265232 0.37111136
0.048861675 -0.25525296 0.37478399
-0.11383424 -0.24235575 0.37478399
-0.0413858 -0.23383468 0.37478399
0.10662562 -0.21952361 0.37478399
0.12310233 -0.21174482 0.37478399
-0.023692772 -0.20362173 0.37478399
0.0066365376 -0.20290324 0.37478399
-0.12763256 -0.1977728 0.37478399
-0.070171252 -0.19497308 0.37478399
0.14294738 -0.19275108 0.37478399
-0.18245347 -0.1814729 0.37478399
-0.16557936 -0.18325599 0.37478402
-0.15855964 -0.1825043 0.37478399
-0.029116932 -0.17963344 0.37478399
0.1878131 -0.17270614 0.37478399
-0.18315417 -0.16877328 0.37478399
-0.04210335 -0.16590366 0.37478399
0.029974185 -0.16483974 0.37478399
0.034467712 -0.16434698 0.37478399
0.11896407 -0.15755266 0.37478399
0.0020645075 -0.14509127 0.37478399
0.035302348 -0.14003381 0.37478399
0.11060366 -0.14965969 0.37478399
-0.18832107 -0.13789009 0.37478399
0.15145457 -0.13135864 0.37478399
-0.17977788 -0.12645221 0.37478399
-0.052539527 -0.12561017 0.37478399
0.04627721 -0.1289939 0.37478399
0.10284016 -0.11803521 0.37478399
0.13119167 -0.11575659 0.37478399
-0.19027498 -0.10154432 0.37105447
-0.018998813 -0.10408431 0.37478399
0.010834644 -0.098751292 0.37478399
0.1116323 -0.083478883 0.37478399
0.11121821 -0.07039614 0.37478399
-0.099140763 -0.061707452 0.37478399
0.051205099 -0.06655395 0.37478399
0.197963 -0.066099346 0.37420917
0.025929384 -0.049061768 0.37478399
0.031339258 -0.043099098 0.37478399
-0.11620185 -0.031194601 0.37478399
-0.11815044 -0.024584992 0.37478399
-0.080733895 -0.023138531 0.37478399
0.068495452 -0.020278346 0.37478399
0.021039121 -0.01932152 0.37478399
-0.10570244 -0.0083237439 0.37478399
-0.074936345 -0.009227436 0.37478399
0.11201813 0.0072824322 0.37478399
0.12883906 0.013530917 0.37478399
0.14290264 0.012839742 0.37478399
-0.057070814 0.025516577 0.37478399
-0.007897079 0.024038605 0.37478399
0.093942061 0.024777245 0.37478399
0.10286744 0.025218833 0.37478399
0.110332 0.024737924 0.37478399
0.019152373 0.033121645 0.37478399
-0.18287648 0.040617388 0.37478399
-0.15734923 0.046189122 0.37478399
0.014078638 0.056976713 0.37478399
0.023203408 0.055053603 0.37478399
0.17062041 0.054462023 0.37478399
-0.037454419 0.062503211 0.37478399
0.13812125 0.061606631 0.37478399
-0.03780517 0.076420434 0.37478399
0.11146223 0.077181801 0.37478399
0.18966511 0.071795404 0.37478399
-0.028878791 0.088101275 0.37478399
-0.0016573668 0.086644672 0.37478399
0.0095420778 0.096874729 0.37478399
0.14801574 0.11341298 0.37478399
-0.09399794 0.12353874 0.37478399
-0.15985514 0.13597304 0.37478399
0.069910996 0.13918127 0.37478399
0.0050016642 0.14623351 0.37478399
0.14490376 0.14630398 0.37478399
0.19761825 0.14622927 0.37478399
0.15741645 0.15487468 0.37478399
-0.12211888 0.16613971 0.37478399
0.034020133 0.16423404 0.37478399
0.054765981 0.16037342 0.37478399
0.031805776 0.17345306 0.37478399
-0.026227068 0.18796422 0.37478399
0.099056043 0.18760695 0.37478399
0.12143627 0.18189485 0.37478399
0.1963602 0.18282411 0.37478399
0.018157803 0.19983447 0.37478399
0.042297445 0.19021158 0.37478399
0.12629649 0.19556081 0.37478399
-0.13308962 0.20758137 0.37478399
0.083534464 0.20090896 0.37478399
-0.066052735 0.21697502 0.37478399
0.058822934 0.21953396 0.37478399
-0.0044023842 0.22071868 0.37478399
-0.10729299 0.23142734 0.37478399
0.14894009 0.23247537 0.37478399
-0.15131401 0.24852303 0.37478399
