# .PCD v0.7 - Point Cloud Data file format
VERSION 0.7
FIELDS x y z
SIZE 4 4 4
TYPE F F F
COUNT 1 1 1
WIDTH 978
HEIGHT 1
VIEWPOINT 0 0 0 1 0 0 0
POINTS 978
DATA ascii
-0.2185563 -0.34748101 -0.24154387
-0.2013613 -0.34461194 -0.24528
-0.088796891 -0.34056443 -0.24528
-0.058316924 -0.34748101 -0.24333605
-0.032497823 -0.34748101 -0.24091642
-0.065301523 -0.33433461 -0.24528
0.21552449 -0.33028147 -0.24427286
-0.054045171 -0.30891579 -0.24528
0.068529345 -0.30236965 -0.24528
-0.23460941 -0.29964653 -0.24528
-0.19483684 -0.2945267 -0.24527998
-0.16231763 -0.29187441 -0.24528
0.0064398181 -0.29831988 -0.24528
0.15671875 -0.29374596 -0.24528
-0.010250114 -0.28062028 -0.24528
-0.0018625632 -0.26307338 -0.24528
0.030507535 -0.25358957 -0.24528
0.20327462 -0.25407076 -0.24528
-0.090151608 -0.24036181 -0.24528
-0.089840606 -0.24255973 -0.24528
-0.20219094 -0.23724942 -0.24528
-0.1746759 -0.23784912 -0.24528
-0.017223999 -0.23631448 -0.24528
0.078443438 -0.23299424 -0.24528
0.14726672 -0.22269474 -0.24528
0.18248349 -0.22553104 -0.24528
-0.21304646 -0.21919501 -0.24528
-0.2615281 -0.20067239 -0.24528
-0.24073163 -0.20443732 -0.24528
-0.12672584 -0.19774716 -0.24528
-0.10444089 -0.19264108 -0.24528
-0.040312458 -0.19363618 -0.24528
0.03095293 -0.19220424 -0.24528
0.14715967 -0.18454328 -0.24528
0.074658863 -0.17720717 -0.24528
0.17393661 -0.17230427 -0.24528
0.1967316 -0.17565989 -0.24528
-0.069794409 -0.16531628 -0.24528
0.14694165 -0.16329853 -0.24528
-0.048932768 -0.15254751 -0.24528
0.15311199 -0.159702 -0.24528
0.19295779 -0.1508576 -0.24528
0.050130218 -0.14192322 -0.24528
0.1836037 -0.14910382 -0.24528
-0.26285899 -0.13301142 -0.24097198
-0.038682293 -0.12548316 -0.24528
-0.014632994 -0.12289582 -0.24528
-0.0004896149 -0.090872943 -0.24528
0.027427949 -0.084778309 -0.24528
0.20054784 -0.080583498 -0.24528
0.21867917 -0.087980151 -0.24288076
-0.22982568 -0.072534233 -0.24528
-0.14695594 -0.075810611 -0.24528
-0.0073469654 -0.074442416 -0.24528
0.084712796 -0.075957194 -0.24528
0.11724279 -0.073390886 -0.24528
-0.26064453 -0.067679361 -0.24528
-0.17820515 -0.062429011 -0.24528
-0.1434339 -0.06341666 -0.24528
-0.11601535 -0.061294794 -0.24528
-0.20946877 -0.055484399 -0.24528
-0.18226504 -0.054275572 -0.24528
-0.043582756 -0.058201514 -0.24528
0.1969565 -0.055067793 -0.24528
0.0059095323 -0.049217641 -0.24528
0.12192076 -0.049160808 -0.24528
-0.10058414 -0.03175687 -0.24528
-0.0094714342 -0.03428394 -0.24528
0.15482035 -0.032552928 -0.24528
-0.064018369 -0.02740261 -0.24528
-0.14228967 -0.014500976 -0.24528
-0.099970818 -0.019455045 -0.24528
0.1047657 -0.011323169 -0.24528
-0.16779166 -0.0020722747 -0.24528
0.15252014 -0.0049987435 -0.24528
-0.22342306 0.0040917695 -0.24528
-0.014721878 0.0024936497 -0.24528
-0.055685222 0.021017015 -0.24528
0.01065062 0.024497239 -0.24528
-0.071975484 0.030582959 -0.24528
0.087868668 0.039746091 -0.24528
0.15294048 0.043677829 -0.24528
-0.089874119 0.056995928 -0.24528
0.12160443 0.050627023 -0.24528
-0.19234365 0.067927815 -0.24528
-0.13897686 0.060879245 -0.24528
-0.084914975 0.079421312 -0.24528
0.15654254 0.073655665 -0.24528
-0.26285899 0.08077009 -0.24398291
0.077827185 0.086873665 -0.24528
0.092012122 0.083924502 -0.24528
0.21111828 0.082857445 -0.24518785
-0.11926308 0.093980178 -0.24528
-0.12478068 0.11061815 -0.24528
0.13407259 0.11941504 -0.24528
0.18394235 0.11938348 -0.24528
0.099378034 0.12064459 -0.24528
0.11204323 0.13001224 -0.24528
0.12049799 0.13390115 -0.24528
-0.19593546 0.14911968 -0.24528
-0.13833179 0.14922075 -0.24528
0.14327507 0.14766634 -0.24528
0.069109917 0.1627972 -0.24528
0.21131678 0.16391146 -0.24517493
-0.0018418469 0.17804925 -0.24528
0.046110444 0.18827547 -0.24528
-0.21174432 0.19016916 -0.24528
-0.20383486 0.20532556 -0.24528
-0.13701282 0.20887923 -0.24528
-0.20482974 0.21023442 -0.24528
0.00026208907 0.21212146 -0.24528
0.16274467 0.22419767 -0.24528
-0.17291123 0.24949344 -0.24528
-0.13641693 0.24190474 -0.24528
-0.20166604 0.25887963 -0.24528
-0.039522231 0.25474101 -0.24528
0.16466795 0.25719729 -0.24528
0.12269797 0.26716071 -0.24528
-0.26163608 0.27773923 -0.24528
-0.26139754 0.28483075 -0.24528
0.00052766502 0.29886383 -0.24528
0.064162806 0.29129833 -0.24528
0.11973754 0.30861002 -0.24528
0.15888657 0.30633652 -0.24528
-0.050469711 0.31863242 -0.24528
0.081040487 0.31585205 -0.24528
-0.14075966 0.32111004 -0.24528
-0.034295082 0.32275996 -0.24528
-0.19447939 0.33082843 -0.24528
0.12120798 0.33473444 -0.24528
-0.21493545 0.34748101 -0.24306796
-0.19141452 0.34748101 -0.24318551
-0.17742543 0.34748101 -0.24341792
-0.11155902 0.34748101 -0.24283069
-0.086056881 0.34695059 -0.24528
-0.043099932 0.34196576 -0.24528
0.15672006 0.34201956 -0.24528
0.0084007755 -0.34748101 -0.23182262
0.22436908 -0.24727513 -0.23766106
0.22716962 -0.15552351 -0.23153549
-0.26285899 0.15338588 -0.23596698
0.22685757 0.18670531 -0.23262179
0.22654039 0.29091525 -0.23355609
-0.19599602 0.34748101 -0.23891054
0.12191322 0.34748101 -0.23568684
-0.26215905 -0.34748101 -0.22277337
-0.24385382 -0.34748101 -0.22986853
-0.093819365 -0.34748101 -0.22839172
0.22770201 -0.277659 -0.22478573
0.22770202 -0.11131431 -0.22602496
-0.26285899 -0.076549456 -0.22263044
0.22770201 0.1233654 -0.22534391
0.22762612 0.29731935 -0.22844763
0.13134591 0.34748101 -0.22114058
-0.2093647 -0.34748101 -0.21769366
0.077646628 -0.34748101 -0.21986541
0.20030469 -0.34748101 -0.21235932
0.22770199 -0.21682131 -0.21510038
-0.26285899 -0.069088176 -0.21724734
0.22770202 -0.022370169 -0.2189119
0.22770202 0.10576749 -0.21128061
-0.26285899 0.12409065 -0.21125257
0.22770201 0.22312264 -0.21828526
0.030163541 -0.34748101 -0.20617411
-0.26285899 -0.20094563 -0.20784926
-0.26285899 -0.18348552 -0.2031859
0.22770201 -0.17755347 -0.20674947
0.22770202 -0.03364905 -0.2049174
-0.26285899 0.03016296 -0.20012048
-0.26285899 0.12462045 -0.20878634
0.22770201 0.13900225 -0.20726115
0.22770199 0.20651251 -0.20818299
-0.15778595 0.34748101 -0.20776221
0.021116748 0.34748101 -0.20301533
0.046832338 0.34748101 -0.20745197
0.10966539 0.34748101 -0.20436412
0.14396475 0.34748101 -0.20064196
0.15932609 0.34748101 -0.20170501
-0.15391566 -0.34748101 -0.19088915
0.22770199 -0.25800624 -0.19431759
-0.26285899 -0.18202269 -0.19695464
0.22770201 -0.040283553 -0.19645256
-0.26285899 0.26772058 -0.19212899
-0.2525751 0.34748101 -0.19368176
0.16201329 0.34748101 -0.19032323
-0.037616573 -0.34748101 -0.1817013
0.22770202 -0.17690001 -0.18496518
-0.26285899 -0.044232666 -0.18249464
0.22770202 0.033577632 -0.18769957
0.22770201 0.3162899 -0.1816218
-0.1280165 -0.34748101 -0.17874256
-0.10945491 -0.34748101 -0.17147072
-0.061727166 -0.34748101 -0.17582068
-0.26285899 -0.31143218 -0.17970434
0.22770202 -0.14631316 -0.17620207
-0.26285899 -0.046992768 -0.1772868
0.22770202 0.017625451 -0.17723957
-0.26285899 0.080854364 -0.17969352
-0.26285899 0.12968612 -0.17802392
-0.26285899 0.19144082 -0.17739108
-0.2044446 0.34748101 -0.17069964
-0.16514586 0.34748101 -0.17194666
-0.13640513 0.34748101 -0.17654647
0.052641079 0.34748101 -0.17936297
0.089487836 0.34748101 -0.1763902
0.12082081 0.34748101 -0.17075655
-0.21977195 -0.34748101 -0.1663608
-0.14835083 -0.34748101 -0.16639777
-0.26285899 -0.23570547 -0.1622576
-0.26285899 -0.16659851 -0.16338027
0.22770202 -0.15609755 -0.16323119
-0.26285899 -0.1023162 -0.16800854
0.23155248 -0.03807329 -0.16781092
0.25679168 -0.017903088 -0.16359267
-0.26285899 0.11990233 -0.16316456
0.22770199 0.22967365 -0.16549815
0.22770199 0.26345724 -0.16971168
-0.26285899 0.32403091 -0.1667839
-0.08976645 0.34748101 -0.16095202
-0.032227933 0.34748101 -0.16672987
0.041828316 0.34748101 -0.16342951
-0.1295158 -0.34748101 -0.15359591
-0.039401915 -0.34748101 -0.15878767
-0.26285899 -0.29629725 -0.15226683
0.22770199 -0.12864132 -0.1509552
0.22770202 -0.10515501 -0.15437208
0.25000703 0.030464541 -0.15166414
0.22770199 0.32356274 -0.15187444
-0.14807963 0.34748101 -0.15091032
-0.26285899 -0.31794456 -0.14135638
-0.26285899 -0.17958462 -0.14956862
0.22770201 -0.16604221 -0.14288309
0.26260099 -0.1049255 -0.14427382
0.03252558 -0.067432418 -0.14302571
0.055160202 -0.067544311 -0.14300796
0.17459118 -0.067914046 -0.14294939
0.008233292 -0.0536304 -0.14475745
0.22770201 -0.058725066 -0.14140707
0.23246169 -0.048081733 -0.14506601
0.025974104 -0.033665992 -0.14498255
0.24525562 -0.038643248 -0.14513841
-0.078896269 -0.028966974 -0.14458583
0.086548902 -0.026043313 -0.14430945
-0.077393427 -0.004086711 -0.14021826
0.042534642 -0.0060453918 -0.14074437
0.25468299 -0.0072915889 -0.14960787
0.26086447 -0.0085128956 -0.14621742
0.25468299 0.021482207 -0.14228731
-0.26285899 0.1501618 -0.14069009
0.22770202 0.1653451 -0.14937766
-0.26285899 0.20766675 -0.14615226
0.22770202 0.28599671 -0.14872667
-0.16369204 0.34748101 -0.14777428
0.18823957 -0.34748101 -0.13424091
0.22770201 -0.10421965 -0.13055065
-0.044128157 -0.083923601 -0.13917296
-0.26285899 -0.051255144 -0.13601041
0.25694501 -0.0271869 -0.13866228
-0.087073997 -0.0091800801 -0.13141304
-0.0039805844 0.0037145424 -0.13793832
0.067889184 3.3501274e-05 -0.13902113
-0.087073997 0.013904334 -0.13197312
0.20322774 0.019441057 -0.13175623
0.22770201 0.084590949 -0.13601007
-0.26285899 0.25504014 -0.13483001
-0.24045034 -0.34748101 -0.12712651
-0.046458378 -0.34748101 -0.12985897
-0.037245519 -0.34748101 -0.12789816
0.22770202 -0.25147274 -0.12597823
0.22770199 -0.184903 -0.12558682
-0.26285899 -0.15193966 -0.12184071
0.22933757 -0.1553542 -0.1249402
0.11015363 -0.12289532 -0.1212645
0.056673396 -0.11748867 -0.1245857
0.078131512 -0.11049169 -0.12847853
0.11760796 -0.11713003 -0.12479788
0.13201208 -0.114287 -0.12647982
0.19777277 -0.11821326 -0.12415704
0.23918918 -0.11694139 -0.12490948
0.062140502 -0.10982208 -0.12881975
-0.26285899 -0.07896813 -0.12102962
-0.087073997 -0.06529443 -0.12767491
-0.087073997 -0.035432745 -0.12819552
0.25623837 -0.032686371 -0.12414712
0.13713467 0.027615346 -0.12769583
0.17487344 0.02451545 -0.12927538
0.24949098 0.072658382 -0.12345615
0.22770202 0.29885849 -0.12739305
-0.18682735 0.34748101 -0.12124236
-0.22023186 -0.34748101 -0.11302874
0.21924148 -0.34748101 -0.11367789
-0.26285899 -0.33895308 -0.11865619
-0.26285899 -0.18645234 -0.11414649
-0.26285899 -0.14809415 -0.11616515
0.22770202 -0.14236175 -0.11535614
0.046994247 -0.13520083 -0.11232399
0.1531353 -0.13064787 -0.11585603
0.086935617 -0.12505354 -0.1197979
-0.26285899 -0.0046018958 -0.1167265
0.23749749 0.042555481 -0.11849701
-0.26285899 0.11132757 -0.11369681
0.22770201 0.12529358 -0.11315549
-0.26285899 0.13851476 -0.11356096
-0.26285899 0.29998124 -0.11065658
0.22768682 0.32971513 -0.11215277
-0.26258129 0.34748101 -0.11776201
-0.084269151 0.34748101 -0.11192793
0.060716569 0.34748101 -0.11645228
-0.2069982 -0.34748101 -0.10292245
-0.16393566 -0.34748101 -0.10597778
-0.02220279 -0.34748101 -0.1067265
0.10686806 -0.34748101 -0.10190398
0.22770201 -0.33080548 -0.10647129
0.22770201 -0.32651964 -0.10181809
0.22770202 -0.30938077 -0.10359263
-0.26285899 -0.2148619 -0.10658024
0.22770199 -0.15425494 -0.10777085
0.2549378 -0.15198229 -0.10009896
0.089131564 -0.14666247 -0.10198829
0.22770201 -0.061388787 -0.10936575
-0.26285899 -0.023359224 -0.10652804
-0.087073997 0.036032956 -0.10343517
0.18677059 0.058903314 -0.10531166
0.22770202 0.1611068 -0.10440316
-0.26285899 0.27772892 -0.10326106
-0.26285899 0.30639845 -0.10027766
-0.20656143 0.34748101 -0.10590781
-0.053899936 0.34748101 -0.10975292
0.079761833 0.34748101 -0.10184512
-0.13927343 -0.34748101 -0.09901128
0.10100627 -0.34748101 -0.093882419
0.22770199 -0.32427904 -0.097076669
0.22770201 0.15660091 -0.097871453
0.22770199 0.17473248 -0.094466195
0.10158315 0.34748101 -0.091344103
0.18760341 0.34748101 -0.095248528
-0.091541976 -0.34748101 -0.087146297
0.14384978 -0.34748101 -0.086292967
0.22770202 -0.31417224 -0.081276655
-0.26285899 -0.25648957 -0.084448658
0.22770199 -0.25340086 -0.084059052
-0.26285899 -0.22019893 -0.084353268
-0.26285899 -0.214325 -0.088748641
0.22770202 -0.12554337 -0.082376711
0.22770201 -0.015984133 -0.085299678
0.22770201 0.087428018 -0.085687406
0.22770201 0.10978244 -0.088697731
-0.26285899 0.2302829 -0.081791967
0.22770201 0.23136969 -0.080232687
-0.26285899 0.25578713 -0.083859384
0.22770201 0.25938907 -0.0806989
-0.099560745 -0.34748101 -0.07996469
-0.066008151 -0.34748101 -0.07848011
0.18895662 -0.34748101 -0.075236097
0.20894158 -0.34748101 -0.076788411
0.22228138 -0.34748101 -0.072484851
0.22770199 -0.29033864 -0.074541345
0.22770199 -0.1839391 -0.077046186
-0.0010693744 -0.17019239 -0.071423002
-0.087073997 -0.16614334 -0.074330673
-0.069890171 -0.16644858 -0.077598795
-0.057070412 -0.16864793 -0.074034721
-0.014300823 -0.16654566 -0.077455953
-0.087073997 -0.15353654 -0.071490884
0.22770201 0.0032100305 -0.079047866
-0.013110097 0.085786209 -0.071412824
0.00015074015 0.083664134 -0.075001061
0.24824712 0.085237108 -0.072341308
0.23338652 0.10995318 -0.074419811
0.24195823 0.11153658 -0.071364895
-0.26285899 0.12021503 -0.073313929
-0.26285899 0.20776756 -0.079615772
0.12045145 0.34748101 -0.077264443
0.13208702 0.34748101 -0.074968845
-0.09347067 -0.34748101 -0.060805894
-0.031813286 -0.34748101 -0.066625699
-0.26285899 -0.30584294 -0.061407425
-0.0062958635 -0.17420751 -0.064002261
0.065468833 -0.17114411 -0.069813639
0.19839378 -0.17357373 -0.065246373
-0.26285899 -0.092556015 -0.069031723
-0.087073997 -0.097420856 -0.062216599
-0.26285899 -0.086770765 -0.066607073
-0.087073997 0.04517502 -0.066913493
0.015769113 0.088211656 -0.067111321
0.036793958 0.088709593 -0.066134006
-0.036251433 0.090053707 -0.06349583
-0.26285899 0.10723985 -0.065213673
-0.26285899 0.26349396 -0.061020829
0.1195592 0.34748101 -0.064246155
0.16916859 0.34748101 -0.069225289
-0.24595767 -0.34748101 -0.056922402
-0.1088817 -0.34748101 -0.05462525
0.22664236 -0.34748101 -0.053764187
0.22770202 -0.30993983 -0.058132038
0.25551999 -0.18039891 -0.051196937
0.019660646 -0.17694783 -0.058331195
0.15376569 -0.17623401 -0.059980206
0.2438021 -0.17812645 -0.055608481
-0.087073997 0.037431076 -0.050726388
-0.0052403025 0.095640242 -0.05104164
0.04758757 0.094654322 -0.053437471
0.12303908 0.09347064 -0.05617217
0.24120733 0.093388326 -0.05636235
0.24624485 0.12007997 -0.050026752
-0.26285899 0.1633907 -0.052223168
0.22770201 0.16315664 -0.055290885
-0.26285899 0.20073631 -0.054731123
0.22770202 0.23496185 -0.051801525
-0.26285899 0.28144118 -0.054077052
-0.24113947 0.34748101 -0.052559733
-0.11608411 0.34748101 -0.051311538
-0.096051291 0.34748101 -0.052715208
-0.064619988 0.34748101 -0.050214816
0.031242929 0.34748101 -0.050394237
-0.19766162 -0.34748101 -0.044791508
-0.14933217 -0.34748101 -0.0426917
-0.079900719 -0.34748101 -0.046005134
-0.26285899 -0.30425772 -0.047845319
0.22770201 -0.2058437 -0.043097831
0.25468299 -0.2038555 -0.049448099
0.10386138 -0.18076167 -0.049070813
-0.26285899 -0.12868635 -0.048900247
-0.26285899 -0.10054039 -0.046684131
-0.087073997 -0.10201468 -0.048779055
0.22770201 -0.034412958 -0.047178052
0.22770202 0.11184435 -0.040823929
0.22770201 0.24869016 -0.048920698
-0.26285899 0.30657023 -0.040590778
-0.2189029 0.34748101 -0.047219716
-0.21917686 -0.34748101 -0.031623416
-0.087536395 -0.34748101 -0.031977493
-0.046957433 -0.18587068 -0.032601211
-0.26285899 -0.073387556 -0.037560068
0.22770202 -0.053778037 -0.033209756
-0.26285899 0.02161555 -0.037702836
-0.26285899 0.13470882 -0.032371603
0.22770201 0.15897052 -0.039492916
-0.25769591 0.34748101 -0.032174371
-0.18577859 0.34748101 -0.033066951
-0.12945849 0.34748101 -0.035779443
-0.062886864 0.34748101 -0.035448484
-0.042440459 0.34748101 -0.031556509
0.1061108 0.34748101 -0.037037302
-0.12612715 -0.34748101 -0.024175383
0.060807697 -0.34748101 -0.025367536
0.094301626 -0.34748101 -0.028092373
0.11200881 -0.34748101 -0.024426414
0.22770199 -0.25602219 -0.029151861
0.033856053 -0.18687364 -0.028114365
0.1657085 -0.18786663 -0.023127563
0.24051735 -0.18762648 -0.02464414
-0.087073997 -0.16185716 -0.02942908
-0.26285899 -0.0078859245 -0.020122122
-0.033539653 0.10386735 -0.020517729
0.23391198 0.10360231 -0.022190411
-0.26285899 0.25268698 -0.026609093
-0.23926035 -0.34748101 -0.014917416
-0.22877021 -0.34748101 -0.019672642
-0.094827637 -0.34748101 -0.011304684
0.22770202 -0.28994802 -0.016232133
-0.087073997 -0.18234459 -0.015189862
-0.019339267 -0.18870535 -0.017830634
0.20322473 -0.18851903 -0.019007228
0.22770201 -0.15474191 -0.01620361
-0.087073997 -0.088928506 -0.011993482
-0.26285899 0.022182453 -0.010972403
-0.26285899 0.072130963 -0.015329994
0.22770199 0.091765508 -0.012243202
0.025278248 0.10470128 -0.014878112
0.25980145 0.10794406 -0.016828185
0.22770201 0.13449481 -0.012848584
0.033172168 0.34748101 -0.019780479
0.16085483 0.34748101 -0.011659466
0.17619668 0.34748101 -0.013510546
0.1493943 -0.34748101 -0.0089260489
0.22770201 -0.2080491 -0.0063851802
0.25629824 -0.20512447 -0.0096694101
-0.042843778 -0.19006339 -0.0013565707
0.058574025 -0.18972617 -0.0083949585
0.067508377 -0.18996143 -0.0046011088
-0.087073997 -0.086078256 -0.0025315718
-0.087073997 -0.05168169 -0.006567141
-0.087073997 0.066096075 -0.0062005878
0.22770201 0.12357666 -0.00048841699
0.22770201 0.18811306 -0.004326582
0.22770199 0.30988616 -0.00014308095
-0.25613174 0.34748101 -0.0092608109
0.22770201 -0.29801884 0.0028601512
-0.26285899 -0.27324152 0.0097916648
0.22949931 -0.21268277 0.0091179693
0.16268967 -0.19017796 0.0031826701
0.19948731 -0.19009225 0.0059098778
0.11657503 -0.18997139 0.00975601
-0.26285899 -0.15569197 0.005547354
-0.26285899 -0.081422769 0.0091687664
-0.087073997 -0.00016706064 0.00085649476
-0.055002965 0.10557499 0.0092596104
-0.04735348 0.10560916 0.0081724254
0.26235679 0.11483681 0.0044794637
0.22770199 0.19653563 0.0020394847
-0.26285899 0.24221835 0.0037909076
-0.12893617 0.34748101 0.00060547143
0.15668663 0.34748101 0.0061487164
-0.098865807 -0.34748101 0.016092379
-0.26285899 -0.28539008 0.011183582
-0.26285899 -0.25814843 0.011520706
0.25468299 -0.19243622 0.010810137
0.18053532 -0.1897918 0.013172304
-0.26285899 0.3345378 0.019240059
-0.14573613 0.34748101 0.014714792
0.14870816 0.34748101 0.01061153
-0.095173702 -0.34748101 0.022387234
-0.087075397 -0.34748101 0.022492543
0.065991998 -0.34748101 0.029845458
0.22770202 -0.29650554 0.02339939
0.22770199 -0.28202909 0.021294631
0.19822885 -0.18873797 0.023095723
-0.26285899 -0.10976502 0.026122652
-0.26285899 -0.080921784 0.028230209
0.22770201 -0.060643934 0.027817685
0.22770201 0.034252688 0.02599033
-0.26285899 0.19815752 0.021925241
-0.26285899 0.22675021 0.020878784
-0.26285899 0.27999145 0.029553272
-0.25128263 0.34748101 0.027954854
-0.10349333 -0.34748101 0.030881835
0.0054796985 -0.34748101 0.032072015
0.2264044 -0.34748101 0.034004398
-0.26285899 -0.2328299 0.034022681
0.22770199 -0.23953643 0.033701319
0.25468299 -0.19119921 0.03798274
-0.070184126 -0.18646622 0.035408035
-0.024372824 -0.18564591 0.039077893
0.063830972 -0.18702126 0.032924891
0.22770201 -0.040643632 0.030305354
-0.26285899 -0.030988485 0.038143687
0.12345672 0.10214774 0.034987379
0.15037307 0.10163146 0.037298262
0.26209146 0.11781951 0.035356861
-0.26285899 0.30816865 0.038169593
-0.25178331 0.34748101 0.039403595
-0.12219554 0.34748101 0.03127005
-0.013049301 0.34748101 0.034087501
0.081596583 -0.34748101 0.042903148
0.21234687 -0.34748101 0.043451272
0.22770202 -0.29788768 0.048212633
-0.26285899 -0.20955344 0.048941515
0.05412155 -0.18355651 0.046374619
0.1242675 -0.18333358 0.047141798
0.22708696 -0.18294989 0.048462313
-0.0031421166 0.10020454 0.042726476
0.25531942 0.10465044 0.049241338
-0.26285899 0.12879036 0.040006533
0.22770201 0.13092774 0.044472728
-0.26285899 0.1776395 0.043477405
-0.26285899 0.19722246 0.041610729
-0.26285899 0.2046421 0.048699237
-0.26285899 0.23496056 0.04147964
-0.13194624 0.34748101 0.042820796
-0.02519541 0.34748101 0.040077027
0.15106928 0.34748101 0.044272445
-0.0028404389 -0.34748101 0.059190497
0.22770201 -0.26324362 0.054593582
-0.041941188 -0.18055448 0.05511637
0.14582936 -0.18212205 0.050762229
0.0064335652 -0.17937253 0.058199674
0.22770201 -0.15659556 0.055151701
-0.087073997 -0.052364599 0.055638693
-0.087073997 -0.037599474 0.05073981
-0.26285899 0.027696259 0.050021529
-0.26285899 0.077012211 0.0554768
-0.0051533803 0.097715691 0.050746359
0.23570573 0.12066482 0.053707518
0.24912241 0.12013406 0.055340022
-0.26285899 0.2375001 0.058685832
0.22770201 0.28035051 0.059735373
0.032699838 0.34748101 0.055823915
0.12769748 -0.34748101 0.062866241
-0.26285899 -0.24435762 0.063710876
0.22770201 -0.21831605 0.068512134
0.23477329 -0.20071144 0.06598489
0.10403983 -0.17579424 0.066358499
-0.087073997 -0.11796016 0.062486619
0.22770202 -0.055795349 0.066987976
-0.26285899 0.028628781 0.067133397
-0.26285899 0.074499317 0.062387198
0.22770201 0.077162221 0.068308704
-0.085757613 0.093812197 0.060853262
0.10990329 0.093109891 0.062476113
0.14729831 0.090291679 0.068499565
0.23148184 0.11584608 0.066995054
-0.26285899 0.27774444 0.068875909
-0.074108467 0.34748101 0.069229797
-0.032389961 0.34748101 0.062768817
0.13511248 0.34748101 0.068963736
0.12059143 -0.34748101 0.071093664
0.18367399 -0.34748101 0.074101269
-0.26285899 -0.29842827 0.074326292
0.22770201 -0.2377691 0.075079627
-0.26285899 -0.22788551 0.076412924
0.24104932 -0.19622053 0.076280609
0.22770199 -0.18905413 0.079412684
0.13419157 -0.17173697 0.074281521
0.015426967 -0.16999933 0.077220127
0.13744727 -0.16941872 0.078201994
0.22770201 -0.06379272 0.077812165
-0.26285899 0.025349811 0.070279323
-0.087073997 0.074695699 0.071098529
-0.012374749 0.084914327 0.078357823
0.010993553 0.34748101 0.072545908
0.17008503 0.34748101 0.074376024
0.22205707 0.34253591 0.075556874
-0.26285899 -0.32781696 0.085934825
-0.26285899 -0.22334908 0.084886335
-0.087073997 -0.1629429 0.081124522
0.11774843 -0.16403142 0.086626694
0.25468296 -0.16967382 0.080199823
0.22770201 0.01245629 0.089708105
-0.26285899 0.044398241 0.08881861
-0.087073997 0.077894509 0.083017312
0.15136994 0.08087559 0.084776953
-0.18782294 0.34748101 0.086726949
0.20850438 0.34748101 0.084959276
-0.19282314 -0.34748101 0.090215959
-0.26285899 -0.33153117 0.098239802
-0.26285899 -0.30069828 0.090384662
0.22770201 -0.21689957 0.099895075
0.22770201 0.017920474 0.096189968
-0.087073997 0.050999384 0.093815982
-0.0046944581 0.075195417 0.092711657
0.20356826 0.076743148 0.090715937
0.22770201 0.070796907 0.092061132
0.25468299 0.075698048 0.093096904
0.2336835 0.099448048 0.097800568
0.22770199 0.15584627 0.09605971
-0.26285899 0.23473069 0.092140466
-0.26285899 0.26397598 0.096941002
-0.14661703 0.34748101 0.091806009
0.009439135 0.34748101 0.092803992
-0.26285899 -0.21011931 0.10594859
-0.26285899 -0.17048556 0.10590656
0.067156486 -0.14530335 0.10881837
0.24916106 -0.14961943 0.10450163
-0.26285899 0.043802451 0.10051686
0.073497035 0.065342426 0.10436696
0.25552291 0.078532457 0.10151758
-0.11718954 0.34748101 0.10851111
-0.043561749 0.34748101 0.10885821
-0.086042717 -0.34748101 0.11230683
0.069603898 -0.34748101 0.11310877
0.19163957 -0.34748101 0.11808637
-0.26285899 -0.33970249 0.11051232
0.22770201 -0.17903069 0.11049974
0.046801466 -0.14021121 0.11351968
0.13278028 -0.14059037 0.11318546
0.13019128 -0.13723372 0.11614414
0.11282326 0.052121956 0.11676105
0.22499031 0.05947911 0.11022981
-0.26285899 0.086392432 0.1137272
-0.26285899 0.18538588 0.11217126
-0.26285899 0.24957639 0.11273605
-0.26285899 0.30311075 0.11653787
-0.19947006 0.34748101 0.1184071
-0.094891623 0.34748101 0.11404026
0.058525689 0.34748101 0.11978008
-0.17973074 -0.34748101 0.12604362
-0.040257357 -0.34748101 0.1275921
-0.028545536 -0.34748101 0.12090928
0.090496227 -0.34748101 0.12400199
0.16238207 -0.34748101 0.12130867
0.19127971 -0.34748101 0.12874866
0.1482427 -0.126587 0.12422784
0.22770201 -0.129575 0.12622894
-0.26285899 -0.038657397 0.12706833
-0.065442868 0.03621757 0.1281992
0.034807369 0.047623836 0.12025076
0.11294977 0.043972809 0.12300584
-0.26285899 0.21297401 0.12212661
0.22770201 0.30688965 0.12831637
0.10146491 0.34748101 0.1277045
0.1155823 -0.34748101 0.13401508
0.12876181 -0.34748101 0.13942194
0.22770199 -0.1798228 0.13595997
-0.26285899 -0.16439225 0.13777354
0.042734675 -0.1151517 0.13143867
0.077236623 -0.11562348 0.13115966
0.17220931 -0.11023672 0.13407885
0.25501126 -0.11423626 0.13556448
0.0086145811 -0.10281597 0.13767616
0.22770201 -0.10757148 0.134657
0.21194234 0.019614957 0.137152
0.092305362 0.028224302 0.13285564
0.11791635 0.029952347 0.13190421
0.23358753 0.070393875 0.1309011
0.22770199 0.10840115 0.13955167
-0.26285899 0.14107713 0.13849661
0.22770201 0.29684204 0.13375424
-0.26255605 0.34748101 0.13521114
0.13457692 0.34748101 0.13585752
-0.15048736 -0.34748101 0.14966834
0.12412089 -0.34748101 0.14330852
0.14997658 -0.34748101 0.14824659
-0.26285899 -0.26745605 0.14947526
0.22770199 -0.24751677 0.14620568
-0.26285899 -0.22524661 0.1424215
0.22770199 -0.21617666 0.14893714
0.26241562 -0.12745588 0.1408598
0.25596941 -0.11268306 0.14664206
0.25914279 -0.10128248 0.14129522
0.17873883 -0.078857891 0.14610572
-0.26285899 -0.064292237 0.14799781
-0.070071869 -0.064475946 0.14896517
-0.083892696 -0.020740721 0.14909261
0.041569948 -0.026803974 0.14985235
0.19220853 -0.02463446 0.14964725
0.22770199 -0.024989445 0.14011934
-0.062094297 -0.010935606 0.14730848
-0.035362024 -0.018553225 0.14874598
-0.020391153 -0.012064221 0.14756075
0.18036506 -0.013111437 0.14779483
0.21680184 -0.017001275 0.14850006
0.22853485 -0.014439764 0.14809175
-0.031803049 -0.007423114 0.14652334
-0.26285899 0.0020770133 0.1442706
0.020019397 0.0067785913 0.1423063
0.030966967 0.004198317 0.14323518
0.045108475 0.0035351224 0.14347392
0.15856349 0.0064856131 0.14241177
0.23889096 0.012683025 0.14015085
0.22770202 0.041700978 0.14502871
0.25325373 0.057885513 0.14093819
0.22770199 0.13252616 0.14035729
0.22770199 0.15700407 0.14872786
0.22770199 0.18432499 0.14537634
0.22770202 0.25327879 0.14473908
-0.26285899 0.32905477 0.1484403
-0.15640897 0.34748101 0.14919902
-0.013615705 0.34748101 0.14079687
0.1216109 0.34748101 0.1439499
0.15622342 0.34748101 0.14937964
-0.061778754 -0.34748101 0.15068159
0.073210277 -0.34748101 0.15482159
-0.26285899 -0.17868786 0.15156819
0.25850424 -0.12178317 0.15119421
0.22770201 -0.059911191 0.15313739
0.029817078 -0.042036645 0.15071566
0.21555521 -0.043190598 0.1506902
0.22052833 -0.048930369 0.15051043
0.26260099 -0.045162152 0.15978265
0.073912203 -0.038869455 0.1506165
0.25468299 -0.030405365 0.1517603
0.26103333 -0.031982921 0.15546146
0.22770202 -0.014919265 0.15516204
-0.26285899 0.081766263 0.15610553
0.22770202 0.17430465 0.15724204
-0.26254883 0.34748101 0.15223517
0.14025083 0.34748101 0.15509969
0.2195361 0.34451219 0.15613267
0.0952015 -0.34748101 0.1664917
0.11446223 -0.34748101 0.168338
0.12333879 -0.34748101 0.16550945
0.1445307 -0.34748101 0.1623835
0.18878815 -0.34748101 0.16288117
-0.26285899 -0.3131668 0.16901422
0.22770201 -0.31720105 0.16103595
-0.26285899 -0.25294665 0.16292635
-0.26285899 -0.24651758 0.16406788
-0.26285899 -0.22264421 0.16998512
0.26067984 -0.052007478 0.16860133
-0.26285899 -0.037081882 0.16890565
0.23308438 0.0075411191 0.16592093
-0.26285899 0.084651619 0.16106442
-0.26285899 0.12727462 0.16239065
-0.064989552 0.34748101 0.16375756
0.088388078 0.34748101 0.16502918
0.10443556 0.34748101 0.16720761
-0.262391 -0.34748101 0.17625055
-0.23082478 -0.34748101 0.17723121
-0.18268958 -0.34748101 0.17457277
-0.062638059 -0.34748101 0.1725153
-0.034534462 -0.34748101 0.17769369
-0.26285899 -0.19382893 0.17525721
0.22770201 -0.19120708 0.17323652
-0.26285899 -0.16685769 0.1765475
0.23872659 -0.042953037 0.17336547
-0.26285899 -0.016987018 0.17558014
0.22770202 0.029097239 0.17605941
-0.26285899 0.087246284 0.17076254
-0.26285899 0.28819168 0.17113867
0.12471991 0.34748101 0.17004706
-0.049584009 -0.34748101 0.18660356
-0.034492724 -0.34748101 0.18847579
0.22770199 -0.15221964 0.18563981
-0.26285899 -0.10225786 0.18126535
0.071565114 0.34748101 0.18103315
0.086334892 0.34748101 0.18946859
0.055326357 -0.34748101 0.19869673
0.20042953 -0.34748101 0.19569081
0.22770201 -0.3425653 0.19258808
0.22770201 -0.30759656 0.19589016
0.22770201 -0.16626702 0.1939389
0.22770201 -0.14209203 0.19583333
-0.26285899 0.0068164617 0.19629946
-0.26285899 0.12923987 0.19539917
0.22770202 0.17031145 0.1982889
0.22770201 0.24467845 0.19150577
-0.26285899 0.27198407 0.19523636
0.22752099 0.33197168 0.19316481
-0.22081007 0.34748101 0.19433984
0.16202132 0.34748101 0.19364217
0.19921027 0.34748101 0.19972414
-0.25072622 -0.34748101 0.20769101
-0.26285899 -0.26014078 0.20076606
0.22770201 -0.16444626 0.20486897
-0.26285899 0.017530754 0.20579465
-0.26285899 0.024846688 0.2009407
0.22770201 0.060642499 0.20748627
-0.19361809 0.34748101 0.20174822
0.022488527 0.34748101 0.20270357
0.047325805 0.34748101 0.20896536
0.059814706 0.34748101 0.20126131
0.038776048 -0.34748101 0.21945614
0.16010234 -0.34748101 0.21167998
-0.26285899 -0.19769114 0.21175265
0.22770201 -0.12413286 0.21417913
-0.26285899 0.11347997 0.21780273
-0.26285899 0.15809876 0.21070179
0.22770201 0.18410319 0.21809335
0.22770201 0.27695727 0.2100666
-0.26285899 0.29044363 0.21328467
-0.00032955408 0.34748101 0.21537781
0.12445953 0.34748101 0.21369703
0.20905358 0.34748101 0.21841322
-0.17876075 -0.34748101 0.22772889
-0.26285899 -0.31819135 0.22642733
0.22753108 -0.14989239 0.22972101
-0.26285899 -0.079800203 0.22261822
0.22770199 0.012740664 0.22019733
0.22770201 0.085324943 0.22267963
0.22770201 0.31151873 0.22725426
-0.058661535 0.34748101 0.22754417
0.095671982 0.34748104 0.2234931
-0.26285899 -0.34277922 0.23094009
0.22545089 -0.08436311 0.23595676
-0.26285899 -0.015696058 0.23463255
0.22680254 -0.012013651 0.23278382
0.2274082 0.071621545 0.23033777
-0.26285899 0.094702713 0.23061404
-0.26285899 0.23453014 0.2388908
0.2269095 0.25801224 0.23246877
0.1357383 -0.34275651 0.24528
-0.102487 -0.33310133 0.24528
-0.046017535 -0.32115224 0.24528
0.068492427 -0.32620114 0.24528
-0.17286167 -0.31852371 0.24528
-0.073947676 -0.3127282 0.24528
0.017887108 -0.31013486 0.24527998
-0.19492278 -0.30016589 0.24528
-0.083646744 -0.3036046 0.24528
0.016483149 -0.30374038 0.24528
0.11295952 -0.30732375 0.24528
0.11769498 -0.29616618 0.24528
0.17075874 -0.29988134 0.24528
0.020053886 -0.2824102 0.24528
-0.001259014 -0.27840751 0.24528
0.013898671 -0.27280307 0.24528
0.020653568 -0.27666634 0.24528
-0.26169083 -0.26268643 0.24528
-0.17948443 -0.26058951 0.24528
-0.05376716 -0.2529394 0.24528
0.12276048 -0.25369811 0.24528001
0.15107091 -0.24287629 0.24528
-0.11413701 -0.23825188 0.24528
0.084476471 -0.23988523 0.24528
0.19286878 -0.2353003 0.24528
-0.054804172 -0.22380425 0.24528
0.10429946 -0.2299137 0.24528
0.11439805 -0.22653425 0.24528
-0.26285899 -0.20219892 0.24254772
-0.0059685521 -0.19605201 0.24528
0.065692194 -0.19161677 0.24528
-0.26285899 -0.18730491 0.24422342
-0.12601344 -0.18858713 0.24528
0.18302505 -0.18157126 0.24528
0.14411744 -0.17682779 0.24528
0.16450369 -0.17460227 0.24528
-0.048054803 -0.16152257 0.24528
-0.036324553 -0.1602824 0.24528
-0.21294284 -0.1581753 0.24528
-0.05978553 -0.15988386 0.24528
-0.13291833 -0.13807866 0.24528
0.13236284 -0.13045961 0.24528
0.20394802 -0.12787771 0.24528
-0.21028522 -0.11184786 0.24528
0.092610262 -0.1145758 0.24528
0.18938482 -0.11788142 0.24528
-0.0016332008 -0.092395402 0.24528
-0.031307384 -0.070264667 0.24528
-0.26285899 -0.067830756 0.2446973
-0.20410079 -0.067906916 0.24528
-0.11141934 -0.060014922 0.24528
0.095534563 -0.055191696 0.24528
-0.2312683 -0.049762085 0.24528
-0.0061765909 -0.036837786 0.24528
-0.076350711 -0.022533014 0.24528
0.15656084 -0.02221626 0.24528
-0.18120009 -0.016391806 0.24528
-0.058427356 -0.010137096 0.24528001
-0.0043782741 -0.015212864 0.24528
0.029109966 -0.016092047 0.24528
-0.25089344 -0.0088609457 0.24528
0.13427421 -0.0035449266 0.24528
0.17190349 -0.0093336701 0.24528
-0.063054025 0.0061178505 0.24528
0.053833153 0.0095913857 0.24528
-0.20559931 0.013685733 0.24528
-0.18079114 0.011021957 0.24528
-0.13655113 0.011680484 0.24528
-0.032128412 0.019845676 0.24528
0.21626461 0.019011904 0.2438055
-0.15274234 0.02663514 0.24528
-0.11941788 0.026989549 0.24528
-0.052382112 0.026556343 0.24528
0.051337652 0.024329603 0.24528
-0.17434655 0.032505892 0.24528
0.19981541 0.032739952 0.24528
-0.21016559 0.051606484 0.24528
0.011299469 0.059868068 0.24528
0.16493645 0.050714433 0.24528
-0.25772494 0.067683607 0.24528
-0.15841001 0.070518255 0.24528
-0.086618029 0.076446295 0.24528
-0.052639011 0.072313979 0.24528
-0.26082969 0.089087248 0.24528
0.19706006 0.082356572 0.24528
-0.19949661 0.092737257 0.24528
0.16705397 0.09266942 0.24528
-0.089997739 0.10270802 0.24528
0.14764321 0.10840281 0.24528001
-0.034816194 0.119194 0.24528
-0.23756835 0.12788051 0.24528
-0.16112556 0.13405371 0.24528
-0.15314391 0.13904816 0.24528
0.16703022 0.13710943 0.24528
-0.20252267 0.15721875 0.24528
-0.11272208 0.15775543 0.24528
-0.18868002 0.1654519 0.24528
-0.26285899 0.17705248 0.24393079
-0.24827115 0.17324543 0.24528
0.1219845 0.19153365 0.24528001
-0.24419206 0.20882624 0.24528
-0.1636889 0.21382451 0.24528
-0.098778687 0.21646254 0.24528
-0.12486504 0.2214663 0.24528
-0.21746278 0.24973965 0.24528
-0.17323855 0.24542987 0.24528
-0.050778769 0.25321847 0.24528
-0.26285899 0.26573491 0.24059437
-0.18352421 0.27459008 0.24528
-0.10800581 0.27567244 0.24528
-0.068619892 0.27245745 0.24528
0.097089052 0.27645585 0.24528
-0.14456116 0.28854614 0.24528
-0.07096155 0.28904414 0.24528
-0.16961855 0.30302238 0.24528
-0.24568506 0.31313768 0.24528
-0.12511484 0.31103271 0.24528
-0.090727627 0.31422478 0.24528
-0.24810033 0.32343662 0.24528
-0.11152432 0.32921368 0.24528
-0.12726808 0.33215857 0.24528
-0.11989295 0.33282009 0.24528
0.012924597 0.33441114 0.24528
0.057018928 0.33926719 0.24528
0.13982587 0.33519876 0.24528
-0.15695813 0.34748104 0.24446888
-0.083532304 0.34705377 0.24528
