# .PCD v0.7 - Point Cloud Data file format
VERSION 0.7
FIELDS x y z
SIZE 4 4 4
TYPE F F F
COUNT 1 1 1
WIDTH 971
HEIGHT 1
VIEWPOINT 0 0 0 1 0 0 0
POINTS 971
DATA ascii
0.043350942 -0.22525439 -0.39833599
-0.14282382 -0.21852064 -0.39833599
0.10810031 -0.21756716 -0.39833599
-0.054573815 -0.20674697 -0.39833599
0.0073415264 -0.20782477 -0.39833599
0.067714535 -0.20441891 -0.39833599
0.13336244 -0.19587287 -0.39833599
-0.078773335 -0.18980251 -0.39833599
-0.038390718 -0.18007037 -0.39833599
-0.014751241 -0.18882495 -0.39833599
-0.11588985 -0.17250407 -0.39833599
-0.093973316 -0.17770074 -0.39833599
-0.027700238 -0.1782819 -0.39833599
0.0020006821 -0.17762822 -0.39833599
0.02871402 -0.17802578 -0.39833599
-0.028116435 -0.16482398 -0.39833599
0.13548726 -0.16839212 -0.39833599
-0.18317154 -0.15813157 -0.39833599
-0.15977275 -0.15906991 -0.39833599
-0.050600909 -0.15292455 -0.39833599
-0.03014319 -0.15846075 -0.39833599
0.12261904 -0.15817052 -0.39833599
-0.1904934 -0.14005663 -0.39833599
-0.18385769 -0.14657788 -0.39833599
-0.13887112 -0.1401246 -0.39833599
-0.045729361 -0.14396718 -0.39833599
0.024854787 -0.14299926 -0.39833599
-0.12343161 -0.13538344 -0.39833599
-0.065432139 -0.13364458 -0.39833599
0.11043042 -0.13333009 -0.39833599
0.030072562 -0.12043159 -0.39833599
0.15425125 -0.12532769 -0.39833599
-0.18891758 -0.11848129 -0.39833599
-0.14191861 -0.1102014 -0.39833599
0.040820025 -0.1103878 -0.39833599
0.095080718 -0.1194135 -0.39833599
-0.18055138 -0.10807548 -0.39833599
-0.055949308 -0.10730941 -0.39833599
0.189363 -0.10335992 -0.39499718
-0.0063140243 -0.095155418 -0.39833599
0.16615644 -0.093178228 -0.39833599
-0.19083099 -0.085415035 -0.39449355
0.031310804 -0.087173589 -0.39833599
0.1164351 -0.082722567 -0.39833599
-0.18270506 -0.072339028 -0.39833599
0.040052228 -0.076546744 -0.39833599
0.14317301 -0.071342394 -0.39833599
0.039708741 -0.063885286 -0.39833599
0.1673232 -0.065031745 -0.39833599
-0.16405493 -0.056569647 -0.39833599
-0.10186137 -0.05135167 -0.39833599
-0.015224438 -0.05798265 -0.39833599
-0.16325125 -0.048665218 -0.39833599
0.1559608 -0.040348731 -0.39833599
0.11799511 -0.039568119 -0.39833599
0.13172305 -0.031303924 -0.39833599
-0.1182926 -0.021413069 -0.39833599
-0.10501567 -0.029527595 -0.39833599
-0.097705752 -0.029965114 -0.39833599
-0.088965304 -0.029563375 -0.39833599
0.034834832 -0.020922951 -0.39833599
0.14626801 -0.024403304 -0.39833599
-0.13691147 -0.018703006 -0.39833599
-0.12167004 -0.017365832 -0.39833599
0.075564064 -0.018804844 -0.39833599
0.087547794 -0.019290976 -0.39833599
0.045577224 -0.0021947026 -0.39833599
-0.064045921 0.011426799 -0.39833599
-0.017572861 0.0105563 -0.39833599
0.0011256412 0.017065808 -0.39833599
0.089838743 0.017185394 -0.39833599
0.17043468 0.01654068 -0.39833599
-0.11349882 0.026039079 -0.39833599
0.076817736 0.027498199 -0.39833599
-0.060386702 0.030180998 -0.39833599
0.043688312 0.031105813 -0.39833599
-0.18358578 0.043919228 -0.39833599
0.028465599 0.047843073 -0.39833599
0.13996826 0.04272639 -0.39833599
-0.10628901 0.068924688 -0.39833599
0.086526766 0.070739463 -0.39833599
0.14280199 0.077604637 -0.39833599
0.097418927 0.097846016 -0.39833599
-0.1452862 0.11248419 -0.39833599
-0.043890305 0.11129011 -0.39833599
-0.10402207 0.12627171 -0.39833599
-0.11346886 0.13631469 -0.39833599
-0.0079162493 0.13433388 -0.39833599
0.1155145 0.13116744 -0.39833599
0.14409634 0.13741225 -0.39833599
-0.089370087 0.14786695 -0.39833599
-0.040065832 0.14249505 -0.39833599
-0.022037577 0.1409431 -0.39833599
0.1137955 0.14871201 -0.39833599
-0.18089139 0.15010087 -0.39833599
0.029061142 0.15861486 -0.39833599
0.043033056 0.15612173 -0.39833599
0.12569916 0.15467112 -0.39833599
-0.11389383 0.16011816 -0.39833599
-0.028583732 0.16214934 -0.39833599
0.1175672 0.16610986 -0.39833599
0.189363 0.16682555 -0.39781353
-0.17754883 0.17538469 -0.39833599
0.10002284 0.17661306 -0.39833599
-0.19083102 0.1872513 -0.3973521
-0.0087910444 0.18848991 -0.39833599
-0.11799941 0.19821277 -0.39833599
-0.14255655 0.22904551 -0.39155921
-0.19083101 -0.1847119 -0.38366485
-0.19083102 -0.1154982 -0.38967147
0.189363 -0.068879493 -0.38078219
-0.19083101 0.089205645 -0.38517055
0.097568765 0.190069 -0.38056451
0.12036978 0.19006899 -0.38592628
-0.19083101 -0.069676317 -0.37780049
0.189363 -0.06432303 -0.37661019
-0.19083101 -0.048937127 -0.37175953
0.189363 -0.041129805 -0.37793607
0.189363 -0.033820476 -0.37137899
0.189363 0.035823815 -0.37514859
-0.19083101 0.14555812 -0.37930113
-0.19083101 0.18325661 -0.37220949
-0.10923771 0.190069 -0.37625661
0.12872639 0.190069 -0.37081608
0.15229706 0.190069 -0.37672552
-0.14416432 0.2310544 -0.3713989
-0.19083101 0.014191739 -0.36816502
0.189363 0.042213514 -0.36646196
-0.038449738 0.190069 -0.36294016
-0.19083101 -0.18492575 -0.35546625
-0.19083101 -0.14783008 -0.3582601
0.189363 -0.13057125 -0.3570677
0.189363 0.01616977 -0.35116312
-0.19083101 0.12820303 -0.35721242
0.189363 0.14337787 -0.35855871
0.072850078 0.19006902 -0.35996509
-0.19063219 0.23427799 -0.35977983
-0.19083101 -0.23334309 -0.34501022
0.189363 -0.21231857 -0.34751371
0.189363 -0.18185517 -0.34136713
0.189363 -0.04742521 -0.34491387
0.189363 0.11205061 -0.34245929
0.189363 0.177017 -0.34224087
-0.09503828 0.18889572 -0.34188801
-0.083038688 0.19006899 -0.3495197
0.075772703 0.19006902 -0.34847093
0.18735696 0.190069 -0.34167087
-0.19083101 0.20449412 -0.34521097
-0.19083101 -0.21232457 -0.33157867
-0.19083101 -0.13581678 -0.33095911
0.189363 -0.123871 -0.33486223
-0.19083101 -0.10326609 -0.33587724
-0.19083101 -0.036625378 -0.33349532
-0.19083101 0.049714535 -0.33131081
0.189363 0.1570712 -0.33764154
0.063865252 0.187859 -0.33722562
0.042715758 0.190069 -0.33197212
-0.14064823 0.22666007 -0.33148724
0.189363 -0.22603358 -0.32770604
0.189363 -0.2127963 -0.32260427
0.189363 -0.077713788 -0.32581216
-0.19083101 -0.0014248192 -0.32185099
0.189363 0.063635685 -0.32380906
-0.050541379 0.190069 -0.32550609
-0.19083101 0.22482182 -0.32950082
-0.14880739 0.23427799 -0.32008114
0.189363 -0.21391031 -0.3198128
-0.19083101 -0.1968376 -0.31744695
-0.19083101 -0.10972768 -0.31779516
0.189363 -0.10115724 -0.31134981
0.189363 -0.053432681 -0.31365013
-0.19083101 0.075608291 -0.31482914
0.026321433 0.190069 -0.31221128
-0.11876565 0.20284589 -0.31099442
-0.14389782 0.23072231 -0.31791893
0.189363 -0.22912513 -0.30020028
0.189363 -0.12954985 -0.30493656
0.189363 -0.11491908 -0.30266836
0.189363 -0.070356548 -0.30203977
-0.19083101 -0.042789184 -0.30225432
-0.19083101 0.026861116 -0.30608994
-0.014410414 0.19006902 -0.30396986
-0.15245415 0.23427799 -0.30464303
0.189363 -0.13179916 -0.29991084
0.189363 -0.08523941 -0.29203337
0.189363 0.042387165 -0.29560208
0.169898 0.1892429 -0.29090258
-0.19083101 -0.1025265 -0.28276142
-0.19083101 -0.041358419 -0.28019515
0.189363 0.013981808 -0.28856674
-0.19083101 0.063343078 -0.28280804
0.189363 0.072602496 -0.28401011
-0.19083101 0.12836938 -0.28550732
-0.19083101 0.20385954 -0.28475684
-0.1519585 0.23427799 -0.28612664
0.189363 -0.17803584 -0.2728315
-0.19083101 -0.12992483 -0.27088308
0.189363 -0.021452624 -0.27242649
-0.19083101 0.1606251 -0.27868396
-0.064839274 0.19006902 -0.27532268
-0.19083101 0.21158968 -0.27316073
-0.19061089 0.23427799 -0.27660984
0.189363 -0.19151612 -0.26263472
-0.19083101 -0.059968084 -0.26898649
-0.11006229 0.190069 -0.26018384
0.094888866 0.19006902 -0.26250717
-0.19083101 0.22458181 -0.2693111
-0.19083101 -0.22771318 -0.25772476
-0.19083101 -0.19819665 -0.25576377
-0.19083101 -0.16210282 -0.25938687
0.189363 0.026163377 -0.25593075
-0.19083101 0.090844892 -0.25270376
-0.19083101 0.20469226 -0.25415346
-0.13838445 0.22383021 -0.25493738
0.189363 -0.19776821 -0.24661174
-0.19083101 -0.11149982 -0.24300878
-0.19083101 0.017326761 -0.24067089
0.189363 0.137299 -0.24538946
-0.091921411 0.187859 -0.24725059
-0.086111344 0.19006899 -0.24944775
-0.078697681 0.19006899 -0.24440733
-0.019379601 0.190069 -0.24989679
-0.19083101 0.20949751 -0.24542703
-0.19083101 -0.017295241 -0.2365815
0.189363 -0.0089317188 -0.23746002
-0.19083101 0.014144212 -0.23165743
-0.19083101 0.036888115 -0.23868339
-0.19083101 0.10778175 -0.23495626
-0.19083101 0.17052883 -0.23011428
-0.027069867 0.190069 -0.23544623
-0.19083101 0.20112877 -0.23480365
-0.17865081 0.23427798 -0.23022111
0.189363 -0.15001923 -0.22241941
0.189363 -0.13493916 -0.22779721
0.189363 -0.10473339 -0.22174841
-0.19083101 0.061247878 -0.22922868
-0.19083101 0.10888672 -0.22551848
-0.19083101 -0.13059583 -0.2192895
-0.19083101 -0.10991943 -0.21660092
0.189363 0.0064715147 -0.21378535
-0.19083101 0.04735177 -0.21204461
-0.19083101 0.10642293 -0.21205336
0.189363 0.10742369 -0.21894798
0.081811935 0.19006902 -0.21961567
-0.16193977 0.23427799 -0.21888292
-0.19083101 -0.17367968 -0.20389368
0.189363 -0.14503463 -0.20485094
0.189363 -0.11928901 -0.20040932
0.189363 -0.0037408182 -0.20770213
0.189363 0.010626681 -0.20489277
0.189363 0.076633498 -0.20184959
0.189363 0.11598256 -0.20775108
0.189363 0.12344075 -0.20238754
0.189363 0.1386448 -0.2007526
-0.038099345 0.190069 -0.20815858
0.10425951 0.190069 -0.2049979
-0.19083101 -0.050223812 -0.19276761
0.189363 -0.04943271 -0.19547774
0.189363 0.0010423586 -0.19371147
-0.19083101 0.02481211 -0.191826
0.189363 0.079241261 -0.19789839
0.189363 0.091174632 -0.19366837
-0.091361701 0.18968707 -0.19822948
0.15353476 0.19006899 -0.19041064
-0.17925327 0.23427799 -0.19960788
0.189363 -0.16431741 -0.18187147
0.189363 -0.089353278 -0.18209898
-0.19083101 -0.033214822 -0.18210229
0.189363 0.118842 -0.18852507
-0.099323772 0.190069 -0.18680838
-0.078721032 0.190069 -0.18864951
-0.19083101 0.22199646 -0.18157688
0.189363 -0.15010287 -0.17030911
0.189363 -0.14804675 -0.17031825
-0.19083101 -0.13754816 -0.17492878
-0.19083101 -0.075084373 -0.173522
0.189363 -0.056149267 -0.17548764
-0.19083101 0.012649963 -0.17984076
0.189363 0.14971641 -0.17435119
-0.19083101 0.19040093 -0.17072266
-0.19083101 0.2196784 -0.17483257
-0.19083101 0.22541341 -0.17708521
-0.19083101 -0.17102225 -0.16231233
-0.19083101 -0.1296303 -0.161954
0.189363 -0.11896507 -0.16182509
-0.19083101 -0.057193279 -0.16478997
0.189363 -0.018862698 -0.16677882
-0.19083101 0.06228913 -0.16939494
-0.19083101 0.1286898 -0.16535403
-0.091012411 0.190069 -0.16302556
0.099154204 0.190069 -0.16271885
-0.19083101 -0.18365023 -0.15074459
-0.19083101 -0.063225776 -0.15689611
-0.19083101 -0.038459688 -0.15731569
-0.19083101 -0.014455615 -0.15674332
0.189363 -0.011591913 -0.15617964
0.189363 0.035989072 -0.15043135
0.189363 0.1882465 -0.1595027
-0.11157452 0.19031841 -0.15169173
0.189363 -0.17141183 -0.14307356
0.189363 -0.15852764 -0.14245124
0.189363 -0.014733367 -0.14303222
-0.19083101 -0.0064949542 -0.14354604
-0.19083101 0.056893643 -0.1423091
0.18771231 0.19006899 -0.14077258
-0.19083101 -0.038179401 -0.13279162
0.189363 0.065911755 -0.13750185
-0.19083101 0.12917915 -0.13400504
-0.19083101 0.18733564 -0.13591871
0.0050344989 0.190069 -0.13813241
0.14895916 0.19006902 -0.13865913
-0.19083101 0.21992905 -0.13175215
-0.13664107 0.22165096 -0.13046142
-0.19083101 -0.15543675 -0.12610957
0.189363 -0.15055159 -0.12879559
0.189363 -0.12624475 -0.12616017
-0.19083101 -0.11951783 -0.12679103
0.189363 -0.00096088648 -0.12963997
0.189363 0.03808425 -0.12202138
-0.19083101 0.046120949 -0.12395999
-0.19083101 0.13331285 -0.12766719
0.189363 0.13588172 -0.12223002
-0.19083101 0.15214817 -0.12521267
-0.19083101 0.21601371 -0.12872833
-0.19083101 -0.075691424 -0.11411583
0.189363 -0.053573243 -0.11101425
-0.19083101 0.0097504631 -0.11514556
-0.19083101 0.077230647 -0.11234851
0.189363 0.17696783 -0.11346232
0.049247999 0.190069 -0.11852376
-0.13347654 0.21769635 -0.11057489
-0.1416665 0.22793254 -0.11844783
-0.17933324 0.23427799 -0.11708865
0.18936302 -0.20187494 -0.10267825
0.189363 -0.1004355 -0.10185397
0.189363 -0.069249168 -0.10464609
-0.19083101 0.037188113 -0.10999582
-0.19083101 0.15500268 -0.10294414
-0.11285904 0.19192395 -0.10842797
-0.055504959 0.190069 -0.1057905
0.189363 -0.17088956 -0.096756928
0.189363 -0.14997712 -0.097926594
0.189363 -0.10531747 -0.096279331
0.189363 0.10100558 -0.091262728
-0.19083101 0.15272391 -0.094819479
0.189363 0.17330448 -0.093997121
0.065880053 0.19006899 -0.098991044
0.189363 -0.23272204 -0.086877607
0.189363 -0.11222406 -0.08568158
0.189363 -0.075846426 -0.087087318
-0.19083101 0.042068213 -0.08625029
-0.19083101 0.087941043 -0.080366157
-0.19083101 0.16035351 -0.089089684
-0.057888038 0.19006902 -0.084001258
-0.021684617 0.19006902 -0.080397971
0.031112727 0.190069 -0.080187239
0.041622993 0.190069 -0.083149672
-0.14580168 0.23310146 -0.083283931
0.189363 -0.22882253 -0.071936913
0.189363 -0.21337785 -0.077250637
-0.19083101 -0.16923535 -0.077282004
-0.19083101 0.0023628399 -0.078828402
0.189363 0.10958201 -0.073972397
0.189363 0.14929925 -0.071614653
-0.01275143 0.187859 -0.077099748
0.091283709 0.187859 -0.078345552
-0.036522113 0.190069 -0.073932916
-0.19083101 -0.14178801 -0.064829864
0.189363 -0.082888007 -0.064477429
-0.19083101 0.014952861 -0.060898036
0.1727619 0.190069 -0.060870625
-0.12940429 0.21260458 -0.06966605
-0.16803387 0.23427799 -0.064006306
0.189363 -0.13255718 -0.056672685
-0.19083101 -0.010043025 -0.050924178
0.189363 0.017728321 -0.050112344
0.189363 0.020435967 -0.053542353
0.189363 0.041632868 -0.057687428
0.178067 0.190069 -0.058304958
-0.19083101 -0.23355447 -0.042110279
-0.078972891 0.19006899 -0.043071847
0.16398717 0.190069 -0.043334063
-0.19083101 0.20218167 -0.04947532
-0.19083101 0.23024106 -0.040245935
-0.14454591 0.23153168 -0.041892473
-0.19083101 -0.16287033 -0.035741597
0.189363 -0.1337972 -0.032743704
-0.19083101 0.028159611 -0.037167497
0.189363 0.066362716 -0.038083069
-0.19083101 0.079459623 -0.034489989
-0.19083101 0.15863484 -0.031687006
0.189363 -0.17157722 -0.024862543
0.189363 -0.097209349 -0.022636846
-0.19083101 -0.055560313 -0.028314974
0.189363 -0.033152059 -0.029595694
0.189363 0.00027836859 -0.023782773
0.189363 0.068296514 -0.026525741
-0.1138189 0.19312398 -0.020835875
0.050891034 0.190069 -0.028301733
0.11926863 0.19006899 -0.028425034
0.133038 0.190069 -0.024217254
-0.18199122 -0.23116258 -0.0181433
0.189363 -0.23419075 -0.018886156
-0.084585696 -0.22357808 -0.0181433
-0.037419595 -0.22215872 -0.0181433
0.043110147 -0.22904485 -0.0181433
-0.023539297 -0.21825106 -0.0181433
0.08850196 -0.21821703 -0.0181433
0.094535306 -0.21441664 -0.0181433
0.12296735 -0.21529429 -0.0181433
-0.18985209 -0.19081546 -0.0181433
-0.088458665 -0.19679505 -0.0181433
-0.039430689 -0.19246525 -0.0181433
0.092521816 -0.19981994 -0.0181433
-0.067163616 -0.1836973 -0.0181433
-0.044227351 -0.1842735 -0.0181433
-0.065794274 -0.17039898 -0.0181433
-0.099985018 -0.16479717 -0.0181433
-0.11779581 -0.15369007 -0.0181433
-0.099674776 -0.15526626 -0.0181433
0.070167162 -0.15744048 -0.0181433
0.017728996 -0.14490831 -0.0181433
0.035475425 -0.14122419 -0.0181433
0.1415007 -0.13979363 -0.0181433
0.17600653 -0.13192317 -0.0181433
-0.13843974 -0.12763855 -0.0181433
0.071888871 -0.12276489 -0.0181433
0.14997645 -0.11027309 -0.0181433
-0.089900762 -0.09244784 -0.0181433
-0.062858209 -0.091223739 -0.0181433
-0.13594669 -0.074041754 -0.0181433
-0.072277322 -0.073189884 -0.0181433
-0.029629387 -0.070596777 -0.0181433
-0.14424215 -0.06603688 -0.0181433
-0.094941869 -0.066527426 -0.0181433
-0.070522942 -0.062437765 -0.0181433
0.010906452 -0.069019035 -0.0181433
-0.19083101 -0.053168327 -0.018735513
-0.13856106 -0.056791 -0.0181433
-0.036868557 -0.055525899 -0.0181433
-0.10418461 -0.049512528 -0.0181433
0.02409175 -0.041382991 -0.0181433
0.17103145 -0.045705393 -0.0181433
-0.0086588915 -0.031714592 -0.0181433
0.0029651821 -0.039334342 -0.0181433
0.070669308 -0.035892531 -0.0181433
-0.0059575848 -0.029853458 -0.0181433
-0.074928321 -0.015778568 -0.0181433
0.098077215 -0.0056499168 -0.0181433
0.10572957 -0.0068790913 -0.0181433
0.13736561 -0.005599618 -0.0181433
-0.14431329 0.0076017445 -0.0181433
-0.041524194 0.0089903846 -0.0181433
-0.17436144 0.018867955 -0.0181433
0.13938564 0.012364946 -0.0181433
-0.093896613 0.022532161 -0.0181433
-0.068556875 0.024141584 -0.0181433
0.070336565 0.028020646 -0.0181433
0.16004911 0.043714765 -0.0181433
-0.12269782 0.056228604 -0.0181433
0.12545401 0.051466271 -0.0181433
-0.17907536 0.066919155 -0.0181433
0.039365187 0.069794588 -0.0181433
0.11954044 0.062782452 -0.0181433
0.17333606 0.062600844 -0.0181433
-0.017157815 0.078030653 -0.0181433
-0.10031978 0.080822319 -0.0181433
-0.067243792 0.084003717 -0.0181433
0.095275715 0.085673556 -0.0181433
0.13046052 0.094467565 -0.0181433
-0.066310614 0.11057579 -0.0181433
0.082606286 0.11372998 -0.0181433
0.10154378 0.11311387 -0.0181433
-0.18450963 0.12200293 -0.0181433
-0.12389223 0.12906051 -0.0181433
-0.035333678 0.12178593 -0.0181433
0.16267583 0.12788463 -0.0181433
-0.072268985 0.14666374 -0.0181433
-0.10541309 0.15855879 -0.0181433
-0.18638176 0.18178013 -0.0181433
0.12188525 0.18979692 -0.0181433
-0.18613106 0.19265266 -0.0181433
-0.17201659 0.23427799 -0.019733261
0.14444229 -0.23317459 0.0181426
0.0055815801 -0.22246748 0.0181426
-0.17339186 -0.2185002 0.0181426
0.17554063 -0.21961108 0.0181426
0.027957417 -0.20300643 0.0181426
0.028890222 -0.19801638 0.0181426
0.19083101 -0.19696124 0.018648403
-0.06581784 -0.18938509 0.0181426
-0.027498443 -0.18208015 0.0181426
0.014381222 -0.18040654 0.0181426
0.061922796 -0.18219879 0.0181426
0.08726725 -0.18483418 0.0181426
-0.049999923 -0.17150038 0.0181426
-0.08978004 -0.16077422 0.0181426
0.029012851 -0.16798148 0.0181426
-0.14948644 -0.15566152 0.0181426
-0.0052957833 -0.15295132 0.0181426
0.098704875 -0.15898016 0.0181426
-0.16504095 -0.14187212 0.0181426
-0.017049048 -0.14656058 0.0181426
0.08355137 -0.14675109 0.0181426
0.16386278 -0.14225693 0.0181426
-0.072602972 -0.13345015 0.0181426
0.14388612 -0.13107112 0.0181426
0.18521376 -0.11580224 0.0181426
0.07604111 -0.10632723 0.0181426
0.11138339 -0.10672071 0.0181426
-0.18134244 -0.092562273 0.0181426
0.11146533 -0.090117916 0.0181426
0.17030703 -0.097912148 0.0181426
0.033566464 -0.084159501 0.0181426
-0.16351558 -0.079067782 0.0181426
-0.11768652 -0.07162454 0.0181426
0.032457061 -0.074996196 0.0181426
-0.17116946 -0.063640796 0.0181426
-0.055454645 -0.062916994 0.0181426
0.0049459934 -0.06367217 0.0181426
-0.14831974 -0.041717894 0.0181426
0.047663841 -0.049513005 0.0181426
0.16359261 -0.040552028 0.0181426
-0.18833479 -0.034576669 0.0181426
-0.13779463 -0.024025932 0.0181426
-0.11076434 -0.023361018 0.0181426
0.06450592 -0.012547851 0.0181426
0.11329272 -0.019321691 0.0181426
-0.010123005 -0.0055315066 0.0181426
-0.0011330508 0.0052899588 0.0181426
0.19083101 0.00057988614 0.019964483
-0.17827754 0.020297654 0.0181426
0.025860682 0.027285624 0.0181426
0.10643516 0.025785599 0.0181426
0.18196183 0.026027476 0.0181426
0.19064909 0.029017948 0.0181426
-0.18221286 0.039144821 0.0181426
0.083062708 0.030857503 0.0181426
-0.068519279 0.047490075 0.0181426
0.16583268 0.041838668 0.0181426
0.18761702 0.04213997 0.0181426
0.091180086 0.051542368 0.0181426
0.11005373 0.055232927 0.0181426
0.14259487 0.058879733 0.0181426
0.15894812 0.051163152 0.0181426
0.07682915 0.067883015 0.0181426
-0.023638416 0.076896295 0.0181426
0.041779142 0.071609154 0.0181426
0.10234675 0.072447591 0.0181426
-0.024961818 0.085824803 0.0181426
0.099198952 0.080634333 0.0181426
0.13305759 0.084746361 0.0181426
0.16544154 0.089919634 0.0181426
-0.044480801 0.091724619 0.0181426
0.18215723 0.099927425 0.0181426
-0.075904116 0.10643189 0.0181426
-0.015601397 0.10852224 0.0181426
0.029396437 0.10248988 0.0181426
0.069636002 0.1008321 0.0181426
-0.1512915 0.1158535 0.0181426
-0.043014899 0.11542244 0.0181426
-0.0052534267 0.11198062 0.0181426
0.012337446 0.11207049 0.0181426
0.035909053 0.11673218 0.0181426
0.18078651 0.11523446 0.0181426
-0.11363933 0.12799138 0.0181426
-0.057830393 0.12049977 0.0181426
-0.093651116 0.14449126 0.0181426
0.00016767532 0.14598155 0.0181426
-0.13692942 0.15509053 0.0181426
0.031427875 0.15454032 0.0181426
-0.001942616 0.16011329 0.0181426
0.071746372 0.16367324 0.0181426
0.097334228 0.16735581 0.0181426
-0.02376857 0.18531881 0.0181426
0.13662705 0.18270597 0.0181426
-0.066740155 0.190069 0.018903337
0.13471012 0.190069 0.018392136
0.19083101 -0.1562586 0.027150545
-0.189363 -0.14182617 0.028223056
0.19083101 -0.12818456 0.024101922
-0.189363 -0.018406712 0.025223434
0.19083101 0.055036679 0.021583267
-0.07393302 0.190069 0.026416389
0.023481723 0.190069 0.02229649
0.037302256 0.190069 0.023554908
0.059749238 0.19006899 0.02745619
-0.11810881 0.20542654 0.026454791
0.19083101 -0.10761647 0.034033943
-0.189363 0.064780131 0.038156591
0.19083101 0.098990373 0.033175249
0.19083101 0.13730082 0.031527523
-0.048735861 0.190069 0.036902726
0.011186093 0.190069 0.035616744
0.15173766 0.190069 0.036177248
-0.189363 -0.10839394 0.042420067
0.19083101 -0.054014307 0.047545813
0.19083101 0.061479297 0.041163418
-0.189363 0.09576346 0.040617663
-0.11487319 0.2050328 0.049110245
-0.18936302 -0.16350897 0.050578058
0.19083101 -0.11148131 0.056192882
-0.189363 -0.065821707 0.05629345
-0.189363 0.081192076 0.054245528
-0.189363 0.10458265 0.055922292
-0.189363 0.12874141 0.054374941
0.19083101 0.12080157 0.052467186
-0.189363 0.1561428 0.059026279
-0.084788822 0.190069 0.05804814
0.014406983 0.190069 0.053506877
0.15167066 0.190069 0.056962684
-0.15796345 0.23427799 0.055744004
-0.189363 -0.22985703 0.062863499
-0.189363 -0.17237586 0.068636395
0.19083101 -0.044938859 0.067291811
0.19083101 0.046876892 0.066745572
-0.189363 0.12876984 0.068714298
-0.08938092 0.190069 0.069479942
-0.061155751 0.19006902 0.064592734
0.066198006 0.190069 0.061496098
0.18680599 0.190069 0.064072758
-0.189363 0.219253 0.063183293
-0.189363 -0.15483387 0.072942048
0.19083101 -0.10281461 0.077720687
-0.189363 -0.088045359 0.079824999
0.19083101 -0.046564292 0.070000999
0.19083101 -0.015760913 0.075392716
-0.189363 -0.0036487877 0.075728737
0.19083101 0.10237592 0.077780411
-0.10831045 0.19731282 0.074453443
0.024692003 0.190069 0.078686938
0.15539759 0.190069 0.075341471
-0.189363 0.2145652 0.071351051
-0.13447815 0.2280976 0.07123176
0.18986546 -0.063446939 0.088263601
0.19083101 -0.063789792 0.081406139
0.19025104 0.012660824 0.084555402
0.19052289 0.042155769 0.088263601
-0.189363 0.18168233 0.084032446
0.19083101 0.18141124 0.08697322
-0.043549914 0.190069 0.08699654
0.021194713 0.19006902 0.081626244
-0.189363 0.20758283 0.088048562
-0.189363 0.21019122 0.085220478
-0.17276992 0.23427799 0.089836106
0.19083101 -0.17582598 0.097823277
-0.189363 -0.11668983 0.09172745
-0.189363 -0.046547804 0.096285596
-0.189363 0.11885411 0.090523101
-0.189363 -0.11172263 0.10256849
0.19083101 -0.073704056 0.10913391
-0.189363 -0.039776456 0.10034465
-0.055431228 0.190069 0.1022315
-0.028604731 0.190069 0.1019492
0.19034177 0.19006902 0.10334371
-0.189363 -0.17147407 0.11647153
0.19083101 -0.084853657 0.11075904
-0.189363 -0.067769967 0.11985592
-0.189363 -0.041559607 0.11105793
0.19083101 -0.001284603 0.11926067
0.19083101 0.11517263 0.11775225
0.19083101 0.12380747 0.11773662
-0.10561445 0.19072725 0.11084076
-0.059957415 0.190069 0.11593238
-0.189363 -0.2013019 0.12174808
0.19083101 -0.13790597 0.12513167
0.19083101 0.017922256 0.1236143
-0.189363 0.08536388 0.1216563
0.19083101 0.12291893 0.12259153
-0.189363 0.15307763 0.12511106
0.068715781 0.190069 0.12346669
-0.189363 0.20873377 0.12684815
-0.17008448 0.23427799 0.1212089
0.19083101 -0.13447395 0.13149038
-0.189363 -0.038244031 0.13778186
-0.189363 -0.029671386 0.13125487
0.19083101 0.017881012 0.13620929
-0.189363 0.030895712 0.13454404
-0.189363 0.052070804 0.135235
0.061748836 0.19006899 0.13131148
0.10833753 0.190069 0.13533899
0.11454667 0.190069 0.13196304
0.19083101 -0.20147824 0.14083375
0.19083101 -0.0096106268 0.14988905
-0.189363 0.13808069 0.14071703
-0.055156909 0.190069 0.14484894
0.034783211 0.190069 0.14708984
0.10825939 0.190069 0.14966643
-0.189363 0.21464641 0.14652474
0.19083101 -0.18399988 0.15414989
0.19083101 -0.11289484 0.1513072
-0.189363 -0.047160573 0.15458487
0.19083101 0.018989431 0.1523232
-0.189363 0.097626187 0.15931189
-0.086345717 0.190069 0.15092616
-0.04051156 0.190069 0.15561634
-0.0082945684 0.19006899 0.15141961
0.011092311 0.190069 0.15234548
0.11714102 0.190069 0.15946533
-0.189363 -0.14914843 0.16350737
-0.189363 -0.053022116 0.16610816
0.19083101 0.075995192 0.16971409
0.18285002 0.190069 0.1678583
-0.16342035 0.23427799 0.16867842
-0.15296081 0.23427799 0.16966081
0.19083101 -0.12200342 0.17923325
0.088400528 0.190069 0.17962311
-0.189363 0.22435117 0.17610361
-0.14313969 0.23427799 0.17121157
-0.189363 -0.064684406 0.18664548
-0.189363 -0.0059308857 0.18643181
-0.189363 0.081397116 0.18835482
-0.095379427 0.190069 0.18900111
0.1552902 0.190069 0.18646663
0.18013348 0.190069 0.1824269
-0.189363 -0.19429594 0.19664758
0.19083101 -0.017110126 0.19394028
-0.189363 0.010453967 0.19610395
-0.189363 0.061247878 0.19510293
0.19083101 0.065659583 0.19535735
0.19083101 0.10223309 0.19480127
0.19083101 0.15513411 0.19840899
0.032543104 0.190069 0.19192958
0.19083101 -0.17322186 0.20665793
-0.189363 0.084207594 0.20071366
0.067060851 0.190069 0.20935164
0.080747619 0.190069 0.20356336
-0.17751539 0.23427799 0.20982225
0.18862 -0.12561753 0.21819319
-0.189363 -0.067706518 0.21700065
-0.189363 -0.024349406 0.21444798
0.19083101 0.046568476 0.21525493
-0.189363 0.13766195 0.21797766
-0.034070406 0.190069 0.21924484
0.063448206 0.190069 0.21912362
0.12781098 0.190069 0.21866794
-0.189363 0.20306221 0.21404281
-0.189363 -0.16137585 0.22852571
-0.189363 0.0018403223 0.22544131
-0.189363 0.10924776 0.22622453
0.19083101 0.10683908 0.22934057
-0.12967685 0.21903643 0.22375055
0.19083101 -0.18639839 0.23016354
-0.189363 -0.058134422 0.23243907
-0.189363 -0.0012606159 0.23033765
-0.189363 0.181675 0.23898152
-0.035689127 0.19006902 0.23435733
0.086644784 0.190069 0.23846698
0.098863631 0.190069 0.2372164
-0.14281717 0.23427799 0.23377442
-0.189363 -0.1414035 0.2434117
-0.189363 0.11757129 0.2469923
-0.046029516 0.190069 0.24567226
0.16515061 0.190069 0.24771509
-0.189363 0.20988208 0.24476324
-0.189363 -0.21512908 0.25212547
0.19083101 -0.18364775 0.25835079
-0.189363 -0.081643075 0.25057492
-0.189363 -0.066360891 0.25536504
-0.189363 0.0079869404 0.25913638
0.18868257 0.120958 0.25931031
0.19083101 0.12783127 0.25318196
0.062629558 0.190069 0.25918251
-0.189363 0.22998235 0.25517356
0.19083101 -0.17852983 0.26260406
0.19083101 -0.069277406 0.26034558
0.19083101 -0.0028666724 0.26273584
-0.189363 0.13947703 0.26777995
0.042643309 0.190069 0.2665678
0.16892748 0.190069 0.2676976
-0.13762209 0.22838387 0.26570895
0.19083101 -0.18949491 0.2780492
0.19083101 -0.14201634 0.27354091
0.19083101 -0.042825535 0.2746447
-0.189363 -0.010364465 0.27087462
0.19083101 0.087156422 0.27283782
0.19083101 0.18791488 0.27311662
0.11513451 0.190069 0.2767083
-0.14169607 0.23317689 0.27751723
0.19083101 -0.22599895 0.28224134
-0.189363 -0.11178072 0.28497493
0.19083101 -0.046783306 0.2833364
0.1363544 0.190069 0.28439638
-0.189363 0.21148586 0.28724694
-0.16369453 0.23427799 0.28833026
-0.189363 -0.18013787 0.29660875
-0.189363 -0.13623676 0.2903741
0.19083101 -0.042395346 0.29249603
-0.189363 0.16386957 0.2986683
-0.063371271 0.190069 0.29561192
0.15716782 0.19006902 0.29908183
-0.189363 -0.14481409 0.30599418
0.19083101 0.010773826 0.30317134
-0.189363 0.063787624 0.30508775
0.19083101 0.091785915 0.30414876
0.14242695 0.190069 0.30073372
-0.16193067 0.23427799 0.30699953
0.19083101 -0.18869895 0.31631696
-0.189363 -0.0091795921 0.31303516
-0.189363 0.0074081235 0.31064144
-0.031055324 0.190069 0.31111813
0.037548032 0.190069 0.31404975
0.19083101 0.033982158 0.32303929
-0.189363 0.049597468 0.32928669
0.19083101 0.060842786 0.32473582
0.19083101 0.18164584 0.32886201
0.14545353 0.190069 0.32996401
0.1702933 0.190069 0.32783252
-0.12475813 0.21324986 0.32152405
-0.189363 -0.19160621 0.33717212
0.19083101 -0.14756089 0.33068117
-0.189363 -0.062019356 0.33126646
-0.189363 0.11838528 0.33051693
0.17326957 0.190069 0.33167654
-0.189363 0.21897312 0.33132991
-0.189363 -0.13117266 0.34360969
-0.189363 -0.027756199 0.34295502
-0.189363 0.0016203374 0.3440783
-0.189363 0.1157018 0.34160382
-0.189363 0.16688745 0.34449357
-0.077330731 0.19006899 0.34316009
-0.011526624 0.190069 0.34198961
0.050367147 0.190069 0.34071347
0.19083101 -0.19082591 0.35192621
0.19083101 -0.14895539 0.35753649
0.19083101 -0.12554406 0.35271254
-0.189363 0.015503362 0.35538161
0.032240786 0.190069 0.3528147
0.056564774 0.190069 0.35117775
0.19083101 -0.081739709 0.36364248
0.19083101 -0.074408561 0.36954165
0.19083101 -0.067187175 0.36627242
0.19083101 -0.042716816 0.3670516
0.19083101 0.023711592 0.36553323
-0.189363 0.041837782 0.36660832
-0.189363 0.072913207 0.36291984
0.19083101 0.074162066 0.36302537
-0.189363 0.106334 0.36347282
0.19083101 0.12324596 0.36517042
-0.189363 0.13622095 0.36249414
0.19083101 0.1811547 0.36160427
0.11106239 0.19006902 0.36404091
-0.16645586 0.23427799 0.36037514
0.19083101 -0.19235903 0.37394267
-0.189363 -0.17406493 0.37560818
-0.189363 -0.11151749 0.37240964
0.19083101 0.025132392 0.37606511
0.19083101 0.035717458 0.37401983
0.19083101 0.084492519 0.37022886
-0.189363 0.095267758 0.37479281
0.054753751 0.190069 0.37091032
0.086278319 0.190069 0.37684634
0.1302752 0.190069 0.37152243
-0.189363 0.22574924 0.37518394
-0.189363 -0.2336389 0.38089293
-0.189363 -0.21632384 0.38231245
0.19083101 -0.15725154 0.38705304
-0.189363 -0.078301191 0.38804376
-0.189363 -0.011753559 0.38382983
0.19083101 0.15325636 0.380164
0.15765588 0.190069 0.38510507
-0.12720092 0.2161237 0.38076222
-0.18578225 0.23427799 0.38857475
-0.12402223 -0.21127363 0.39833599
0.01990024 -0.2191809 0.39833599
0.16735424 -0.21353096 0.39833599
-0.16507691 -0.20798095 0.39833599
0.064782456 -0.2068658 0.39833599
0.073929757 -0.20278752 0.39833599
0.16089156 -0.20288529 0.39833599
-0.13222185 -0.1916922 0.39833599
0.19083101 -0.19446087 0.39366227
-0.13868669 -0.18237574 0.39833599
-0.11168376 -0.18623428 0.39833599
0.11751668 -0.18683675 0.39833599
0.14079693 -0.18282837 0.39833599
-0.051365182 -0.173599 0.39833599
-0.11474238 -0.16248524 0.39833602
-0.10519096 -0.16125917 0.39833599
-0.086082876 -0.16852552 0.39833599
0.095641665 -0.16867481 0.39833599
0.13467897 -0.16625361 0.39833599
0.14451936 -0.16502103 0.39833602
-0.12715776 -0.15583661 0.39833599
-0.046504341 -0.15614474 0.39833599
0.012762319 -0.15929741 0.39833599
0.059762448 -0.15508553 0.39833599
0.09208288 -0.14171037 0.39833599
0.10747637 -0.14418568 0.39833599
0.07600157 -0.13501678 0.39833599
-0.10368867 -0.12961364 0.39833599
0.084511012 -0.12746438 0.39833599
0.13173936 -0.12164506 0.39833599
-0.057225578 -0.11126939 0.39833599
0.006656155 -0.10121109 0.39833599
0.19083101 -0.10371231 0.39481074
-0.15729097 -0.091014355 0.39833599
-0.071156733 -0.097315796 0.39833599
0.13647088 -0.098336883 0.39833599
0.14841217 -0.093483806 0.39833599
-0.189363 -0.080548227 0.3937059
-0.1876573 -0.073913239 0.39833599
-0.17035808 -0.076414362 0.39833599
-0.1015515 -0.073834911 0.39833599
0.075684607 -0.073380187 0.39833602
-0.16899066 -0.065108567 0.39833599
-0.13998047 -0.066155441 0.39833599
0.07634224 -0.060342278 0.39833599
0.1393083 -0.067029692 0.39833599
0.077317879 -0.05522098 0.39833599
-0.189363 -0.043467589 0.39655435
-0.027220201 -0.048166953 0.39833599
0.049922235 -0.047995571 0.39833599
-0.086181849 -0.035407644 0.39833599
0.058820195 -0.0327098 0.39833599
0.072461188 -0.021304704 0.39833599
-0.11941028 -0.018078163 0.39833599
-0.077974632 -0.011592809 0.39833599
0.068231724 -0.012878969 0.39833599
-0.189363 -0.0025143996 0.39055821
-0.10037732 -0.00036882982 0.39833599
-0.068339579 -0.0090596229 0.39833599
0.058741022 -0.0026885793 0.39833599
0.18575478 -0.0070935115 0.39833599
-0.16616109 0.0099526886 0.39833599
0.18464008 0.0067416653 0.39833599
-0.1659718 0.019436583 0.39833599
0.030716293 0.011404969 0.39833599
0.049920518 0.011650898 0.39833599
0.18134788 0.035731331 0.39833599
-0.1482842 0.044740092 0.39833599
0.013228346 0.041633099 0.39833599
0.057533868 0.046988912 0.39833599
0.16280124 0.049042776 0.39833599
-0.1097298 0.054492369 0.39833599
0.054050587 0.056679405 0.39833599
-0.099417076 0.065850608 0.39833599
0.10617875 0.065617248 0.39833599
0.16047584 0.066292018 0.39833599
-0.189363 0.074534342 0.3980943
-0.16463511 0.082137257 0.39833599
-0.15693989 0.081130467 0.39833599
-0.0010990407 0.086972505 0.39833599
0.10439808 0.082078926 0.39833599
0.16197275 0.10975007 0.39833599
-0.092613861 0.12975138 0.39833599
-0.066750668 0.12196315 0.39833599
-0.158197 0.13935335 0.39833599
-0.13579419 0.13315633 0.39833599
-0.081411332 0.1374817 0.39833599
0.077755995 0.1302292 0.39833599
-0.18298504 0.14410208 0.39833599
-0.10874117 0.14266849 0.39833599
-0.071721844 0.14958043 0.39833599
-0.02237539 0.156387 0.39833599
0.077316783 0.15157306 0.39833599
0.10987029 0.15101324 0.39833599
0.13734755 0.15002684 0.39833599
-0.076049909 0.16225006 0.39833599
0.16703647 0.1619916 0.39833599
0.012632594 0.18280932 0.39833599
-0.18525068 0.19409008 0.39774811
-0.13319059 0.19603625 0.39833599
-0.095921688 0.19006899 0.39678824
-0.02708457 0.190069 0.39006031
0.071767524 0.190069 0.39788443
-0.16273674 0.20587103 0.39833599
-0.12217026 0.20723052 0.39833599
-0.16467126 0.21685654 0.39833599
-0.14632155 0.22670537 0.39833599
-0.14065769 0.23195526 0.39598477
