# .PCD v0.7 - Point Cloud Data file format
VERSION 0.7
FIELDS x y z
SIZE 4 4 4
TYPE F F F
COUNT 1 1 1
WIDTH 968
HEIGHT 1
VIEWPOINT 0 0 0 1 0 0 0
POINTS 968
DATA ascii
-0.10718296 -0.436268 -0.16311562
0.0027223378 -0.436268 -0.16117162
-0.14918807 -0.41793939 -0.163771
0.0014877766 -0.40456319 -0.163771
0.063814938 -0.40691742 -0.163771
-0.033116862 -0.39692557 -0.163771
-0.011744313 -0.39994174 -0.163771
0.063623868 -0.39268541 -0.163771
-0.12442408 -0.37199885 -0.163771
-0.050573017 -0.36349791 -0.163771
-0.039117943 -0.36658406 -0.163771
-0.019645073 -0.36666429 -0.163771
0.11598285 -0.36672327 -0.163771
0.16682589 -0.3694877 -0.163771
-0.085008785 -0.35148865 -0.163771
-0.0007609874 -0.35811484 -0.163771
0.043783691 -0.35663545 -0.163771
-0.096192181 -0.34004781 -0.163771
0.11399058 -0.34228098 -0.163771
0.078251779 -0.33495873 -0.163771
-0.10007028 -0.32856709 -0.163771
-0.091802582 -0.32282498 -0.163771
0.051746413 -0.3272326 -0.163771
0.15488783 -0.32105845 -0.163771
-0.077394068 -0.3171517 -0.163771
-0.018804394 -0.31078491 -0.163771
0.067632712 -0.31265068 -0.163771
0.15287444 -0.30749431 -0.163771
0.17438717 -0.30426022 -0.163771
-0.14473754 -0.28603858 -0.163771
-0.13972268 -0.28287596 -0.163771
-0.059638165 -0.28100526 -0.163771
0.084519878 -0.28966603 -0.163771
0.16812693 -0.28988186 -0.163771
-0.10190666 -0.27128696 -0.163771
-0.07485269 -0.27299699 -0.163771
-0.0090887956 -0.27482784 -0.163771
-0.13197993 -0.26256168 -0.163771
0.065578476 -0.26576352 -0.163771
-0.10504285 -0.25620791 -0.163771
-0.042541102 -0.25254107 -0.163771
0.038104758 -0.25545833 -0.163771
-0.051427294 -0.24572645 -0.163771
-0.033736158 -0.24866855 -0.163771
0.037930824 -0.23047918 -0.163771
-0.10159354 -0.21820314 -0.163771
-0.01503155 -0.21360569 -0.163771
0.09629263 -0.20691222 -0.163771
0.15149546 -0.20850269 -0.163771
0.032361757 -0.18485349 -0.163771
0.034408689 -0.17805868 -0.163771
-0.0016973447 -0.16305147 -0.163771
0.049535535 -0.16364896 -0.163771
-0.029018514 -0.15562746 -0.163771
0.019140746 -0.15980965 -0.163771
0.093183301 -0.15420327 -0.163771
0.17794502 -0.15053624 -0.16061868
0.12597762 -0.14969143 -0.163771
0.16889143 -0.14344269 -0.163771
-0.080399796 -0.13805589 -0.163771
-0.069796257 -0.13261363 -0.163771
-0.07735984 -0.1254847 -0.163771
0.069358408 -0.12223299 -0.163771
-0.13725701 -0.099431559 -0.163771
-0.044942595 -0.091812581 -0.163771
0.039858259 -0.09435416 -0.163771
0.069476679 -0.092189223 -0.163771
0.10201298 -0.099237397 -0.163771
0.036297839 -0.074708439 -0.163771
0.064312026 -0.074844413 -0.163771
-0.13952866 -0.064135313 -0.163771
0.09824653 -0.067383803 -0.163771
0.026628584 -0.057802685 -0.163771
0.11826929 -0.049505994 -0.16377102
0.13112625 -0.047508568 -0.163771
-0.044828169 -0.03648179 -0.163771
0.036261559 -0.036772601 -0.1629402
0.060318548 -0.036772601 -0.16028896
-0.11204142 -0.021706861 -0.163771
0.049381983 -0.027792163 -0.163771
-0.049031928 -0.014136024 -0.163771
-0.014686342 -0.012001377 -0.163771
-0.043701239 -0.0089134984 -0.163771
0.032673508 -0.0029137116 -0.163771
0.048101153 -0.0033177808 -0.163771
0.16704443 -0.00088978605 -0.163771
-0.11780556 0.0011399724 -0.163771
-0.084446654 0.0038181897 -0.163771
0.0004293099 0.0067741228 -0.163771
0.11466692 0.005714613 -0.163771
-0.059234325 0.014199369 -0.163771
-0.036115825 0.014293779 -0.163771
0.10103869 0.016517978 -0.163771
0.096218221 0.025756318 -0.163771
0.15643393 0.037980128 -0.163771
0.039966788 0.046619967 -0.163771
0.14937687 0.042122532 -0.163771
-0.053735636 0.052407898 -0.163771
0.1591095 0.055815499 -0.163771
-0.074275151 0.061767392 -0.163771
-0.051495109 0.076679245 -0.163771
-0.013381694 0.087189853 -0.163771
0.037743896 0.082470551 -0.163771
0.14186171 0.081424706 -0.163771
-0.061881848 0.092368133 -0.163771
0.043474149 0.090242349 -0.163771
0.075337708 0.095409431 -0.163771
-0.14178507 0.10349713 -0.163771
-0.13482136 0.11270312 -0.163771
0.16834317 0.11447939 -0.163771
-0.11410792 0.12783234 -0.163771
0.065000996 0.12942448 -0.163771
0.13214909 0.12516353 -0.163771
-0.046024855 0.13551937 -0.163771
0.020533971 0.14351907 -0.163771
0.14862233 0.14150161 -0.163771
0.1648168 0.14492595 -0.163771
-0.13242573 0.15361109 -0.163771
0.13588773 0.15455693 -0.163771
0.1413532 0.1513776 -0.163771
0.14150926 0.16656561 -0.163771
-0.09788499 0.17762186 -0.163771
-0.070386745 0.17604737 -0.163771
-0.014796244 0.18623932 -0.163771
-0.149597 0.19017033 -0.16254741
-0.10165015 0.19224538 -0.163771
-0.097864993 0.19457129 -0.163771
-0.085625276 0.20021009 -0.163771
-0.072535105 0.20152047 -0.163771
0.068299733 0.2088652 -0.163771
0.095693022 0.20009226 -0.163771
0.16872746 0.20544067 -0.163771
-0.10188907 0.21090513 -0.163771
-0.0095964149 0.21939577 -0.163771
0.075483501 0.21257831 -0.163771
-0.08289694 0.22969253 -0.163771
0.14551508 0.22521892 -0.163771
0.16312212 0.22325911 -0.163771
-0.13305548 0.23062025 -0.163771
0.015132405 0.23487082 -0.163771
0.046459872 0.23838358 -0.163771
-0.031103281 0.25479162 -0.163771
0.12849459 0.25478989 -0.163771
0.15049151 0.25323185 -0.163771
0.15635101 0.26544398 -0.163771
-0.13010986 0.27141958 -0.163771
-0.10608906 0.28129375 -0.163771
-0.012080736 0.28268912 -0.163771
0.07957036 0.29808545 -0.163771
0.13997076 0.29126984 -0.163771
-0.14650685 0.30631328 -0.163771
-0.09138301 0.30043161 -0.163771
0.0058915466 0.30188775 -0.163771
0.067175344 0.30093223 -0.163771
0.13372363 0.30683401 -0.163771
-0.060554177 0.3283892 -0.163771
-0.10103704 0.33708289 -0.163771
-0.053042758 0.33601299 -0.163771
0.10163359 0.33055878 -0.163771
-0.052253213 0.34496537 -0.163771
0.12333971 0.3452397 -0.163771
-0.068788908 0.35076261 -0.163771
0.096899942 0.35389733 -0.163771
0.12247902 0.35702962 -0.163771
-0.048270103 0.36845192 -0.163771
0.10368389 0.36250347 -0.163771
-0.14891452 0.37855077 -0.163771
-0.10772252 0.38427651 -0.16377102
-0.087570518 0.3883228 -0.163771
0.077138454 0.38773841 -0.163771
0.10987419 0.38771462 -0.163771
-0.10572528 0.39822704 -0.163771
-0.060681798 0.39013153 -0.163771
-0.032400247 0.39948729 -0.163771
0.11595172 0.39631373 -0.163771
-0.071938485 0.40982431 -0.163771
-0.041660786 0.40854117 -0.163771
-0.12986845 0.41526935 -0.163771
0.0029653683 0.41868186 -0.163771
-0.12456816 0.42862383 -0.163771
-0.10844727 0.42801571 -0.163771
-0.02163478 0.42110705 -0.163771
-0.0026999637 0.4209727 -0.163771
0.024897523 0.4281525 -0.163771
-0.11588882 -0.43626797 -0.15735584
-0.10220176 -0.436268 -0.15592249
-0.064967543 -0.436268 -0.15134212
0.0088251382 -0.436268 -0.15211974
0.177945 -0.40442026 -0.1592079
0.177945 -0.37612799 -0.1587227
-0.149597 -0.2110417 -0.15986934
-0.039814387 -0.036772601 -0.15661073
0.069461457 -0.036772601 -0.15717229
0.12761417 -0.037226364 -0.15346007
-0.149597 -0.023168493 -0.15453976
0.13786639 -0.027605817 -0.15350339
0.17512077 0.066503212 -0.151816
0.177945 0.12444583 -0.15261045
-0.14959699 0.2238221 -0.15280539
0.177945 0.24294725 -0.15749019
0.177945 0.32352376 -0.15930699
-0.149597 0.38623586 -0.15603556
-0.149597 0.41142407 -0.15347406
0.177945 0.42218202 -0.15076251
-0.051721182 0.436268 -0.15374163
0.066788018 0.436268 -0.15699372
0.17572901 0.436268 -0.15419638
-0.087252438 -0.436268 -0.14760888
0.064408384 -0.43626797 -0.14939129
0.088766485 -0.43626803 -0.14886397
0.10380532 -0.436268 -0.14889428
0.11558817 -0.436268 -0.14545074
0.14272313 -0.43626797 -0.14437923
-0.149597 -0.27337268 -0.14610603
0.177945 -0.16260381 -0.14842525
0.17564684 -0.056615673 -0.14269748
-0.096485779 -0.036772601 -0.14722487
0.064907067 -0.036772601 -0.14278206
0.17252953 0.025676578 -0.144639
-0.14959699 0.067501411 -0.1408923
-0.149597 0.2189016 -0.145943
0.17794499 0.25070688 -0.140209
-0.149597 0.29211676 -0.14307426
0.17794502 0.29441059 -0.14619522
-0.149597 0.33414733 -0.14851937
-0.12260398 0.436268 -0.14133683
-0.0012130663 0.436268 -0.14121398
0.053729475 0.436268 -0.14309165
0.13085708 0.436268 -0.14147094
0.13459499 -0.436268 -0.13032696
0.177945 -0.41808182 -0.13354996
-0.14959702 -0.38374498 -0.13458438
0.177945 -0.29507554 -0.13870142
-0.050513472 -0.036772601 -0.13567582
0.072517306 -0.036772601 -0.13680702
0.10967755 -0.036772601 -0.1378639
0.16131431 -0.008712138 -0.13858719
-0.149597 0.083260521 -0.13140596
-0.149597 0.11453226 -0.13951781
0.177945 0.20102078 -0.13038543
0.177945 0.26191255 -0.13493842
0.177945 0.34832874 -0.13281456
0.177945 0.38686141 -0.1349503
-0.018147476 0.43626803 -0.13310254
0.0052020885 -0.43626797 -0.12006178
0.039977878 -0.436268 -0.12642136
-0.149597 -0.34642512 -0.12653014
0.177945 -0.30699015 -0.12299515
0.177945 -0.1987997 -0.1268667
0.177945 -0.13589597 -0.1263164
-0.14959702 -0.10563657 -0.12946332
-0.11091381 -0.036772601 -0.12201601
0.177945 0.32074478 -0.12902541
-0.149597 0.35314286 -0.12580727
-0.039830871 0.436268 -0.1212329
-0.061957531 -0.436268 -0.11401193
0.13872066 -0.436268 -0.11449337
0.177945 -0.26284724 -0.1154869
0.177945 -0.2190069 -0.11919677
0.17794502 -0.17007098 -0.11453275
0.177945 -0.12077852 -0.11052641
-0.14841825 -0.036772601 -0.11564991
-0.12447473 -0.036772601 -0.11820654
0.020567443 -0.036772601 -0.11997958
-0.149597 -0.014533375 -0.11652453
-0.149597 0.0023884093 -0.11942897
0.1546815 0.034903299 -0.11489622
0.17560101 0.17445233 -0.11691397
0.17639457 0.25413865 -0.11845601
-0.149597 0.29387653 -0.11741517
-0.149597 0.30320641 -0.11762827
0.177945 0.38683015 -0.11005956
-0.149597 0.39779747 -0.11715353
-0.13792889 0.436268 -0.1108992
-0.041560553 0.436268 -0.11255696
0.033019349 0.436268 -0.11921266
0.074862882 0.43626803 -0.11216959
-0.081511669 -0.436268 -0.10445236
-0.033294532 -0.436268 -0.10200603
0.14539725 -0.43626797 -0.10566643
0.177945 -0.3687059 -0.10920087
0.17794502 -0.22894895 -0.1020133
-0.10765523 -0.036772601 -0.102165
0.177945 0.087178484 -0.10478224
-0.149597 0.10319466 -0.10210568
-0.149597 0.18662149 -0.10029104
0.177945 0.23969989 -0.10555544
0.13573234 0.24365671 -0.10185941
0.024832519 0.25737765 -0.10192746
-0.149597 0.33372721 -0.10936295
0.177945 0.37810716 -0.10939604
-0.14959702 0.40339234 -0.10084732
-0.08353927 0.43626797 -0.10676768
-0.07653974 0.436268 -0.10836044
-0.10244953 -0.436268 -0.091665685
0.032777388 -0.436268 -0.099974796
-0.149597 -0.40169841 -0.098003253
-0.149597 -0.39393985 -0.093977489
0.177945 -0.35978606 -0.096748531
-0.149597 -0.25833023 -0.092508636
-0.039915361 -0.036772601 -0.090046465
0.027259266 -0.036772601 -0.097746551
0.077831835 -0.036772601 -0.095346749
0.1266349 -0.036655836 -0.093656301
0.15441599 0.026686421 -0.094080426
-0.149597 0.13019033 -0.098387316
-0.149597 0.17811243 -0.097495347
0.016375059 0.20524506 -0.091945946
0.050819568 0.20387387 -0.091145143
0.089578241 0.20675455 -0.092827529
0.020423058 0.27081522 -0.099669121
0.091133453 0.27408129 -0.098811418
0.070292875 0.29277831 -0.092329219
0.177945 0.41262051 -0.096818775
0.17794502 0.42260724 -0.098628864
-0.10658214 0.43626803 -0.094106115
-0.049780283 0.436268 -0.090310752
0.032931 -0.43626797 -0.083784044
0.064555794 -0.436268 -0.088735968
-0.14959702 -0.40911976 -0.088859223
-0.149597 -0.11307007 -0.083515599
-0.149597 -0.10999486 -0.089171715
0.12889934 -0.034831218 -0.081016272
0.13205563 -0.032287974 -0.089628465
0.15824604 -0.011184469 -0.0816257
0.16540846 0.0046883998 -0.085422598
-0.149597 0.062180858 -0.08662349
0.097062439 0.1957785 -0.086417288
0.14134386 0.19636655 -0.086760715
-0.149597 0.28078803 -0.085478351
0.177945 0.28134584 -0.08186537
0.10873567 0.2999472 -0.088237673
0.017466545 0.30250543 -0.086777598
0.083094664 0.436268 -0.088882841
0.14648001 0.436268 -0.086239591
-0.014472008 -0.436268 -0.074977919
0.16097593 -0.43626797 -0.072240129
0.177945 -0.21701805 -0.071979441
-0.149597 -0.20807099 -0.079764195
-0.149597 -0.19990602 -0.077568956
-0.149597 -0.11677442 -0.074966095
-0.0688719 -0.036772601 -0.073706225
0.10766292 -0.036772601 -0.077927455
0.15441599 0.018900141 -0.070227243
-0.149597 0.096316382 -0.077364177
-0.149597 0.1429479 -0.074213773
0.08928474 0.17917839 -0.073213205
0.0092466604 0.20559619 -0.078078784
-0.149597 0.2759991 -0.073682368
-0.14959702 0.29005054 -0.073483512
0.021883791 0.32126009 -0.071611345
0.029059999 0.436268 -0.076127067
0.037190787 0.43626797 -0.07535474
-0.12001965 -0.436268 -0.064620934
0.093499228 -0.436268 -0.065713078
-0.149597 -0.32382387 -0.064827062
-0.149597 -0.24893312 -0.062863171
-0.149597 -0.16298509 -0.066688038
-0.149597 -0.051614918 -0.066383138
0.16206332 -0.051132265 -0.063472688
0.177945 0.032255005 -0.063719988
-0.149597 0.16738483 -0.068028323
0.03087822 0.17526071 -0.069256246
0.15338871 0.17360637 -0.067585319
0.0092466604 0.19185145 -0.067194372
-0.149597 0.27962628 -0.06446182
0.029821727 0.32616857 -0.066751599
0.097753905 0.3277947 -0.065141574
0.12346307 0.33101985 -0.060772233
-0.095991038 0.436268 -0.06148681
0.083964288 0.43626803 -0.062568672
0.17042771 0.436268 -0.065593734
0.086539283 -0.436268 -0.050461356
0.17794499 -0.31939369 -0.055872492
-0.149597 -0.2252827 -0.051841881
0.177945 -0.20869873 -0.055730276
-0.149597 -0.18705629 -0.059395947
0.177945 -0.10291887 -0.051471874
-0.10538901 -0.036772601 -0.056363225
0.11767121 -0.036772601 -0.054065153
-0.14959702 0.047170039 -0.053422801
-0.149597 0.0932872 -0.055897303
-0.149597 0.10483125 -0.058890183
0.177945 0.11820853 -0.052218057
0.0092466604 0.32290849 -0.052556302
0.066902786 0.33195189 -0.059176363
-0.149597 0.36370665 -0.057032496
0.177945 0.38012162 -0.054848853
-0.13551408 0.43626803 -0.055558607
-0.097315833 0.43626803 -0.050610408
-0.068437725 0.43626797 -0.054000631
0.082471833 0.43626803 -0.051119402
0.12169176 0.436268 -0.052922115
0.177945 0.4354817 -0.056818742
-0.12003613 -0.436268 -0.043675959
0.096371137 -0.43626797 -0.042019468
0.177945 -0.21950959 -0.04417612
-0.032398086 -0.036772601 -0.047072355
0.17527595 0.0025377504 -0.041645993
0.177945 0.011799606 -0.04443806
0.17818546 0.049353 -0.041903678
0.17838 0.053774104 -0.040662169
-0.149597 0.11966901 -0.048262224
0.12959476 0.1599859 -0.04726582
0.171737 0.23567888 -0.048370287
0.171737 0.30462608 -0.041119814
0.12990806 0.33952332 -0.046212606
0.12540366 0.43626803 -0.04582864
-0.14806212 -0.43626797 -0.030363031
-0.10072143 -0.43626803 -0.032015003
0.177945 -0.33471486 -0.036089987
0.17794502 -0.30686373 -0.038410008
0.177945 -0.17597915 -0.031971674
-0.149597 -0.085013472 -0.038784891
-0.149597 -0.038652129 -0.03140641
-0.149597 0.05720431 -0.039867893
0.177945 0.066603102 -0.038770881
0.177945 0.14709379 -0.030892424
0.171737 0.24494037 -0.031915486
-0.149597 0.32208848 -0.033093356
0.177945 0.40709299 -0.032243673
0.017452039 0.436268 -0.033116385
0.13612472 0.43626797 -0.032278359
0.177945 0.43206578 -0.03337539
0.16895963 -0.43626803 -0.024244472
0.17794502 -0.23322928 -0.026051341
0.177945 -0.2112284 -0.023627013
0.177945 -0.12429434 -0.021706598
-0.077092811 -0.036772601 -0.025511399
0.13202453 -0.039006576 -0.022733323
-0.149597 -0.0047789803 -0.02575459
0.035951853 0.15184093 -0.024987955
-0.149597 0.29809982 -0.023373008
-0.149597 0.34993953 -0.024561957
-0.12339741 0.436268 -0.02180054
-0.070464619 0.436268 -0.026012361
-0.017291892 -0.436268 -0.014414026
0.13860178 -0.43626797 -0.018757448
0.177945 -0.33732569 -0.011978472
0.17794499 -0.16230497 -0.01789967
0.1646975 -0.052195754 -0.017705858
-0.055037908 -0.036772601 -0.010273308
0.086273722 -0.036772601 -0.019381348
-0.181245 0.014772516 -0.0139018
-0.15490845 0.012093723 -0.014080198
-0.16196974 0.057286419 -0.019771563
0.177945 0.11099637 -0.015423007
0.17794499 0.12558995 -0.010446237
0.11835906 0.15041962 -0.0195751
0.171737 0.28736639 -0.015577643
0.034833901 0.34924105 -0.016865943
0.177945 0.34589729 -0.013243694
-0.149597 0.39137796 -0.012849435
0.177945 0.41978669 -0.016643539
-0.11276313 0.436268 -0.010470718
3.3393502e-05 0.436268 -0.017361984
0.06590727 0.43626803 -0.017441824
-0.004864037 -0.436268 -0.00086189806
0.177945 -0.29435176 -0.0025478564
0.177945 -0.20032553 -0.002052471
-0.149597 -0.18746409 -0.0020001736
-0.149597 -0.17141829 -0.0026180958
0.177945 -0.09708856 -0.00046524964
-0.149597 -0.088089466 -0.0060597714
-0.10353158 -0.036772601 -0.0072369874
0.033930697 -0.036772601 -0.0072251707
0.064546645 -0.036772601 -0.0063969754
0.16174543 -0.0083647529 -0.0052507222
-0.14959699 0.00026665814 -0.0046560289
-0.149597 0.071952485 -0.004728396
0.177945 0.39053181 -0.0045948848
0.044937115 0.436268 -0.0032212809
-0.029674564 -0.43626797 0.0056017935
0.099570319 -0.43626803 0.0073938742
0.177945 -0.25432846 0.0013035536
0.177945 -0.24321918 0.0054401718
0.062808387 -0.036772601 0.005197227
0.087089419 -0.036772601 0.0011517778
0.12084197 -0.036772601 0.0084389299
-0.181245 0.037365004 0.0053696344
0.045241598 0.14914203 0.0091324244
-0.149597 0.15407839 0.0089739999
0.0092466604 0.28691354 0.0044885767
0.12642612 0.34979156 0.0074550305
0.177945 0.36517608 0.0017600805
-0.149597 0.37470144 0.0013385043
-0.015672531 0.436268 0.0092311651
-0.149597 -0.43034139 0.012292944
-0.11259119 -0.436268 0.010855511
-0.149597 -0.33613086 0.017360613
-0.149597 -0.28027973 0.014924131
0.17794499 -0.26173174 0.010862119
-0.149597 -0.24609922 0.014599323
-0.149597 -0.1926505 0.016207462
0.177945 -0.17053455 0.011330344
-0.149597 -0.12787168 0.017400187
-0.149597 -0.035063118 0.014616601
0.010770731 -0.036772601 0.010282725
0.17794499 0.0068670902 0.017108161
0.061579 0.14915432 0.011607982
0.1081246 0.14950097 0.013407446
-0.149597 0.15946659 0.01464569
0.177945 0.20381378 0.015957769
0.171737 0.22147819 0.01665362
-0.149597 0.25148731 0.012977235
0.061308876 0.34792602 0.018321855
-0.12226319 -0.43626803 0.029262304
0.16911016 -0.43626803 0.025953948
0.17664704 -0.436268 0.021998882
-0.149597 -0.3708629 0.026408117
-0.149597 -0.3674655 0.02135792
-0.149597 -0.35849857 0.021766901
0.177945 -0.30690056 0.023044836
0.177945 -0.27041024 0.025658485
0.177945 -0.20700788 0.024826344
-0.149597 -0.18152963 0.029929534
-0.149597 -0.16287895 0.026518743
-0.14082766 -0.085230872 0.022702903
0.14683457 -0.045179136 0.029136619
-0.1283074 -0.036772601 0.025624759
0.13949361 -0.026294645 0.029888853
0.177945 0.012626963 0.027861189
-0.17619267 0.040128227 0.029575171
-0.18027171 0.055442307 0.023008108
0.12715694 0.15140338 0.02036858
0.171737 0.22891119 0.021554632
0.171737 0.26898625 0.021360673
0.171737 0.27108014 0.020607784
0.177945 0.3270337 0.023163406
0.16161513 0.34632939 0.024400545
-0.149597 0.3502543 0.028554689
-0.149597 0.41368556 0.028449804
-0.062800035 0.43626797 0.026263157
0.048762232 0.43626797 0.025078475
-0.069262318 -0.436268 0.035730243
0.17794499 -0.3560099 0.036899488
-0.149597 -0.31671709 0.035954636
0.177945 -0.31018782 0.039256483
-0.149597 -0.24061847 0.0344708
0.177945 -0.23154241 0.036263347
-0.149597 -0.22211276 0.034039252
-0.149597 -0.19763406 0.034025013
0.177945 -0.14487416 0.036287505
0.177945 -0.12303109 0.037772078
-0.11082585 -0.036772601 0.034450479
-0.034889653 -0.036772601 0.034623846
-0.016531255 -0.036772601 0.038108319
0.076348133 -0.036772601 0.034686044
0.17794502 0.20102155 0.039597236
0.171737 0.21628352 0.03209633
0.17173699 0.27935958 0.03615015
0.0092466604 0.32345012 0.033479258
-0.149597 0.3332409 0.035021074
0.098152012 0.34245348 0.037830465
-0.14083394 0.43626797 0.038815413
-0.10413836 0.436268 0.037881941
0.177945 0.43009403 0.032427333
-0.0031157266 -0.436268 0.043546803
0.025491167 -0.43626797 0.04282926
-0.149597 -0.40433604 0.043005768
0.177945 -0.22273819 0.04338463
0.177945 -0.18849376 0.040238149
-0.10213725 -0.036772601 0.043797165
-0.065159343 -0.036772601 0.048278835
0.016587982 -0.036772601 0.04818745
-0.14959702 0.077708855 0.046875559
0.177945 0.12585531 0.045502383
0.177945 0.149444 0.042503346
0.076808542 0.15976618 0.043872569
0.087210439 0.16247688 0.048514187
0.0092466604 0.25413656 0.042004265
0.053565964 0.33836314 0.044997483
0.17794502 0.33670628 0.045580927
-0.149597 0.43467709 0.041303664
0.057796508 0.43626803 0.046091795
0.020657446 -0.43626797 0.058877263
0.031304751 -0.436268 0.056912839
-0.149597 -0.38464028 0.056699999
0.17794499 -0.10717851 0.05818329
-0.14050916 -0.067777902 0.054120544
0.10077167 -0.036772601 0.0509829
0.12631448 -0.036772601 0.052116018
-0.149597 -0.028780429 0.054356199
0.14751187 -0.019833766 0.05590177
0.177945 0.010999586 0.056056157
0.181245 0.042888716 0.052032892
-0.14959702 0.080864735 0.057885159
-0.14959702 0.098186895 0.052226368
-0.149597 0.13309728 0.054320298
0.17794499 0.17669931 0.059195437
0.0092466604 0.19232747 0.051953841
0.171737 0.2700237 0.052032914
-0.149597 0.32808447 0.057867598
0.177945 0.34562585 0.055945631
0.17794499 0.40979883 0.054517236
-0.11826847 0.436268 0.050963122
-0.14560811 -0.436268 0.060269941
0.11764011 -0.43626797 0.065610409
0.177945 -0.31352055 0.067351639
0.177945 -0.26042598 0.061803207
-0.149597 -0.17171334 0.065497339
0.177945 -0.1749434 0.064334191
0.177945 -0.13194934 0.067564853
-0.149597 -0.12845486 0.063004993
0.17794502 -0.084690154 0.06494648
0.16984926 -0.054275371 0.060807217
-0.13101166 -0.036772601 0.060348932
-0.047083382 -0.036772601 0.068256371
-0.0065708496 -0.036772601 0.0667025
0.10939352 -0.036772601 0.066607915
0.11901601 -0.036772601 0.063577369
-0.149597 0.13096009 0.064426921
0.15656325 0.17668124 0.06760852
0.177945 0.34358889 0.069361947
-0.149597 0.35852131 0.067351706
0.177945 0.42348689 0.064905822
-0.13110599 0.43626797 0.067085207
-0.043768667 0.436268 0.061813928
-0.0013205297 -0.43626797 0.076379418
0.13398126 -0.43626797 0.073636569
0.17794502 -0.4175753 0.074015364
0.177945 -0.39789942 0.079048038
-0.149597 -0.31242195 0.078867719
-0.14959699 -0.1953384 0.078701258
-0.149597 -0.16655047 0.076991826
0.177945 -0.081476599 0.076923802
-0.149597 -0.042242218 0.076225713
-0.095027432 -0.036772601 0.070740819
0.10077351 -0.036772601 0.075448789
0.13176033 -0.038899932 0.078184299
0.16484025 -0.0058710384 0.07354331
-0.14959702 0.010073352 0.070825942
0.177945 0.026920665 0.070272222
0.177945 0.050236687 0.079002455
0.17794502 0.08433491 0.071572833
0.092697136 0.18137404 0.072254509
-0.149597 0.21837157 0.074489318
0.0092466604 0.26670912 0.079924881
0.088317685 0.31582528 0.073964342
0.177945 0.31659079 0.078327358
-0.149597 0.42483154 0.076735266
-0.10895795 0.436268 0.073830776
0.025183417 0.436268 0.071127713
0.1154404 0.436268 0.071162552
0.13721855 0.43626797 0.072731607
-0.14959699 -0.41745657 0.084560268
-0.149597 -0.24771947 0.081208989
-0.149597 -0.14786585 0.089988135
-0.149597 -0.13817044 0.083373331
-0.14542922 -0.118049 0.08740107
0.17794499 -0.10126467 0.089428574
-0.149597 0.022256846 0.088457212
0.17794499 0.052986015 0.088746168
0.177945 0.068527386 0.084196076
-0.149597 0.078024432 0.085781902
0.17794499 0.099970967 0.085898288
0.177945 0.17852013 0.087518528
0.177945 0.18391271 0.08199884
0.089814954 0.20018661 0.085860297
0.177945 0.24047267 0.08674968
0.177945 0.28045934 0.084574603
0.177945 0.31438243 0.085562319
-0.149597 0.36600795 0.085466355
0.090398535 0.436268 0.082041346
-0.037121113 -0.436268 0.097508579
0.0057842694 -0.436268 0.096239895
-0.149597 -0.42783076 0.09832418
-0.149597 -0.41451815 0.094240248
-0.149597 -0.40432894 0.098838538
-0.149597 -0.31459877 0.092867978
-0.149597 -0.26017892 0.096332461
0.177945 -0.26963294 0.09262304
0.177945 -0.094448105 0.095688902
-0.13601135 -0.036772601 0.093342513
0.099365987 -0.036772601 0.096267119
-0.149597 0.011148628 0.091120049
0.177945 0.066033132 0.095318154
0.177945 0.10936281 0.098144092
-0.149597 0.11693025 0.095755681
-0.149597 0.15216368 0.090078354
0.067233451 0.22655359 0.096165784
0.029382622 0.23631373 0.098729089
0.068900786 0.23866194 0.098823167
0.023542881 0.24313818 0.098800898
0.0094567761 0.25457504 0.09874396
0.047921181 0.25934345 0.098720223
0.033801973 0.28958011 0.091168605
0.177945 0.28697723 0.094810754
-0.149597 0.34352565 0.096121602
-0.149597 0.38774812 0.090061672
0.177945 0.39647868 0.098793283
-0.14959702 0.41981432 0.092206813
-0.149597 0.42163366 0.092129961
0.13466915 -0.436268 0.10495806
-0.14959702 -0.13490614 0.10914017
-0.10948735 -0.036772601 0.10954649
-0.071919166 -0.036772601 0.10701489
0.1442261 -0.022481341 0.10373165
0.16365278 -0.0068278736 0.10981233
-0.149597 0.11146537 0.10018376
0.177945 0.26352829 0.1044329
-0.149597 0.31762567 0.10415336
0.177945 0.31587875 0.10295117
-0.042337079 0.436268 0.10894334
0.019884061 0.43626803 0.10188371
0.12419994 0.436268 0.10859495
-0.10321101 -0.43626803 0.11666747
-0.063731864 -0.43626803 0.11455808
0.17348936 -0.436268 0.1197459
-0.149597 -0.33884087 0.11279742
0.177945 -0.29595655 0.11886513
0.177945 -0.23051444 0.11423672
0.177945 -0.10753501 0.11490452
-0.093093246 -0.036772601 0.11983676
0.177945 0.068116046 0.11401023
0.177945 0.086503498 0.1163945
-0.149597 0.090547293 0.11597745
-0.149597 0.10557715 0.11470588
0.17703338 0.18766177 0.11679101
-0.149597 0.23627061 0.11851621
0.17737609 0.23143852 0.119614
0.177945 0.32149774 0.11513274
-0.149597 0.37730694 0.117587
-0.076053821 0.436268 0.11844224
0.062396564 0.436268 0.11217762
0.12015647 -0.436268 0.12281823
-0.149597 -0.2868607 0.12183411
-0.149597 -0.20188424 0.12737256
0.17564499 -0.14984329 0.12888262
-0.149597 -0.063970543 0.12938626
0.177945 -0.061330236 0.12706174
0.14069858 -0.042507786 0.12164941
0.15439503 -0.049301051 0.12952276
-0.060586497 -0.036772601 0.12540981
-0.149597 0.24917084 0.12759706
0.177945 0.27034438 0.12920183
-0.10116379 0.436268 0.12112653
0.03502126 0.436268 0.12184986
-0.14858405 -0.436268 0.13525629
0.17545043 -0.43626803 0.13306394
-0.149597 -0.34955099 0.13258538
0.17794502 -0.33043793 0.13212363
0.177945 -0.24469717 0.13917771
-0.13245 -0.085474655 0.13032538
-0.11688957 -0.036772601 0.13546973
0.177945 0.017837759 0.13485983
0.177945 0.10085393 0.13006485
-0.149597 0.19390953 0.13261805
-0.149597 0.25956014 0.13629842
0.032059338 0.436268 0.13336942
-0.13001665 -0.43626797 0.14122616
-0.053892218 -0.43626797 0.14784014
-0.01664564 -0.43626797 0.14616942
-0.149597 -0.28731573 0.14673242
0.17365332 -0.05581098 0.14036685
-0.11095835 -0.036772601 0.14999248
-0.098833039 -0.036772601 0.14511204
-0.0073391497 -0.036772601 0.14195229
0.00093816966 -0.036772601 0.14764568
-0.149597 0.1061232 0.14687668
0.177945 0.18841253 0.14667341
-0.149597 0.29088017 0.14357242
0.177945 0.30769235 0.14049789
-0.149597 0.36936101 0.14932553
0.17794499 0.40548748 0.14309128
0.067341976 -0.436268 0.15004924
0.1155661 -0.43626797 0.15012316
-0.149597 -0.39883694 0.15714695
0.177945 -0.30924201 0.15439346
0.177945 -0.20809272 0.15406704
-0.149597 -0.1448296 0.15242946
0.17794502 -0.10081621 0.15632059
-0.149597 -0.02839838 0.15003231
0.177945 0.13822897 0.15009212
-0.149597 0.16625285 0.15754117
-0.149597 0.18366992 0.15411672
0.177945 0.30903411 0.15045531
-0.026260504 -0.43626797 0.16076851
0.045514897 -0.4319278 0.163771
0.10445796 -0.43560743 0.16377102
0.034551412 -0.42182457 0.163771
-0.043940507 -0.41075799 0.163771
0.13690324 -0.41255713 0.163771
-0.050323613 -0.40042067 0.163771
-0.040859234 -0.40669459 0.163771
0.07214497 -0.40159523 0.163771
0.13636871 -0.4085387 0.163771
-0.065810621 -0.39406976 0.163771
0.12384678 -0.39081711 0.163771
-0.098584764 -0.37500086 0.163771
0.053460471 -0.37575829 0.163771
0.13902438 -0.37091446 0.163771
0.13495244 -0.36919981 0.163771
0.16797052 -0.36049548 0.163771
-0.097895168 -0.35412857 0.163771
-0.013933234 -0.35894734 0.163771
-0.0057696961 -0.35118049 0.163771
0.066277482 -0.3502644 0.163771
0.036036965 -0.34796873 0.163771
-0.14201866 -0.3374975 0.163771
-0.034256872 -0.33294702 0.163771
0.14379235 -0.33406514 0.163771
-0.1343489 -0.32223189 0.163771
0.028342839 -0.32488808 0.163771
0.040686172 -0.32939082 0.163771
0.12495164 -0.31209671 0.163771
0.12866953 -0.30520177 0.163771
-0.029985722 -0.29559922 0.163771
0.043759197 -0.29013419 0.163771
0.080310687 -0.29289871 0.163771
0.11286284 -0.28763708 0.163771
-0.095578566 -0.2787087 0.163771
0.065970793 -0.27139211 0.163771
0.17781843 -0.271615 0.163771
-0.11078751 -0.26524857 0.163771
-0.017355056 -0.26427999 0.163771
0.068344325 -0.26198557 0.163771
0.13062046 -0.26915768 0.163771
-0.11753267 -0.2552332 0.163771
-0.01926269 -0.25928578 0.163771
0.025366399 -0.25855184 0.163771
-0.11853883 -0.23391999 0.163771
-0.018480256 -0.23508684 0.163771
-0.0016787425 -0.2289786 0.163771
0.010132857 -0.2103186 0.163771
0.057584733 -0.21195267 0.163771
-0.098126784 -0.20741761 0.163771
0.056002084 -0.20738274 0.163771
0.063380271 -0.20723075 0.163771
0.14437892 -0.20538889 0.163771
0.0024048639 -0.1997392 0.163771
0.032075904 -0.19365412 0.163771
0.045488566 -0.19806617 0.163771
-0.14424825 -0.18245769 0.163771
-0.11618881 -0.18530543 0.163771
-0.13454674 -0.16789332 0.163771
-0.1054111 -0.16787517 0.163771
-0.092540801 -0.16178343 0.163771
-0.085141361 -0.16716836 0.163771
-0.026005212 -0.16003481 0.163771
-0.097480364 -0.1595479 0.163771
0.087072328 -0.15027258 0.163771
-0.149597 -0.14660591 0.16296752
0.13967292 -0.14061892 0.163771
-0.13981387 -0.13564448 0.163771
-0.098311596 -0.13405094 0.163771
-0.12870105 -0.1072358 0.163771
0.12500435 -0.097508311 0.163771
-0.13369444 -0.083864041 0.163771
-0.076573424 -0.087192222 0.163771
0.13266341 -0.081726655 0.163771
0.10457852 -0.078792453 0.163771
0.052966326 -0.063486159 0.163771
0.16131051 -0.063866735 0.163771
0.12744185 -0.053609621 0.163771
-0.12260521 -0.035548445 0.163771
0.023196112 -0.037077513 0.163771
-0.149597 -0.011429446 0.16358387
0.067479141 -0.019848289 0.163771
-0.0020370893 -0.0037058406 0.163771
0.1600922 -0.0062243161 0.163771
0.16198075 0.0054257913 0.163771
0.17148191 0.0026167857 0.163771
-0.149597 0.014881872 0.1628966
-0.035017256 0.018905636 0.163771
0.046423726 0.013090376 0.163771
0.088393979 0.027289487 0.163771
0.12919104 0.025325647 0.163771
-0.12704331 0.039201915 0.163771
-0.031437915 0.03339345 0.163771
0.088165581 0.036316819 0.16377099
0.14336511 0.038604442 0.163771
-0.14403491 0.040149119 0.163771
-0.037077267 0.043902986 0.163771
0.13605821 0.048853543 0.163771
0.1615462 0.049746789 0.163771
-0.12076321 0.05045525 0.163771
-0.066271871 0.058391016 0.163771
0.0070284083 0.055424478 0.163771
0.072184213 0.057710513 0.163771
0.045659479 0.063870586 0.163771
-0.14820753 0.080174208 0.163771
-0.051649418 0.091451697 0.163771
0.056897938 0.096215315 0.163771
-0.13278261 0.10696875 0.163771
0.17740083 0.10255566 0.163771
-0.072994083 0.11021975 0.163771
0.078917861 0.11704202 0.163771
-0.027576456 0.12180594 0.163771
0.16650225 0.12486485 0.163771
-0.10704184 0.13610968 0.163771
0.022049166 0.13746579 0.163771
-0.13015291 0.14267108 0.163771
0.12767136 0.14408165 0.163771
0.047255196 0.15604749 0.163771
0.12973353 0.15686996 0.163771
0.17612068 0.15455976 0.163771
-0.087280132 0.16996875 0.163771
-0.022439722 0.1622694 0.163771
0.07837569 0.16372055 0.163771
0.10315801 0.16219285 0.163771
-0.14094096 0.17061098 0.163771
-0.096921489 0.17815998 0.163771
0.132053 0.17267196 0.163771
-0.098307192 0.18423003 0.163771
-0.088479184 0.18599932 0.163771
0.0081596337 0.18758772 0.163771
0.13520308 0.20577906 0.163771
-0.13125876 0.21899821 0.163771
-0.010884235 0.21533176 0.163771
-0.0092412978 0.2103283 0.163771
0.037057243 0.22711302 0.163771
0.066636018 0.2256622 0.163771
-0.14902467 0.23226812 0.163771
-0.054871749 0.23024175 0.163771
0.11132233 0.23837397 0.163771
-0.1443357 0.24410985 0.163771
0.13140711 0.24947995 0.163771
0.16708201 0.24230425 0.163771
-0.14746933 0.25380832 0.163771
-0.10685173 0.25733691 0.163771
-0.08220502 0.25689107 0.163771
-0.042372085 0.25406072 0.163771
0.17083582 0.25014156 0.163771
-0.020086195 0.27058151 0.163771
0.047572874 0.27237988 0.163771
0.058998302 0.27285779 0.163771
0.1190726 0.27117735 0.163771
-0.039799944 0.28243598 0.163771
0.073477298 0.28093958 0.163771
0.081288114 0.28063422 0.163771
-0.10211403 0.29899451 0.163771
0.10129653 0.29719427 0.163771
0.1541847 0.29515246 0.163771
-0.13834411 0.30108711 0.163771
0.022808582 0.302899 0.163771
0.030506812 0.30156925 0.163771
-0.02936852 0.31314561 0.163771
0.15959871 0.31634361 0.163771
0.14464006 0.32442048 0.163771
0.10664679 0.33048704 0.163771
-0.020694889 0.34192264 0.163771
0.17704415 0.34892422 0.163771
-0.096946821 0.35083663 0.163771
0.028813265 0.35974044 0.163771
-0.083410397 0.36461389 0.163771
0.11987957 0.36106208 0.163771
0.13318089 0.36466557 0.163771
0.027469812 0.37714869 0.163771
0.04186954 0.37860182 0.163771
0.17367901 0.37838125 0.163771
-0.041818075 0.38927537 0.163771
0.17791341 0.38270694 0.163771
-0.12281569 0.3932597 0.163771
0.078900546 0.39347208 0.163771
0.09450087 0.39322504 0.163771
0.14341114 0.39610761 0.163771
-0.021932706 0.4024229 0.163771
0.03390643 0.40167993 0.163771
0.15658206 0.40703663 0.163771
-0.012928054 0.41530144 0.163771
0.039659448 0.41612059 0.163771
0.094052143 0.41353202 0.163771
-0.097185932 0.42424995 0.16377102
-0.048196714 0.42393464 0.163771
0.094883814 0.42815107 0.163771
0.14326167 0.42252406 0.163771
-0.012079604 0.43626797 0.16180824
