# .PCD v0.7 - Point Cloud Data file format
VERSION 0.7
FIELDS x y z
SIZE 4 4 4
TYPE F F F
COUNT 1 1 1
WIDTH 981
HEIGHT 1
VIEWPOINT 0 0 0 1 0 0 0
POINTS 981
DATA ascii
0.12469436 -0.28158799 -0.371802
0.16042234 -0.283629 -0.37127823
0.11801191 -0.26010591 -0.371802
-0.065314338 -0.25144914 -0.371802
-0.027826041 -0.24676681 -0.37180197
0.12745449 -0.24013068 -0.371802
0.059141856 -0.23834398 -0.371802
-0.1184281 -0.21418053 -0.371802
-0.082344413 -0.2166504 -0.37180197
0.086689785 -0.21649811 -0.37180203
0.11013602 -0.21100828 -0.371802
-0.11921776 -0.20880766 -0.371802
-0.04744501 -0.20145407 -0.371802
-0.0043893196 -0.20708442 -0.371802
0.051026482 -0.20386833 -0.371802
-0.091080368 -0.19166878 -0.37180197
-0.064191282 -0.19567955 -0.371802
-0.1404299 -0.18445441 -0.371802
-0.14188665 -0.15596463 -0.37180197
0.027380653 -0.15809052 -0.371802
0.079411879 -0.1438563 -0.371802
0.16010901 -0.13742813 -0.371802
-0.15508848 -0.11999667 -0.371802
-0.13065937 -0.11239901 -0.371802
0.10985965 -0.11990322 -0.371802
0.14631438 -0.11206931 -0.37180197
0.12678701 -0.10094441 -0.371802
-0.028628074 -0.093544237 -0.371802
0.00052779913 -0.09239009 -0.371802
0.043105509 -0.093719065 -0.371802
-0.037615888 -0.088634104 -0.371802
0.0075481832 -0.085556947 -0.371802
0.099128634 -0.080703162 -0.371802
0.016038902 -0.070223719 -0.37180197
-0.15283521 -0.066681191 -0.371802
-0.1042681 -0.063735977 -0.371802
0.057430565 -0.068273425 -0.371802
0.06550476 -0.062645823 -0.37180203
-0.16749398 -0.054504614 -0.37180203
-0.10834672 -0.050073862 -0.371802
0.027986661 -0.055973269 -0.371802
-0.042811465 -0.040936254 -0.371802
-0.073377207 -0.032591507 -0.37180203
-0.025706045 -0.036584005 -0.37180197
-0.12668039 -0.0258696 -0.371802
0.17664599 -0.023073617 -0.37055963
-0.15621938 -0.018413518 -0.371802
0.052968059 0.0033067912 -0.371802
-0.064466685 0.012362175 -0.371802
-0.029248361 0.018902823 -0.371802
-0.14124666 0.023535028 -0.37180203
-0.12282269 0.028767936 -0.371802
0.12083039 0.022591449 -0.37180197
0.17574908 0.0381786 -0.371802
-0.11040079 0.042486686 -0.371802
-0.12820679 0.059363976 -0.371802
-0.050544791 0.079762861 -0.371802
0.17288677 0.079832442 -0.371802
0.0027804412 0.087351821 -0.371802
0.12042965 0.087777302 -0.371802
0.057502292 0.095249698 -0.371802
0.11072728 0.095663078 -0.371802
-0.0017297678 0.10428669 -0.371802
0.13662757 0.10095417 -0.371802
0.17664599 0.10354917 -0.37178206
-0.059876457 0.11923496 -0.37180197
0.098143302 0.11968423 -0.371802
-0.073803216 0.12709694 -0.371802
-0.1713323 0.13120238 -0.371802
-0.12410852 0.13232896 -0.371802
-0.099784896 0.13503799 -0.371802
0.051726874 0.13268794 -0.371802
0.10616253 0.1483124 -0.371802
-0.058152489 0.15554988 -0.371802
-0.04743544 0.15231816 -0.371802
-0.040199116 0.16783431 -0.371802
-0.031553891 0.17230891 -0.371802
0.074604191 0.17031409 -0.371802
0.13061254 0.17528495 -0.371802
-0.10035773 0.18724361 -0.37180203
-0.088773653 0.18599702 -0.371802
0.051597774 0.18510896 -0.371802
-0.10966279 0.19945639 -0.371802
0.16708498 0.1917122 -0.371802
-0.1294447 0.23449475 -0.371802
0.04366979 -0.283629 -0.36557794
-0.17696901 -0.2184958 -0.3669917
0.17664599 -0.19688083 -0.36106914
0.17664599 -0.082071617 -0.3633787
-0.17696901 -0.079734735 -0.36226386
0.17664599 0.006536568 -0.3697229
0.17664599 0.018389512 -0.36390913
0.17664599 0.081958838 -0.36360502
-0.15747547 0.200955 -0.36410484
0.036050186 0.200955 -0.36303309
0.059564281 0.200955 -0.36413807
0.067820422 0.200955 -0.36575317
-0.10910638 0.21505558 -0.36209553
-0.12150617 -0.283629 -0.35599676
0.022346526 -0.283629 -0.35046232
0.040870417 -0.283629 -0.35915482
0.071209729 -0.283629 -0.35884395
0.17664599 0.025126994 -0.35563397
0.17664599 0.11875255 -0.35331383
0.17664599 0.12472238 -0.35509968
0.17664599 0.14669953 -0.3579616
-0.11128817 0.200955 -0.359496
-0.090918489 0.200955 -0.35346669
0.03084605 0.200955 -0.35730878
0.12553361 0.200955 -0.35020709
-0.17696901 0.25264099 -0.35061538
0.023431741 -0.283629 -0.34801328
0.039214525 -0.283629 -0.34959066
0.17664599 -0.17566505 -0.34774107
0.17664599 -0.11334809 -0.34686404
-0.17696901 -0.077224083 -0.34439731
0.17664599 -0.040581308 -0.34333083
0.17664599 -0.027700875 -0.34826028
0.17664599 0.083047822 -0.34248403
-0.008224342 0.200955 -0.34783253
0.15443918 0.200955 -0.34383252
0.11975791 -0.283629 -0.33956015
-0.17696901 -0.24325013 -0.33541048
-0.17696901 -0.05873134 -0.33110887
0.17664599 -0.026732154 -0.331918
0.17664599 0.016144101 -0.33907771
-0.17696901 0.043487996 -0.3378841
-0.17696901 0.11499184 -0.33666328
-0.17696901 0.17226571 -0.33377627
0.14112951 0.200955 -0.33806652
-0.17696901 0.21710096 -0.33108309
0.15550701 -0.283629 -0.32632342
0.17664599 -0.25493136 -0.32722518
-0.17696899 -0.22184892 -0.32601157
-0.17696899 -0.19661786 -0.3250812
-0.17696899 -0.1539481 -0.32714659
0.17664599 -0.1015346 -0.32598042
0.17664599 -0.081922777 -0.32859775
0.17664599 0.18730357 -0.32585883
-0.03625923 0.200955 -0.32459551
-0.0035599293 0.200955 -0.32010943
-0.17696901 0.25486076 -0.32634708
-0.016375009 -0.283629 -0.3103185
0.017265063 -0.283629 -0.3147364
0.030612357 -0.283629 -0.31071955
-0.17696901 -0.26857263 -0.31204674
0.17664599 0.043351464 -0.31263342
0.091476314 -0.283629 -0.30340034
0.17664599 -0.26557294 -0.30811876
-0.17696901 -0.21530411 -0.30449447
0.17664599 0.023107851 -0.30922681
0.17664599 0.1262285 -0.30859637
-0.17696901 0.14494917 -0.3066965
-0.17696901 0.173851 -0.30448124
-0.041682415 0.200955 -0.30415437
-0.17696901 0.24321768 -0.30703729
-0.12861796 0.26323146 -0.30029041
-0.13476588 0.27388534 -0.30015028
-0.15659431 0.283629 -0.30167696
0.07623145 -0.283629 -0.2977781
-0.17696901 -0.27065906 -0.29829672
0.17664599 -0.20758651 -0.29566401
0.17664599 -0.18569191 -0.29505417
0.12477862 0.200955 -0.29793081
-0.17696901 0.22469532 -0.2972407
-0.14338996 -0.283629 -0.2898618
-0.087317683 -0.283629 -0.28317326
0.17664599 -0.2682904 -0.28736952
-0.17696899 -0.20821911 -0.28410071
-0.17696902 -0.15245728 -0.28494465
-0.17696901 0.017182004 -0.28373444
0.17664599 0.018147938 -0.28519827
0.17664599 0.02867029 -0.28813657
0.17664599 0.065738842 -0.28042296
0.17664599 0.14854422 -0.28358066
0.17664599 0.17844172 -0.28775507
0.034551993 0.200955 -0.28745282
0.079754032 0.200955 -0.28590095
0.09657532 0.200955 -0.28997129
-0.10866211 0.21415639 -0.28924632
-0.1119389 0.25222903 -0.28796238
-0.14551567 0.283629 -0.28818977
-0.098445117 -0.283629 -0.27927962
0.032125976 -0.283629 -0.27606845
-0.17696901 -0.15028989 -0.27750534
-0.17696901 0.01923839 -0.27311993
-0.17696901 0.17890072 -0.27552441
0.17664599 0.17820314 -0.27138636
0.17664599 0.1857921 -0.27753204
0.1525628 0.200955 -0.27912486
-0.13448335 0.27323744 -0.27965626
-0.1661481 0.283629 -0.27743149
-0.15835415 -0.283629 -0.26251301
-0.092134923 -0.283629 -0.26959208
0.17664599 0.021349795 -0.2634536
-0.17696901 0.12195681 -0.26249376
0.082070261 0.200955 -0.26365575
0.17233959 -0.283629 -0.25575528
0.17664599 -0.24682915 -0.25360227
-0.17696899 -0.081770264 -0.25156569
0.17664599 -0.059200235 -0.25007933
-0.17696901 0.16801065 -0.25463814
-0.13811162 0.200955 -0.25752679
0.020524362 0.200955 -0.25308833
0.0079873502 -0.283629 -0.24606487
0.144732 -0.283629 -0.24214676
-0.17696901 -0.20294316 -0.24624123
0.17664599 -0.15712452 -0.24708155
-0.17696901 0.089943975 -0.2493864
-0.17696901 0.16001429 -0.24829495
-0.071456842 0.200955 -0.24110429
0.14614612 0.200955 -0.24351083
-0.12825014 -0.283629 -0.23775917
0.01401931 -0.283629 -0.23468329
0.17664599 -0.22110021 -0.23093943
-0.17696899 -0.16282789 -0.23233594
0.17664599 0.19157538 -0.23421961
0.01059155 -0.283629 -0.22340579
0.17498893 -0.283629 -0.22777404
0.17664599 -0.24584687 -0.22741276
-0.17696902 -0.21508296 -0.22592033
-0.17696901 -0.024255533 -0.22285196
-0.17696901 0.19964448 -0.22106493
-0.14264344 0.200955 -0.2246085
-0.097183675 0.20319784 -0.22755098
-0.16856518 0.283629 -0.22633427
-0.071764141 -0.283629 -0.21736337
0.16924718 -0.283629 -0.21165295
0.17664599 0.071788564 -0.21391907
-0.17696901 0.1036734 -0.21383989
-0.077359214 0.200955 -0.2177553
0.022433896 0.200955 -0.21967955
0.13264126 0.200955 -0.21591817
-0.15311004 0.283629 -0.21832876
0.17664599 -0.048883338 -0.20747963
0.17664599 0.091732383 -0.20299403
0.083889864 0.200955 -0.20279427
0.11240503 0.200955 -0.20190015
-0.11448917 0.22734188 -0.20980124
-0.17696901 0.23821352 -0.20779471
-0.02044449 -0.283629 -0.19944867
0.020392001 -0.283629 -0.19592446
0.17664599 -0.15586792 -0.19416517
0.17664599 -0.11804511 -0.19668788
0.17664599 -0.088352844 -0.19330548
0.17664599 0.067729533 -0.19875872
0.17664599 0.12582344 -0.19786569
0.13340098 0.200955 -0.19375049
-0.1352364 0.27496484 -0.19280751
-0.17696902 -0.076741509 -0.18700837
0.17664599 0.0072714258 -0.18204916
-0.17696901 0.13628913 -0.18530783
-0.17696902 0.18371746 -0.1892193
-0.17696901 0.19710931 -0.18263067
0.062319063 0.200955 -0.18389267
0.11078605 0.200955 -0.189383
0.16483752 0.200955 -0.18588324
-0.17696901 -0.13192406 -0.1747438
0.17664599 0.010193523 -0.17221388
0.17664599 0.035535231 -0.17453511
-0.17696901 0.18682578 -0.17965648
0.14713636 -0.283629 -0.16340221
0.17664599 -0.2817719 -0.16391185
0.17664599 -0.12987728 -0.16966625
0.17664599 -0.11229412 -0.16060238
0.17664599 0.063444778 -0.16130468
-0.041175462 0.200955 -0.16871731
-0.068062253 -0.283629 -0.15568033
-0.17696901 -0.26910362 -0.15486699
0.17664599 -0.22754744 -0.15453994
-0.17696902 -0.14541066 -0.15506853
-0.17696901 0.0469312 -0.15913698
0.019791767 0.200955 -0.15761384
0.12339674 0.200955 -0.1575467
0.018504526 -0.283629 -0.14798057
0.089916505 -0.283629 -0.14683875
-0.17696901 -0.27836534 -0.1414419
-0.17696901 -0.22318342 -0.14696738
0.17664599 -0.19705406 -0.14258172
-0.17696899 0.011708407 -0.14076065
0.17664599 0.13076603 -0.14169368
-0.067050882 0.200955 -0.14903146
0.067737147 0.200955 -0.14297052
-0.17696901 -0.12042681 -0.1336077
-0.08688122 0.200955 -0.13895404
0.14614439 0.200955 -0.13995254
-0.13708769 0.27921501 -0.13267863
-0.16372405 0.283629 -0.13805383
-0.12600045 -0.283629 -0.12914504
-0.17696901 -0.2495169 -0.12575735
0.17664599 -0.11607343 -0.12198696
-0.095870383 0.200955 -0.12107184
0.0084347343 0.200955 -0.12130401
0.15417466 0.200955 -0.1230837
0.16313687 0.200955 -0.12635547
-0.11646198 0.25031611 -0.12194826
-0.0074547976 -0.283629 -0.11343779
-0.17696901 -0.13871488 -0.11618929
-0.17696901 -0.096923724 -0.11999252
0.17664599 0.051672135 -0.11716668
0.17664599 0.089589551 -0.11847419
-0.17696901 0.12733865 -0.11280195
-0.12217616 0.200955 -0.11198483
-0.10237905 0.20640317 -0.1190453
-0.065325752 0.200955 -0.11028953
-0.11967698 0.24793977 -0.11661465
-0.17696901 0.26600248 -0.11858743
0.12387984 -0.283629 -0.10766406
0.17664599 -0.22533065 -0.10878249
-0.17696901 -0.18901125 -0.10594182
-0.17696902 -0.16822782 -0.10279963
-0.17696901 -0.13355961 -0.109368
0.17664599 -0.093996741 -0.10994582
0.17664599 -0.081867076 -0.10302182
-0.17696901 -0.069051191 -0.109354
0.17088361 0.036240257 -0.105524
0.17664599 0.11474473 -0.10740823
0.17664599 0.17902698 -0.10875946
-0.17696901 0.18256702 -0.10955232
0.17412098 0.199503 -0.10439752
-0.14858802 0.200955 -0.10657553
0.17022622 0.20093812 -0.10732072
-0.14326958 -0.283629 -0.097824305
-0.12791675 -0.283629 -0.091209359
0.0088960659 -0.283629 -0.09109284
0.14471422 -0.283629 -0.093296975
-0.17696901 -0.26942363 -0.093292788
-0.17696901 -0.085143231 -0.09253899
0.17664599 -0.064303905 -0.098611958
-0.17696902 -0.01924134 -0.091157734
-0.17696901 0.069259137 -0.098227508
-0.17696901 0.10443987 -0.098390289
-0.17696901 0.1567881 -0.094904631
-0.10257112 0.20095502 -0.097367793
0.14483516 0.200955 -0.091063447
-0.021282967 -0.283629 -0.081116088
0.055216808 -0.283629 -0.089723155
-0.17696901 -0.26717874 -0.080538824
-0.17696902 -0.23746076 -0.084275633
0.17664599 -0.22150436 -0.083824374
-0.17696901 -0.19195871 -0.083119974
0.17664599 -0.083909258 -0.081276357
0.17664599 -0.0052384236 -0.086637624
-0.17696899 0.0086968392 -0.083175063
-0.17696901 0.037506089 -0.083249956
-0.17696901 0.054453358 -0.086131506
0.083945826 -0.283629 -0.071316436
-0.17696899 -0.24412905 -0.0750475
0.17664599 -0.24394192 -0.079530604
0.17664599 -0.1704146 -0.076696441
-0.11465156 0.200955 -0.078309566
-0.014696896 0.200955 -0.079460092
-0.12214433 0.25106162 -0.075984366
0.17664599 -0.25058234 -0.060644962
-0.17696901 -0.21108301 -0.066148855
-0.17696901 -0.14599355 -0.068255074
0.17664599 -0.081538938 -0.064140059
-0.17696901 -0.071792737 -0.060661044
0.17664599 -0.075888172 -0.063877136
-0.17696901 0.087341554 -0.064986803
-0.17696901 0.1893435 -0.069354057
-0.17696902 0.2075399 -0.062353391
-0.15378591 0.200955 -0.066666871
-0.17696901 0.25990185 -0.063583538
-0.17292416 0.283629 -0.063158184
-0.14987338 -0.283629 -0.054360516
0.17664599 -0.17002672 -0.054716472
-0.17696901 0.028627746 -0.054920021
-0.051057316 0.200955 -0.052799467
-0.0041418429 0.200955 -0.059600838
-0.17696902 0.23569146 -0.058137573
0.10779702 -0.283629 -0.044296317
0.17664599 -0.26704544 -0.043073062
-0.17696901 -0.022568293 -0.047788769
-0.10178222 0.20594996 -0.041831587
-0.082889341 0.200955 -0.046104863
-0.056581561 0.200955 -0.048740111
0.045451835 0.200955 -0.041741498
-0.12497399 0.25641462 -0.048193462
-0.11458038 -0.283629 -0.036361896
-0.10962461 -0.283629 -0.032920193
-0.014707983 -0.283629 -0.031582721
0.033460282 -0.283629 -0.036891915
0.10425349 -0.283629 -0.038619034
0.17664599 -0.19154394 -0.035287794
0.17664599 -0.10585084 -0.031207891
0.17664599 -0.088465452 -0.030939614
-0.17696901 0.040434107 -0.036505792
0.17664599 0.07220073 -0.030383445
-0.10590258 0.20992897 -0.038554139
-0.039764009 0.200955 -0.038330209
0.053161182 0.200955 -0.035594877
0.043491673 -0.283629 -0.021427419
-0.17696901 -0.27936408 -0.029295135
-0.17696901 -0.24188985 -0.020879056
-0.17696901 -0.19485709 -0.024320854
-0.17696901 -0.018761806 -0.027886543
0.17664599 0.025661647 -0.02275921
0.13437384 -0.28244314 -0.018185901
-0.07982564 -0.27825952 -0.018185901
0.013295271 -0.27148196 -0.018185901
-0.15369774 -0.26864648 -0.018185901
-0.14665118 -0.26619458 -0.018185901
0.034313414 -0.25379211 -0.018185901
0.048782945 -0.25155914 -0.018185901
0.06489554 -0.25795475 -0.018185901
-0.053754572 -0.24976805 -0.018185901
-0.17190221 -0.23276651 -0.018185901
0.012985021 -0.23013632 -0.018185901
0.096065432 -0.23025778 -0.018185901
3.5062432e-05 -0.21930553 -0.018185901
-0.028875165 -0.20832485 -0.018185901
0.055602331 -0.20031634 -0.018185901
0.069245338 -0.20073149 -0.018185901
-0.10286377 -0.19925098 -0.018185901
0.049490131 -0.19377398 -0.018185901
0.063769281 -0.19171183 -0.018185901
-0.084620088 -0.18897425 -0.018185899
-0.12251844 -0.17452452 -0.018185901
0.14625028 -0.17042345 -0.018185901
-0.0068946443 -0.15274942 -0.018185901
0.16641349 -0.15258598 -0.018185901
-0.15280582 -0.14599495 -0.018185901
-0.0015489571 -0.1497259 -0.018185901
-0.062596075 -0.1384944 -0.018185901
0.080037765 -0.13121475 -0.018185901
-0.0606694 -0.12133113 -0.018185901
0.13846961 -0.12661441 -0.018185901
0.1436255 -0.12989226 -0.018185901
0.01239942 -0.11705987 -0.018185901
-0.031323813 -0.10888667 -0.018185902
0.047767844 -0.10366157 -0.018185901
0.17634398 -0.10158221 -0.018185901
-0.020596486 -0.099624045 -0.018185901
0.006461136 -0.08644361 -0.018185901
-0.17696901 -0.075803652 -0.019587189
0.029592417 -0.068331867 -0.018185901
-0.021010436 -0.057080448 -0.018185899
0.014234345 -0.049207639 -0.018185901
0.083869547 -0.046940677 -0.018185901
0.16228577 -0.049398616 -0.018185901
-0.09236373 -0.037592277 -0.018185901
0.17664599 -0.032576568 -0.018950686
-0.12369086 -0.022331327 -0.018185901
0.0043965802 -0.025290623 -0.018185901
0.14397207 -0.022942618 -0.018185901
-0.068782084 -0.00023317337 -0.018185901
0.020310082 -0.0042601377 -0.018185901
0.035918176 -0.0036622137 -0.018185901
-0.070228033 0.0067689866 -0.018185901
-0.052486602 0.00084905326 -0.018185901
-0.030679893 0.0074026473 -0.018185901
-0.093578026 0.026699848 -0.018185902
-0.050213873 0.028714526 -0.018185901
0.037883095 0.03285452 -0.018185901
0.081648424 0.033085044 -0.018185901
-0.073397905 0.049681026 -0.018185899
0.15196636 0.041895375 -0.018185901
-0.092547476 0.051035523 -0.018185901
0.038336493 0.050381817 -0.018185901
0.081541777 0.051852301 -0.018185901
0.03222806 0.065631442 -0.018185901
0.16977207 0.06211777 -0.018185899
-0.09479183 0.070723228 -0.018185901
-0.059850987 0.079301879 -0.018185901
0.0012081936 0.072015814 -0.018185901
0.037025511 0.075105451 -0.018185901
-0.0050741844 0.11286686 -0.018185901
-0.15358579 0.12913744 -0.018185901
-0.071034461 0.1295799 -0.018185902
0.082206294 0.12101041 -0.018185901
-0.03260256 0.13595347 -0.018185901
-0.0039877128 0.13299102 -0.018185901
-0.082212038 0.14475372 -0.018185901
-0.079630151 0.14472863 -0.018185901
-0.017277647 0.14621496 -0.018185901
-0.1229371 0.15724345 -0.018185901
-0.053353071 0.15582703 -0.018185901
0.024205327 0.15715586 -0.018185901
-0.025166105 0.16835041 -0.018185901
0.013435591 0.16278395 -0.018185901
0.027802069 0.16195066 -0.018185901
0.13554962 0.16053088 -0.018185901
0.12844877 0.18718363 -0.018185901
0.15580466 0.18233199 -0.018185901
0.059696902 0.1987391 -0.018185901
-0.14857905 0.200955 -0.019120891
-0.11891585 0.20544873 -0.018185901
-0.15584391 0.22941224 -0.018185901
-0.16866142 0.23705849 -0.018185901
-0.1424906 0.27213413 -0.018185901
-0.06739267 -0.27305198 0.0181865
-0.054114219 -0.27101907 0.0181865
0.130926 -0.2751506 0.0181865
-0.097889252 -0.25311363 0.0181865
-0.05503881 -0.25846884 0.0181865
-0.058155794 -0.24294645 0.0181865
-0.0033349507 -0.24329023 0.0181865
-0.17664599 -0.23499936 0.019101605
0.12589645 -0.2362386 0.0181865
-0.057690032 -0.21318342 0.0181865
-0.12934433 -0.20532884 0.018186502
-0.073314309 -0.20622428 0.0181865
-0.034472611 -0.19136636 0.0181865
-0.091766112 -0.18854517 0.0181865
0.013842031 -0.1707501 0.0181865
0.076706864 -0.17912611 0.0181865
-0.077130251 -0.16335474 0.0181865
-0.034747329 -0.1522916 0.0181865
0.012812831 -0.15993264 0.0181865
-0.1236577 -0.13926691 0.0181865
0.011442322 -0.13974848 0.0181865
-0.12535886 -0.11500524 0.0181865
-0.066190302 -0.10751119 0.0181865
-0.043732837 -0.10526064 0.0181865
-0.072369963 -0.09951064 0.0181865
-0.019565552 -0.099652648 0.018186502
0.093056574 -0.096534625 0.0181865
-0.10688789 -0.082571894 0.0181865
0.028812051 -0.08449249 0.0181865
0.08988753 -0.071989954 0.0181865
-0.069037169 -0.064665616 0.0181865
0.068905443 -0.062150143 0.0181865
0.035937764 -0.05321122 0.0181865
0.14645177 -0.047987126 0.0181865
-0.086829752 -0.035292994 0.0181865
0.11273196 -0.030973628 0.0181865
0.15817961 -0.036766402 0.018186502
0.15107107 -0.028209537 0.018186502
-0.018560231 -0.012457088 0.0181865
0.16855697 -0.016473982 0.0181865
-0.14490953 -0.0085698217 0.018186502
0.026206773 -0.00071764737 0.0181865
0.097184062 -0.005923517 0.0181865
0.17696901 0.0095980242 0.018737314
-0.13827588 0.015437581 0.0181865
-0.054762825 0.016053114 0.0181865
0.014873007 0.017361334 0.0181865
0.046496399 0.027382646 0.0181865
-0.12668583 0.037790455 0.018186502
-0.047714971 0.034319177 0.0181865
-0.14703251 0.048393592 0.0181865
-0.054997619 0.052977629 0.0181865
-0.013017494 0.052967742 0.0181865
0.1683532 0.051843725 0.0181865
-0.12757048 0.085584007 0.0181865
0.12498596 0.083239093 0.0181865
0.17656949 0.088154592 0.0181865
-0.051158097 0.09442243 0.0181865
-0.033468712 0.098993741 0.0181865
-0.054361612 0.10243301 0.0181865
-0.017510004 0.10468517 0.0181865
0.055239853 0.1191932 0.0181865
0.042569697 0.13484174 0.0181865
-0.14903745 0.14918919 0.0181865
0.052498784 0.14859334 0.0181865
0.043624867 0.15206651 0.0181865
-0.12148637 0.1803598 0.0181865
0.022315893 0.18432491 0.0181865
0.070152134 0.19548662 0.0181865
-0.10672243 0.200955 0.018672455
-0.02425313 0.200955 0.01913907
-0.10636002 -0.283629 0.022106506
0.040401578 -0.283629 0.022303648
0.1745766 -0.28362897 0.028523281
-0.17664599 0.029053248 0.02764713
0.096930511 0.200955 0.024492914
-0.11946216 0.2394979 0.028391995
-0.11100682 -0.283629 0.03189747
0.17696901 -0.27951086 0.038744062
0.17696901 -0.21705836 0.035890717
-0.17664599 -0.1840995 0.030810749
-0.17664599 -0.10269842 0.033390481
0.17696902 -0.073365465 0.035880819
0.17696901 0.12150619 0.034554597
-0.13735764 0.200955 0.034365647
0.081764817 0.200955 0.038776837
0.091695018 0.200955 0.03183642
-0.032060865 -0.283629 0.040442914
0.14413056 -0.283629 0.043173339
0.17696901 -0.26443169 0.042486638
-0.17664599 -0.21050365 0.047328271
0.17696901 -0.096045464 0.048675854
-0.14169584 0.200955 0.043259092
-0.17664599 0.22740772 0.040759772
-0.17505147 -0.28362897 0.052452885
-0.17664599 -0.0023338795 0.057952479
-0.17664599 0.0066591352 0.059133269
-0.17664599 0.11150357 0.055460937
-0.17664599 0.20991252 0.058770761
-0.11045783 0.200955 0.053866427
0.099461086 0.200955 0.050672904
0.14151357 0.200955 0.055983283
-0.17664599 0.25926182 0.051789362
0.17696899 -0.0032306686 0.060018323
0.17696902 0.014676668 0.063993789
0.17696901 0.14374667 0.066497207
-0.17664599 0.19895445 0.064204879
-0.13298234 0.200955 0.062061787
-0.074605837 0.200955 0.065214477
0.10077501 0.200955 0.0659054
-0.17664599 0.23780757 0.066420272
-0.13277198 -0.283629 0.071412206
-0.082939819 -0.283629 0.072934151
-0.07895273 -0.283629 0.07685598
-0.014097046 -0.283629 0.077155784
0.065681346 -0.283629 0.073765241
-0.17664599 -0.052996352 0.076059692
-0.17664599 -0.0049639195 0.074566379
-0.17239401 0.283629 0.071172982
0.17696901 -0.17962794 0.080526322
-0.17664599 -0.11675827 0.084173411
-0.17664599 -0.10156557 0.08950267
-0.17664599 -0.039892055 0.089324854
0.17696901 0.0091922954 0.08085344
-0.17664599 0.15034632 0.083392568
-0.16196434 0.200955 0.089533947
-0.13469705 0.27446899 0.085307017
0.17696901 -0.22676565 0.095855854
-0.17664599 -0.093566492 0.097059384
-0.15668306 -0.283629 0.10260586
-0.14282364 -0.283629 0.10615189
-0.12756875 -0.283629 0.10501948
0.14299934 -0.283629 0.10188968
0.17696901 -0.24246806 0.10745013
0.17696901 -0.18802637 0.10398413
-0.17664599 -0.0011569709 0.10580635
-0.17664599 0.037251748 0.10361811
-0.10593653 0.20845085 0.10202013
-0.053788278 0.200955 0.10146584
-0.17664599 0.2611962 0.10066488
0.053774677 -0.283629 0.11173509
-0.17664599 -0.22885966 0.11640731
0.17696901 -0.1998475 0.11777125
0.17696901 -0.13058352 0.11660612
0.17696902 0.12504902 0.11320618
-0.16444199 0.200955 0.11213173
-0.10450782 0.20517132 0.11494321
-0.13151881 0.26717305 0.11281534
-0.17488045 -0.283629 0.12963785
0.16885333 -0.283629 0.12417902
0.17696901 -0.26499739 0.12104115
0.17696901 -0.23574261 0.12772886
-0.17664599 -0.17031917 0.12382597
-0.17664599 -0.12398799 0.12385359
0.17696901 -0.085368775 0.12568188
-0.17664599 -0.027273316 0.12594898
0.17696901 -0.0056923497 0.1248204
-0.11691764 0.23365629 0.12334812
-0.12781246 0.25866547 0.12748234
0.11894573 -0.283629 0.13577811
0.17696901 -0.10267736 0.13367255
-0.17664599 0.092987999 0.13672987
0.17696901 0.10741278 0.13104762
-0.16670589 0.200955 0.13571507
-0.17664599 0.24112049 0.13023348
0.0078107119 -0.283629 0.14170292
0.11599344 -0.283629 0.1419661
0.1244971 -0.283629 0.14906886
0.17696901 -0.28354147 0.14723985
0.17696901 -0.23359841 0.14709777
0.17696901 0.048454437 0.14706169
-0.17664599 0.12626278 0.14742246
-0.14511432 0.200955 0.14230832
-0.040039375 0.200955 0.14348289
-0.0046446305 0.200955 0.14587715
-0.17664599 0.23349763 0.14680696
-0.12666345 0.25602791 0.14970297
0.0045937393 -0.283629 0.15089016
0.17696901 -0.17591737 0.15510653
-0.17664599 -0.16534355 0.15227747
0.17696902 -0.10818135 0.15886496
0.17696902 0.054156862 0.15817869
-0.17664599 0.16682701 0.15232734
-0.079757459 0.200955 0.15909159
-0.030217562 0.200955 0.15326861
0.036098566 0.200955 0.15477046
-0.17664599 0.25302836 0.1579091
-0.17664599 -0.27439442 0.16183187
0.17696901 -0.26055482 0.16483007
-0.17664599 -0.07187891 0.16601764
0.17696901 -0.057543911 0.16858056
-0.17664599 -0.04378254 0.16009988
-0.17664599 -0.022229664 0.16697781
0.17696901 -0.017500333 0.16392249
0.17696901 0.0053698346 0.1631909
0.17696901 0.083602905 0.16889772
0.17696901 0.1154072 0.16785339
-0.085811272 0.200955 0.16763853
0.056012835 -0.283629 0.17616399
0.17696901 -0.27110046 0.17019531
-0.17664599 -0.24701707 0.17547247
0.17696901 -0.23385088 0.17028943
-0.17664599 -0.11736856 0.17219882
-0.17664599 -0.10947393 0.17028721
-0.17664599 -0.055991769 0.17321347
-0.17664599 0.091577314 0.17273337
-0.17664599 0.15434831 0.179728
-0.013449767 0.200955 0.17983273
-0.016450398 -0.283629 0.18725352
0.14537549 -0.283629 0.1869327
-0.17664599 -0.25144199 0.18060377
0.17696901 -0.16101405 0.18721747
-0.17664599 0.093681864 0.18471684
0.17696901 0.17761418 0.18497974
-0.12658033 0.200955 0.18862703
-0.10278209 0.20121001 0.18689531
0.10153241 0.200955 0.18008661
-0.10465437 0.23401928 0.18600632
-0.14836088 -0.283629 0.19024502
-0.12020314 -0.283629 0.19319049
-0.060009629 -0.283629 0.19987462
-0.053878993 -0.283629 0.19095524
0.052222688 -0.283629 0.1986334
0.17696901 -0.15320271 0.19854137
0.17696901 -0.033702705 0.19138269
-0.17664599 0.15681049 0.19853324
-0.15877391 0.200955 0.19482511
0.1394991 0.200955 0.19831324
0.15169354 0.200955 0.19551946
-0.17664599 0.26660591 0.19393741
-0.058142256 -0.283629 0.20737383
-0.17664599 -0.19360584 0.20659429
0.17696901 -0.030506305 0.20874529
-0.14701256 0.200955 0.2099411
0.11898631 0.200955 0.20180537
-0.13749534 0.28075954 0.20289712
-0.17664599 -0.19117369 0.21113187
0.17696901 -0.022761539 0.21598378
-0.17664599 -0.0070184544 0.21930449
-0.17664599 0.052465975 0.21533975
-0.17664599 0.11035153 0.21106522
-0.17664599 0.12352331 0.21984328
0.037503026 -0.283629 0.22206904
0.17696901 -0.25835019 0.22958209
0.17696901 -0.18522611 0.22597653
-0.17664599 -0.1240412 0.22733286
0.17696901 -0.064795703 0.22536051
-0.15739202 0.200955 0.22072744
-0.068521574 0.200955 0.22711937
0.11280014 0.200955 0.22525513
0.17696901 -0.13731138 0.2363501
-0.17664599 0.017777324 0.23540661
-0.17664599 0.047777783 0.23769848
-0.17664599 0.092683434 0.23804432
-0.17664599 0.20477214 0.23394467
0.098913148 0.200955 0.23873001
-0.17664599 0.22189489 0.23517537
0.047256444 -0.283629 0.2447551
-0.17664599 -0.25846481 0.24235839
-0.17664599 -0.19480342 0.24991369
0.17696901 -0.1686049 0.24847013
-0.17664599 0.017641939 0.24155231
0.17696901 0.16167808 0.24284276
0.17505243 0.19903517 0.24550924
0.1360378 0.200955 0.2450093
-0.13020706 -0.283629 0.25015256
0.17696901 -0.2604844 0.25537702
0.17696901 -0.08784245 0.25492147
0.17696899 -0.038573511 0.25012839
-0.17664599 0.046529815 0.25179654
0.17696901 0.07655251 0.25826535
0.17696901 0.092034079 0.25581557
0.019921737 0.20095502 0.2598649
0.13206565 0.200955 0.25968376
-0.1471522 -0.283629 0.2674506
-0.062393513 -0.283629 0.26172879
-0.17664599 -0.25411662 0.26434997
0.17696901 -0.24510992 0.2643199
-0.17664599 -0.14917663 0.26191974
-0.17664599 -0.043048002 0.26993433
0.17696901 0.1057161 0.26700667
-0.17664599 0.11761354 0.26918492
-0.17664599 0.17142183 0.26940125
-0.17664599 0.20168103 0.26267409
0.057347644 0.200955 0.26939261
0.099885508 0.200955 0.26083016
0.012047298 -0.283629 0.27178398
0.10948891 -0.283629 0.27182159
0.13300064 -0.283629 0.27351555
-0.17664599 -0.27052689 0.27652764
-0.17664599 -0.11171278 0.27594954
-0.17664599 0.011626527 0.27827254
-0.17664599 0.082226254 0.27074921
-0.083914101 0.200955 0.27568942
-0.067388281 0.200955 0.2755473
0.035599072 0.200955 0.2765184
0.043742791 0.200955 0.27214319
-0.17664599 0.23956385 0.27230528
-0.15433924 0.283629 0.27293038
-0.17664599 -0.28119019 0.2843799
0.082453676 -0.283629 0.28356639
-0.17664599 -0.15486236 0.28158066
-0.17664599 -0.11958102 0.28243688
-0.17664599 -0.0020718724 0.2858516
0.17696902 0.023408929 0.28290409
0.17696901 0.14621902 0.28418523
-0.17664599 0.20338787 0.28174192
-0.13743955 0.200955 0.2841596
-0.10509966 0.20935434 0.2831369
0.047010761 0.200955 0.28800535
-0.16973086 -0.283629 0.29919425
-0.13703099 -0.283629 0.29650104
-0.17664599 0.059082434 0.29656744
0.050072517 0.200955 0.29388592
0.17057812 0.20093434 0.29706866
-0.11380121 0.22650287 0.29201087
-0.13522746 0.27568692 0.29793775
-0.14391375 0.283629 0.29876792
-0.14523542 -0.283629 0.30269465
0.0063261054 -0.283629 0.30498827
0.15092537 -0.283629 0.30475438
-0.17664599 -0.27474105 0.30558166
0.17696901 -0.20672551 0.30777872
-0.17664599 -0.098686747 0.30361164
-0.17664599 -0.084613867 0.308456
0.17696901 -0.046858594 0.30782837
-0.17664599 -0.0087222904 0.30288124
0.17696901 0.11907502 0.30013299
0.030128051 0.200955 0.30908126
-0.17664599 0.25659788 0.30864033
-0.060847968 -0.283629 0.31260985
0.1162379 -0.283629 0.31286034
-0.17664599 -0.27386647 0.31430015
-0.17664599 -0.24404305 0.31500822
0.17696901 -0.19706191 0.31261089
0.17696901 -0.14719389 0.31214905
0.17696899 -0.12633339 0.31890592
0.17696901 0.091075756 0.31687146
0.17696901 0.17780696 0.31819928
-0.034527339 0.200955 0.31920177
0.033333369 0.200955 0.31251228
-0.097248621 -0.283629 0.32286492
0.022668252 -0.283629 0.32654381
0.17696901 -0.25540939 0.32381567
-0.17664599 -0.24743505 0.32837903
-0.17664599 -0.075707369 0.32950565
-0.17664599 -0.037851453 0.32901239
0.17696901 0.04336229 0.32422999
-0.17664599 0.13228658 0.32204279
-0.17664599 0.16428246 0.32096571
-0.1756855 0.200955 0.32176882
-0.072289445 0.200955 0.32530701
-0.068625443 0.200955 0.3227559
0.080474667 0.200955 0.32840264
-0.17664599 0.22805989 0.32550311
0.019470558 -0.283629 0.33898032
-0.17664599 -0.22635341 0.33355317
-0.089870416 0.200955 0.33869222
0.020116046 0.200955 0.33027929
-0.15066625 0.283629 0.33341852
-0.063248664 -0.283629 0.34549594
-0.17664599 -0.024633914 0.34708336
-0.16029054 0.200955 0.34409496
-0.14739612 0.200955 0.34181249
-0.10123001 0.2057835 0.34565908
-0.02751321 0.200955 0.34515998
0.063395828 0.200955 0.3451589
0.15997382 0.200955 0.34704697
-0.15400591 0.283629 0.34010595
0.17696902 -0.17475387 0.35520256
0.17696901 -0.029060602 0.35199571
-0.17664599 0.078523025 0.35524422
0.17696901 0.10690258 0.35390872
0.17696899 0.18721728 0.35408986
-0.17664599 0.26828909 0.35345939
-0.17664599 0.27077594 0.35434198
-0.028181948 -0.283629 0.36968303
0.17696899 -0.023416765 0.36548206
-0.17664599 0.014852367 0.36495125
-0.018842258 0.200955 0.36449704
-0.12000026 0.24073315 0.36754084
-0.17664599 0.26127464 0.36746275
-0.17638412 -0.28268215 0.371802
-0.078919232 -0.27269605 0.37180203
-0.060700577 -0.27878058 0.37180197
-0.12556486 -0.26511684 0.371802
0.07973443 -0.26701677 0.371802
0.13231044 -0.26744145 0.37180203
-0.033307754 -0.25771713 0.37180203
-0.0073620975 -0.25649181 0.371802
0.050224297 -0.25538841 0.37180203
-0.1245787 -0.24425627 0.37180197
0.038935527 -0.24555904 0.371802
0.013177156 -0.23704118 0.37180203
-0.099515438 -0.22953565 0.371802
-0.027254622 -0.22598574 0.37180197
0.08685559 -0.22565301 0.37180197
0.1072375 -0.22033302 0.371802
-0.12346776 -0.2114858 0.371802
-0.11460429 -0.20565939 0.37180203
-0.019686721 -0.20481808 0.371802
0.027478617 -0.20595649 0.371802
0.044466399 -0.20399922 0.37180197
-0.097986922 -0.19939408 0.371802
-0.16558754 -0.18343005 0.371802
-0.039337941 -0.18233162 0.37180203
-0.0077551827 -0.18200195 0.371802
0.060288738 -0.1805515 0.371802
0.12859675 -0.18718527 0.371802
0.17661011 -0.18711568 0.371802
-0.17098844 -0.17588289 0.37180203
0.13141695 -0.15655206 0.371802
0.005285196 -0.14114907 0.371802
-0.12016796 -0.13967817 0.371802
-0.029713107 -0.13297786 0.371802
-0.13892828 -0.12430969 0.371802
-0.10897358 -0.12439606 0.371802
0.075161546 -0.12041479 0.37180197
-0.11937871 -0.11255383 0.371802
0.16933404 -0.11779131 0.371802
-0.15653689 -0.10049581 0.371802
-0.0389437 -0.10548278 0.371802
-0.016855463 -0.10373031 0.37180203
0.009399917 -0.10398982 0.371802
0.017710105 -0.10219873 0.371802
-0.01097732 -0.093555771 0.371802
0.094132073 -0.096305966 0.371802
0.17641643 -0.082178153 0.371802
0.082127191 -0.074000686 0.37180203
0.090256795 -0.074411958 0.371802
-0.014172032 -0.060608052 0.371802
0.050718248 -0.061262891 0.37180203
0.12671632 -0.062882632 0.371802
-0.14441712 -0.057603002 0.37180203
-0.063831463 -0.051317349 0.371802
-0.073735654 -0.030177422 0.371802
-0.062115185 -0.030335166 0.371802
0.015706632 -0.032929063 0.371802
0.049858764 -0.038280211 0.371802
0.058930393 -0.032037914 0.371802
-0.15343292 -0.020697936 0.371802
0.027535535 -0.022372767 0.371802
-0.066835955 -0.016409427 0.37180197
0.091633461 -0.017078931 0.371802
-0.17027259 0.0075710937 0.371802
0.15248971 4.2980537e-05 0.371802
-0.10299136 0.010582455 0.371802
-0.048311606 0.018323652 0.371802
-0.021873433 0.019608999 0.371802
0.09819296 0.026824258 0.37180197
-0.11610433 0.037462823 0.371802
0.011630826 0.030696072 0.371802
0.021772396 0.033284456 0.371802
0.012480755 0.040473912 0.37180203
0.038560171 0.043159209 0.371802
0.021623127 0.062011741 0.37180203
-0.043064099 0.074841775 0.371802
-0.018863734 0.071745515 0.371802
-0.0055065416 0.074135281 0.371802
0.061926655 0.077176988 0.371802
0.13444313 0.071417324 0.371802
-0.045325406 0.081910461 0.371802
0.096057191 0.08553198 0.371802
-0.17664599 0.097223371 0.37080613
-0.088645309 0.099430889 0.371802
0.032486219 0.093567893 0.371802
0.1048388 0.095813267 0.371802
0.15262622 0.092701547 0.371802
-0.14934663 0.10851794 0.371802
-0.091585174 0.10442927 0.37180197
0.16754131 0.10992654 0.371802
-0.1763652 0.1151874 0.37180203
0.025008092 0.1194756 0.371802
-0.11626992 0.12973596 0.371802
0.057854537 0.12652831 0.371802
0.17089897 0.12147934 0.371802
-0.038006108 0.131475 0.37180203
-0.003090851 0.13260384 0.37180203
0.028193818 0.13823013 0.371802
0.091777585 0.13306843 0.371802
0.1644204 0.1358103 0.371802
-0.069139168 0.14037354 0.37180197
0.068243481 0.14535551 0.371802
-0.10759718 0.15783636 0.37180203
0.14633147 0.15940605 0.371802
0.15505598 0.16585928 0.371802
0.025513843 0.17495379 0.371802
0.022636909 0.19892848 0.371802
-0.16086906 0.25360599 0.371802
-0.16821311 0.28340161 0.371802
