# .PCD v0.7 - Point Cloud Data file format
VERSION 0.7
FIELDS x y z
SIZE 4 4 4
TYPE F F F
COUNT 1 1 1
WIDTH 972
HEIGHT 1
VIEWPOINT 0 0 0 1 0 0 0
POINTS 972
DATA ascii
0.17815758 -0.35095182 -0.25066599
-0.15382774 -0.34619159 -0.25066599
0.044146352 -0.34579682 -0.25066599
0.17362294 -0.34949386 -0.25066599
-0.18375337 -0.33148947 -0.25066599
-0.16474058 -0.33011547 -0.25066599
-0.040820286 -0.33226001 -0.25066599
0.084938467 -0.33125511 -0.25066599
-0.16009602 -0.32658607 -0.25066599
-0.015738148 -0.32550398 -0.25066599
0.0047010183 -0.3216438 -0.25066599
0.14067978 -0.32793975 -0.25066599
-0.1773324 -0.31347913 -0.25066596
-0.065678701 -0.31233945 -0.25066599
-0.015548257 -0.31696162 -0.25066599
0.20224437 -0.31623414 -0.25066599
0.066277668 -0.30335853 -0.25066599
0.092932776 -0.30396339 -0.25066599
0.18407157 -0.3040072 -0.25066599
-0.19371235 -0.29729065 -0.25066599
-0.24648906 -0.28542575 -0.25066596
-0.22508734 -0.27891982 -0.25066599
-0.11897159 -0.27892628 -0.25066596
-0.24495366 -0.26622197 -0.25066599
-0.21215859 -0.25075442 -0.25066599
-0.16343816 -0.24900167 -0.25066599
-0.11685665 -0.23656084 -0.25066599
-0.029369578 -0.23596051 -0.25066599
-0.24682936 -0.228716 -0.25066599
0.22758028 -0.22320656 -0.25066599
-0.15396909 -0.21117441 -0.25066599
0.13789439 -0.21935888 -0.25066599
0.20952643 -0.21063201 -0.25066599
-0.11699957 -0.20341691 -0.25066599
0.1825456 -0.20464402 -0.25066599
-0.079144552 -0.18421794 -0.25066599
-0.013294157 -0.18086734 -0.25066599
0.21364386 -0.1871208 -0.25066599
0.075038023 -0.17554906 -0.25066599
-0.24330099 -0.16744056 -0.25066599
-0.1699456 -0.16592446 -0.25066599
-0.069693334 -0.16949043 -0.25066599
0.062185995 -0.16671868 -0.25066599
0.09514571 -0.1697242 -0.25066599
-0.21497113 -0.15726253 -0.25066599
0.032913987 -0.15175971 -0.25066599
0.1979093 -0.15332775 -0.25066599
-0.23514295 -0.14407498 -0.25066599
-0.24625835 -0.13087006 -0.25066599
-0.16621268 -0.13905811 -0.25066599
0.091502123 -0.13811612 -0.25066599
0.13790518 -0.13479072 -0.25066599
0.22632059 -0.13587147 -0.25066599
0.098380551 -0.12029964 -0.25066599
0.10895793 -0.12771778 -0.25066599
-0.16579986 -0.11173958 -0.25066599
0.075610206 -0.112074 -0.25066599
0.089328624 -0.11730113 -0.25066599
-0.045316078 -0.10549866 -0.25066599
0.00018289685 -0.10671088 -0.25066599
0.1674649 -0.10522857 -0.25066599
-0.21675202 -0.098036677 -0.25066599
-0.15929464 -0.099506557 -0.25066599
-0.06433776 -0.098885991 -0.25066599
0.010567792 -0.095916331 -0.25066599
0.10500078 -0.09329807 -0.25066599
0.12826568 -0.094168238 -0.25066599
-0.0041566435 -0.08831431 -0.25066599
0.13604589 -0.071739413 -0.25066599
0.21112311 -0.078424044 -0.25066599
-0.097090237 -0.064229935 -0.25066599
-0.072606958 -0.04233662 -0.25066599
-0.098956361 -0.030158132 -0.25066599
-0.02327284 -0.030704182 -0.25066599
-0.23656185 -0.026957303 -0.25066599
-0.11442406 -0.023366123 -0.25066599
-0.083015636 -0.025307149 -0.25066599
0.01704713 -0.026176542 -0.25066599
-0.052573018 -0.013444781 -0.25066599
0.034665726 -0.017851543 -0.25066599
-0.15724418 -0.0075686574 -0.25066599
-0.13339651 -0.00033872575 -0.25066599
-0.083033442 -0.008087758 -0.25066599
0.17057048 0.0096615702 -0.25066599
-0.20754281 0.010459796 -0.25066599
-0.21897233 0.025021389 -0.25066599
-0.1853645 0.026370313 -0.25066599
-0.05755635 0.029929686 -0.25066599
-0.019140497 0.021603942 -0.25066599
0.095378153 0.021729201 -0.25066599
0.15611865 0.038037166 -0.25066599
-0.22006039 0.046212286 -0.25066599
-0.13339904 0.044823632 -0.25066596
-0.09251599 0.045988709 -0.25066599
-0.062677614 0.045301862 -0.25066599
0.10075455 0.041049659 -0.25066599
-0.12448563 0.051528305 -0.25066599
-0.041421093 0.052762613 -0.25066599
0.18696868 0.056790397 -0.25066599
-0.074888811 0.062237054 -0.25066599
0.11721612 0.078080729 -0.25066599
0.16905788 0.079837874 -0.25066599
0.19305751 0.078162499 -0.25066599
-0.067625761 0.084904432 -0.25066599
-0.22311138 0.092399538 -0.25066599
0.031502437 0.098479718 -0.25066599
-0.061243355 0.10245866 -0.25066599
0.12677206 0.10194197 -0.25066599
0.18556626 0.10457391 -0.25066599
0.10087252 0.11479216 -0.25066599
-0.13607655 0.12619022 -0.25066599
-0.10143206 0.12930425 -0.25066599
-0.056050837 0.12197694 -0.25066599
0.020270761 0.12709089 -0.25066599
-0.094519109 0.1320993 -0.25066599
-0.039469957 0.13568434 -0.25066599
0.057181928 0.13117641 -0.25066599
-0.20885436 0.14508706 -0.25066599
-0.04510808 0.14852688 -0.25066599
0.1740993 0.15406667 -0.25066599
-0.2427866 0.16258126 -0.25066599
0.19525942 0.16641057 -0.25066599
0.20005755 0.16513807 -0.25066599
-0.0018197745 0.17771909 -0.25066599
0.050899409 0.1915819 -0.25066599
0.080104925 0.19944367 -0.25066599
0.15033498 0.19185682 -0.25066599
-0.23931183 0.20865083 -0.25066599
-0.19520134 0.20325777 -0.25066599
-0.2062687 0.21565993 -0.25066599
-0.11311775 0.22179902 -0.25066599
0.01591143 0.22852507 -0.25066599
0.026683785 0.22955072 -0.25066599
0.10633583 0.22060692 -0.25066599
0.15521426 0.22909816 -0.25066599
0.21364485 0.22901146 -0.25066599
0.028834449 0.23314454 -0.25066599
0.060406439 0.23058772 -0.25066599
-0.13496631 0.24443428 -0.25066599
0.096341856 0.24655411 -0.25066599
-0.17810528 0.25956354 -0.25066599
0.022511972 0.25333899 -0.25066599
0.18367366 0.25296879 -0.25066599
0.054866679 0.2750082 -0.25066599
-0.061394528 0.28032723 -0.25066599
0.077223428 0.28453887 -0.25066599
0.11710993 0.28519446 -0.25066599
-0.19846708 0.29215479 -0.25066599
-0.046487093 0.29611057 -0.25066599
0.13321179 0.29542801 -0.25066599
-0.23374246 0.30742848 -0.25066599
0.11654165 0.30329126 -0.25066599
-0.17611982 0.3179124 -0.25066599
-0.080086671 0.31462762 -0.25066599
-0.0087098815 0.31200838 -0.25066599
0.039890446 0.31723714 -0.25066599
0.12431608 0.32441157 -0.25066599
0.20310022 0.32843828 -0.25066599
0.14836866 0.3336325 -0.25066599
-0.22853613 0.34643444 -0.25066599
-0.0097410269 0.3513701 -0.25066599
-0.20711319 -0.35404101 -0.24911562
-0.074687816 -0.35404098 -0.24095346
-0.24864 -0.25117153 -0.24050361
0.228369 -0.16152458 -0.24456277
-0.24864 0.1843307 -0.24533641
-0.24864 0.20777956 -0.24056607
-0.019960128 0.35404101 -0.24132904
-0.13058412 -0.35404101 -0.23290133
0.228369 -0.327685 -0.23401596
0.228369 -0.31849512 -0.23067662
0.228369 -0.22826502 -0.23595457
0.228369 -0.18671133 -0.23438856
-0.24864 -0.072480872 -0.23970655
0.228369 0.046925656 -0.23706821
-0.14182793 0.35404101 -0.23737366
-0.19241147 -0.35404101 -0.22178935
-0.24864 -0.21782632 -0.22534066
-0.24864 0.14899305 -0.22011212
0.228369 0.20834543 -0.22255293
0.228369 0.21970589 -0.22654776
0.045436144 0.35404101 -0.2201072
0.11557043 0.35404101 -0.22102985
0.13444999 0.35404104 -0.22840068
0.228369 -0.20065933 -0.21910144
-0.24864 -0.033263832 -0.21614045
0.228369 0.012590557 -0.21440387
0.228369 0.083814502 -0.21946929
-0.24864 0.19609889 -0.21854058
-0.24864 0.25224608 -0.21272598
0.13006732 0.35404101 -0.21640059
0.20607223 -0.35404098 -0.20975398
-0.24864 -0.21408607 -0.20736513
0.228369 -0.20248763 -0.20782417
-0.24864 -0.03056924 -0.20244849
-0.24864 0.0070864856 -0.20499578
0.228369 0.010087878 -0.20530026
-0.24864 0.21561691 -0.20939526
-0.13613492 0.35404101 -0.20703708
0.13814966 0.35404098 -0.20034818
-0.071287543 -0.35404101 -0.19000179
-0.025944687 -0.35404101 -0.19402534
-0.01324033 -0.35404098 -0.19426909
0.228369 -0.33983907 -0.19934291
0.228369 -0.30362874 -0.19797732
0.228369 -0.046568759 -0.19230899
0.228369 0.13351087 -0.1929841
0.228369 0.29659286 -0.19728237
-0.18797481 0.35404101 -0.19169596
-0.15666237 0.35404098 -0.19860727
-0.14815903 0.35404101 -0.19620398
-0.2481676 -0.35404101 -0.18012077
-0.21064669 -0.35404104 -0.18804845
0.024166867 -0.35404101 -0.18019387
0.091469117 -0.35404101 -0.18630442
0.22741455 -0.35404101 -0.18574755
-0.24864 -0.25482997 -0.18675628
-0.24864 -0.11674801 -0.18555768
0.020042539 0.045507543 -0.18055752
0.14558418 0.049915332 -0.18073148
0.018120807 0.055287365 -0.1809435
0.038428932 0.051285788 -0.18078557
0.017815011 0.064738758 -0.18016246
-0.24864 0.26189348 -0.18335457
-0.24864 0.31171215 -0.18618968
0.15140331 0.35404101 -0.18500838
-0.24864 -0.35101783 -0.17701241
-0.18004175 -0.35404098 -0.1796681
0.11279 -0.35404101 -0.17014763
0.1233599 -0.35404101 -0.1785026
0.17077592 -0.35404098 -0.17812338
-0.24864 -0.12048726 -0.17227839
0.228369 -0.077122815 -0.17916547
0.228369 -0.013611114 -0.17957285
-0.018371657 0.01962005 -0.17953584
0.228369 0.024195023 -0.17548446
-0.24864 0.049757838 -0.17055815
0.19323599 0.055701744 -0.17262453
0.19285128 0.075490892 -0.17773123
0.16705924 0.099843308 -0.17222475
-0.052316234 0.10006055 -0.17217563
-0.24864 0.13119756 -0.17168546
0.228369 0.15098844 -0.17264071
0.1980267 0.35404101 -0.17087924
0.228369 -0.29637101 -0.16577847
0.228369 -0.1645962 -0.16320246
-0.027097171 -0.022884022 -0.16817835
-0.0891857 -0.013358744 -0.16523838
0.19323599 -0.0048882095 -0.16451491
0.0079317633 0.11830561 -0.16461372
0.14760166 0.1122148 -0.16781694
-0.07949347 0.12522197 -0.16097638
-0.24864 0.13213444 -0.16228592
-0.24864002 0.24321306 -0.16879009
0.2323496 0.30686533 -0.16016662
-0.022341006 0.35404098 -0.16933012
0.030361988 0.35404101 -0.16735344
-0.13384891 -0.35404101 -0.15524715
-0.045667507 -0.35404101 -0.15399034
0.13029218 -0.35404101 -0.15678333
0.20483163 -0.35404101 -0.15524213
-0.24864 -0.23232064 -0.15321514
0.058493517 -0.053026102 -0.15228964
0.11595942 -0.050310224 -0.15400387
0.068856724 -0.049547471 -0.1544853
0.1262807 -0.042749543 -0.15877607
0.13381168 -0.043973573 -0.15800348
0.228369 -0.041103203 -0.15431941
-0.24864 0.032180645 -0.15693113
-0.0891857 0.070485726 -0.15275973
0.23614758 0.080332831 -0.15167618
0.045713387 0.12883492 -0.15907629
-0.085998654 0.1327236 -0.15703121
0.040436029 0.13363113 -0.15655394
0.05554767 0.1418245 -0.15224497
0.228369 0.26431021 -0.15387513
0.24593699 0.2625688 -0.15006252
-0.047761355 0.35404101 -0.15247521
0.14432383 -0.35404101 -0.14446941
0.228369 -0.30133396 -0.14024729
-0.24864002 -0.26105124 -0.14403772
0.228369 -0.1378448 -0.1410346
0.228369 -0.12791586 -0.14858983
0.19323599 -0.066417798 -0.14018212
-0.0891857 -0.034824431 -0.14840892
0.19323599 -0.028751858 -0.14481591
-0.0891857 -0.0016885856 -0.14086884
-0.24864 0.099543348 -0.14960974
0.228369 0.14458172 -0.14853403
-0.0029426161 0.15704313 -0.14103596
0.17964557 0.15789987 -0.14024426
0.19323599 0.15048273 -0.14458825
-0.24864 0.35204685 -0.14334923
0.040552475 0.35404101 -0.14762481
0.052537881 0.35404101 -0.14227241
0.228369 -0.26537794 -0.13009143
0.22836898 -0.12730585 -0.13208419
-0.24864 -0.072739825 -0.13782406
0.030448008 -0.074535385 -0.13799472
0.091862351 -0.074538335 -0.13799153
0.23647699 -0.01255904 -0.13867916
0.19323599 0.042425327 -0.13871756
-0.060692865 0.16795647 -0.13095105
0.12418692 0.16134077 -0.13706456
0.228369 0.28341204 -0.13478734
-0.2075505 0.35404104 -0.13810165
-0.14130585 0.35404101 -0.13818018
0.005171977 0.35404101 -0.13427135
-0.16472949 -0.35404101 -0.12881134
0.10804044 -0.35404101 -0.1267249
0.12322117 -0.35404101 -0.12113312
-0.24864 -0.30637506 -0.12611753
0.228369 -0.24930596 -0.12917651
0.054536745 -0.090549305 -0.12066534
0.14442939 -0.090364262 -0.12086559
-0.063871041 -0.083983161 -0.12777086
0.15746742 -0.082641877 -0.12922233
0.228369 -0.088607885 -0.12657492
-0.24864 0.082380794 -0.1253534
0.038361859 0.17871882 -0.12100565
0.094020486 0.17105953 -0.12808353
0.2357616 0.25810206 -0.12918662
-0.24864 0.3208856 -0.12400259
0.228369 0.34097147 -0.12684251
-0.12492485 0.35404104 -0.12034789
0.064164162 0.35404101 -0.12814565
-0.23825692 -0.35404101 -0.11855745
-0.18843754 -0.35404104 -0.11806627
-0.070159815 -0.35404101 -0.11477292
0.086951502 -0.35404101 -0.11559247
0.17320265 -0.35404101 -0.11652602
0.228369 -0.34787861 -0.11025599
0.10363945 -0.097693503 -0.11293428
-0.0891857 -0.063209623 -0.11868783
0.23181736 -0.06215087 -0.11790396
0.19323599 0.047706809 -0.11710384
0.21415251 0.061051514 -0.11363558
0.16486721 0.1875235 -0.11052243
-0.24864 0.20908158 -0.11906403
-0.24864 0.21617714 -0.11603895
0.228369 0.3299197 -0.11392057
0.10537425 0.35404101 -0.11124858
-0.22543941 -0.35404101 -0.10418136
-0.018597517 -0.10362284 -0.10651788
0.021765828 -0.10690582 -0.10161924
0.14238723 -0.10398699 -0.10520627
0.19277883 -0.10525216 -0.10475472
0.228369 -0.081494197 -0.10895136
0.22429952 0.0045583155 -0.1093756
0.19323601 0.097232625 -0.10463211
0.236477 0.10413016 -0.10589545
-0.24864 0.20339088 -0.10389008
0.228369 0.20900904 -0.1054979
-0.24864 0.22347192 -0.10586347
-0.24864 0.27940243 -0.10527782
0.228369 0.30075029 -0.10109293
0.228369 0.31037962 -0.10143616
0.228369 0.33496535 -0.10311629
-0.022853326 0.35404101 -0.10427085
0.22836898 -0.11508793 -0.095586151
0.19323599 -0.10690796 -0.097529985
-0.24864 0.04073998 -0.097044945
0.19323599 0.076529562 -0.098189324
-0.24864 0.08551123 -0.092194721
0.1966998 0.10737639 -0.093622789
-0.24864 0.11374125 -0.090903625
-0.0891857 0.17228317 -0.094173864
-0.24864 0.22376724 -0.090777181
0.017930344 0.35404104 -0.093821935
0.10106829 0.35404101 -0.092906833
0.11613032 0.35404101 -0.098492071
0.16738476 0.35404101 -0.097176298
0.228369 -0.3505618 -0.088579603
-0.24864 -0.24066052 -0.086268902
-0.24864 -0.18297221 -0.081304893
-0.026599135 -0.11725667 -0.081937447
0.094006926 -0.11622737 -0.083894618
0.23647702 -0.086526632 -0.083371609
0.19323599 -0.015699152 -0.08962965
-0.0891857 -0.0021864586 -0.082520463
0.19323599 0.11848325 -0.089731924
-0.24864 0.12263157 -0.08809647
0.23647702 0.1565896 -0.08882349
0.22949202 0.24920627 -0.081961676
-0.24864 0.34541783 -0.086143129
0.228369 0.34458262 -0.085357092
-0.17228135 0.35404098 -0.086495198
-0.13115823 0.35404101 -0.089898743
-0.24863999 -0.33509699 -0.07282304
-0.24864 -0.26302195 -0.076216452
-0.24864 -0.24101929 -0.077463709
0.228369 -0.13842413 -0.07480906
-0.035424747 -0.12320819 -0.070620812
0.058529098 -0.1226123 -0.071753882
0.08539962 -0.11865611 -0.079276443
0.228369 -0.10323305 -0.075032905
0.19323599 -0.060832936 -0.072910346
-0.24864 -0.053460225 -0.072048396
0.19323599 -0.059783597 -0.070624471
0.236477 -0.055121738 -0.0734846
0.20979939 -0.042675197 -0.07937476
0.22389966 -0.048577543 -0.073822826
0.19323599 0.0045426684 -0.073474951
0.19323599 0.049771816 -0.070938364
0.22533603 0.12340394 -0.079563394
0.14203086 0.2110226 -0.070618644
0.23107198 0.24899662 -0.078141451
-0.018293567 -0.35404101 -0.0671141
0.14559178 -0.35404104 -0.064246684
0.228369 -0.3275401 -0.065917946
0.010519076 -0.12522906 -0.066778198
0.10841129 -0.12624772 -0.064841241
0.13406645 -0.12597078 -0.06536784
0.19323599 -0.065202594 -0.064974256
0.22651602 -0.054272749 -0.065201968
-0.24864 0.093228161 -0.061017338
-0.0891857 0.16923806 -0.062954158
-0.0891857 -0.12305085 -0.05560695
0.076723911 -0.12819012 -0.059229299
-0.0891857 -0.11603664 -0.052139152
0.19323599 -0.081252977 -0.058884628
0.19323599 0.048933957 -0.050463591
0.19323599 0.056156989 -0.05682908
-0.24864 0.082294941 -0.059591524
0.23647702 0.17092863 -0.059425227
-0.085754603 0.21618861 -0.053991579
0.02045282 0.35404101 -0.058984574
0.12156491 0.35404101 -0.055555109
0.19359414 0.35404101 -0.052802913
0.05205714 -0.35404101 -0.04789352
0.228369 -0.32717615 -0.044126932
-0.24864 -0.27441335 -0.04035113
0.228369 -0.26308918 -0.041910235
-0.24864 -0.17859046 -0.041568715
0.048857175 -0.1319056 -0.042798795
0.094584018 -0.13165358 -0.04391326
-0.0891857 -0.065806329 -0.047834776
0.2361045 -0.065912388 -0.045526963
0.20995292 0.14920565 -0.04069173
0.09790872 0.21955028 -0.043171834
0.228369 0.31744286 -0.049077265
-0.058980741 0.35404101 -0.041907556
-0.037270725 0.35404101 -0.040268842
0.228369 0.3534748 -0.041761637
0.228369 -0.35123724 -0.032469839
-0.24864 -0.29740262 -0.033367656
0.228369 -0.17119311 -0.038685549
-0.24864 -0.16808905 -0.03904745
-0.24864 -0.14700486 -0.033770613
0.0085348226 -0.13313186 -0.037376042
0.19323599 -0.033858381 -0.035606492
-0.24864 -0.016829446 -0.039906614
0.19323599 0.049438708 -0.030157175
0.236477 0.16420007 -0.031893913
0.19323599 0.17535986 -0.036008772
-0.17958243 0.35404101 -0.036565095
-0.12136908 -0.35404098 -0.023715757
-0.10146139 -0.35404101 -0.026242107
0.228369 -0.27363062 -0.027315484
-0.24864 -0.15088998 -0.025117792
0.19323599 -0.12678149 -0.025917254
0.19323599 -0.10195594 -0.026637565
-0.24864 0.066626057 -0.020231426
-0.0891857 0.077557877 -0.027132817
0.21561539 0.15209047 -0.028491694
-0.19152679 -0.35404101 -0.018040024
-0.083103567 -0.35404101 -0.016445741
0.010327451 -0.35404101 -0.017527796
0.066585563 -0.35404101 -0.013732299
-0.24864 -0.23589674 -0.01107686
0.228369 -0.14043067 -0.01328954
-0.24864 -0.1382567 -0.014549736
0.049169291 -0.13740739 -0.018468905
0.070907861 -0.13777906 -0.012245836
-0.24864 -0.1115247 -0.015724212
-0.0891857 -0.011665776 -0.015971527
-0.0891857 0.011510752 -0.012197142
-0.0891857 0.051239148 -0.01095458
0.19323599 0.074899107 -0.016656473
0.21915917 0.15599939 -0.011888541
0.228369 0.2021693 -0.019239232
-0.24864 0.30454427 -0.01728037
0.016075522 0.35404104 -0.015285131
0.2238127 0.35404101 -0.016001986
0.014622271 -0.35404101 -0.0081868917
-0.24864 -0.22435601 -0.0056132451
0.228369 -0.20277022 -0.0038826317
0.017254159 -0.13740468 -0.0027647116
0.14475454 -0.13768236 -0.0097968541
0.17158285 -0.13767801 -0.00968704
-0.0891857 -0.057756927 -0.0042712325
0.046684209 0.22434849 -0.009314023
0.032813318 0.35404101 -0.0049172714
0.12445885 0.35404101 -0.00061876327
-0.095880181 -0.35404104 0.0099234879
0.071889877 -0.35404101 0.00036516413
0.228369 -0.30061463 0.008585766
-0.24864 -0.18997233 0.00049006939
-0.08885093 -0.13693544 0.0091188205
-0.052628845 -0.13700822 0.007275491
-0.24864 -0.069872722 0.00253007
-0.0891857 -0.048840821 0.00063962443
-0.0891857 0.061273254 0.0057834908
-0.24864 0.070771299 0.00097724795
-0.24864 0.095258042 0.0098296702
-0.24864 0.1500605 0.001770135
0.20910625 0.1558108 0.00094240368
-0.0891857 0.16093314 0.00095309829
0.19323599 0.1798874 0.0081710452
0.19323599 0.19943929 0.00049991393
-0.06274195 0.22502266 0.0077869226
0.051936243 0.2250033 0.0072961673
0.15362805 0.2247439 0.00071637612
0.228369 0.25434661 0.0047350833
-0.24864 0.27204892 0.0083965808
-0.24237569 -0.35404101 0.018148027
-0.17634401 -0.35404101 0.012672231
-0.072509006 -0.35404101 0.017321929
0.032199282 -0.35404101 0.019311063
0.089976497 -0.35404101 0.012372855
0.228369 -0.28393212 0.013947193
-0.24864 -0.23815536 0.012062326
0.228369 -0.14377069 0.01475458
0.0027796812 -0.13680355 0.01245871
-0.24864 -0.064522393 0.014129115
-0.0891857 -0.035339553 0.010826509
-0.0891857 0.036579199 0.01466628
-0.24864 0.060649812 0.010930277
0.19323599 0.18800117 0.019012533
0.228369 0.19955495 0.017745595
-0.0891857 0.20035022 0.012979731
0.228369 0.34971035 0.010277726
-0.1290213 0.35404104 0.016850889
-0.093019336 -0.35404101 0.026220128
-0.054053172 -0.35404101 0.025346272
0.055680111 -0.35404101 0.028474133
0.228369 -0.3035239 0.020720709
0.063026741 -0.13637887 0.023214061
-0.24863999 -0.099920876 0.027743205
-0.24864 0.037937686 0.022967868
0.19323599 0.094863199 0.024241667
-0.24864 0.11666897 0.029095244
0.19323599 0.13716821 0.02332982
0.19323599 0.16029891 0.027620491
0.12296802 0.22388518 0.023849871
-0.17269877 0.35404101 0.027647631
-0.050407059 0.35404104 0.025674134
0.089581445 0.35404101 0.026750132
-0.20454681 -0.35404101 0.032317817
0.1739756 -0.35404101 0.039495122
-0.24864 -0.29943943 0.039220959
0.19323599 -0.11438382 0.032996789
0.20981807 -0.070552446 0.031369057
-0.24864 -0.058022927 0.03159748
0.19323599 -0.044822443 0.032458901
-0.24864 -0.029128015 0.039616108
0.19323599 0.11384451 0.03599498
0.19323599 0.16871937 0.031414054
0.236477 0.18406345 0.036813334
0.12468909 0.22137012 0.034974061
0.15024392 0.22036061 0.039439227
-0.24864 0.24901131 0.038255446
-0.24864 0.33922556 0.034107499
-0.042410769 0.35404101 0.032904115
0.228369 -0.17282367 0.046657879
-0.24864 -0.16640286 0.040198084
0.228369 -0.15281306 0.048218705
-0.038385287 -0.13103846 0.047585417
0.19323599 -0.10898906 0.047758058
-0.0891857 -0.089964345 0.046050638
-0.0891857 -0.053924523 0.046108223
0.19323599 0.0053702593 0.047832433
-0.24864 0.22719657 0.04477258
0.14574876 0.22021228 0.040095106
-0.24864 0.23327985 0.046347264
0.228369 0.32546237 0.048370667
0.12858841 0.35404098 0.046379164
0.228369 -0.34540489 0.055206075
-0.24864 -0.25518635 0.055355579
0.228369 -0.24583809 0.050349843
-0.24864 -0.19610542 0.054034635
0.22836901 -0.16325805 0.053409036
0.228369 -0.1417232 0.059783611
0.039620835 -0.12799864 0.057369769
0.19323599 -0.094351061 0.052718136
0.19323599 -0.035225455 0.054823756
-0.0891857 -0.020317614 0.059443291
0.19323599 0.027455673 0.050149046
0.19323599 0.057978164 0.051567033
-0.0891857 0.13745056 0.058603261
0.19323599 0.1384843 0.051885694
-0.030348457 0.21773782 0.051039822
0.228369 0.28560501 0.053302504
0.228369 0.30804402 0.053277168
0.228369 0.34821051 0.053781591
-0.16174564 0.35404101 0.052940343
0.066673651 0.35404101 0.057566307
-0.071995579 -0.35404101 0.0696254
-0.24864 -0.32359648 0.06348218
0.228369 -0.32635334 0.065503024
0.22836898 -0.23831634 0.069316566
0.228369 -0.22633547 0.065788381
-0.24864 -0.21123706 0.062310155
-0.056781609 -0.12697235 0.060673133
-0.049620546 -0.12555395 0.06523855
0.236477 -0.080940828 0.065167487
0.23647699 -0.059070222 0.06104748
-0.0891857 0.008412905 0.068123981
0.19323599 0.046050455 0.061189137
-0.0891857 0.053218186 0.061044998
-0.0891857 0.063032269 0.06205966
-0.0891857 0.1043088 0.06752868
-0.0891857 0.16814384 0.067728788
-0.24864 0.18037306 0.068271048
0.018630713 0.21218093 0.068784378
0.15792836 0.21240616 0.068356134
-0.11605652 0.35404101 0.06702444
0.025767736 -0.35404101 0.077113777
0.22760043 -0.35404101 0.078474581
0.228369 -0.29712301 0.072585061
-0.24864 -0.28631482 0.07800357
0.228369 -0.25828016 0.073255472
-0.24864 -0.22190839 0.078027964
0.228369 -0.16527978 0.078775913
-0.24864 -0.13748324 0.07389503
0.10038269 -0.1211191 0.078196041
-0.24864 -0.070978224 0.075323582
0.19323599 -0.038985461 0.078391209
-0.0891857 0.10626758 0.079526156
0.016384147 0.21063016 0.07173311
0.228369 0.29983717 0.077744566
-0.19870038 0.35404101 0.079182342
-0.015044514 0.35404101 0.073808894
-0.2286566 -0.35404101 0.081378274
-0.08380504 -0.35404101 0.081720605
-0.24864 -0.24446431 0.083317891
0.228369 -0.2223911 0.085770287
-0.24864 -0.14245252 0.085507534
0.228369 -0.10289944 0.080393225
0.236477 -0.082130991 0.086249858
0.19673389 -0.040443391 0.082573481
-0.24864 0.03504888 0.081650227
-0.0891857 0.059690259 0.088977404
-0.24864 0.064755023 0.085562602
0.2250624 0.11379717 0.089801736
0.19323599 0.14597449 0.08596608
-0.24864 0.17509569 0.080948263
-0.24864 0.28696328 0.084076382
0.024695635 0.35404101 0.0861893
-0.01527356 -0.11157073 0.093324244
0.11392476 -0.1135563 0.090178356
-0.0082078092 -0.10866663 0.097925425
-0.24864 0.023646321 0.09475366
-0.0891857 0.16115461 0.092670545
0.19323599 0.18912771 0.096822694
-0.015728354 0.19854519 0.09471225
0.18708694 0.19803274 0.095686652
0.1210966 0.20009667 0.09176214
-0.24864 0.21159309 0.099360228
0.228369 0.25729024 0.097095914
0.228369 0.28900695 0.098415285
0.228369 0.30748236 0.096155122
0.228369 0.34466967 0.09549842
-0.20419338 0.35404101 0.09000656
0.073994622 0.35404101 0.098996058
0.11614657 -0.35404101 0.10824879
-0.24864 -0.31406704 0.10267982
0.228369 -0.30825642 0.10003658
-0.24864 -0.20473921 0.10670558
-0.0891857 -0.10680524 0.10026503
0.10547841 -0.10335827 0.10633586
-0.0891857 0.049160551 0.10270081
0.19323599 0.0864719 0.10184141
0.19323599 0.16058505 0.10492631
0.14460711 0.19123033 0.10739738
0.228369 0.32006252 0.10790421
-0.21674325 -0.35404104 0.1171582
-0.097057186 -0.35404101 0.11417039
0.063352853 -0.35404101 0.11076146
-0.24864 -0.26618728 0.11300454
0.228369 -0.24884303 0.11852377
0.16323969 -0.097683445 0.11532691
-0.24864 -0.042293802 0.1191626
0.23647699 0.083845727 0.11922203
-0.24864 0.13401203 0.11156674
-0.0891857 0.13467252 0.11515586
-0.24864 0.29013613 0.11209545
0.228369 0.29128101 0.11611231
-0.23491906 0.35404101 0.11372217
0.051058672 -0.35404101 0.12581
0.085564367 -0.35404101 0.12141427
0.228369 -0.31455934 0.12768663
0.228369 -0.24089551 0.12863766
-0.24864 -0.085536405 0.1282924
0.16570744 -0.084445737 0.12833683
0.236477 -0.033294532 0.12097077
0.236477 0.016808208 0.12980954
-0.0891857 0.039778218 0.12665001
0.071532413 0.17419645 0.12583053
0.228369 0.23036453 0.12019837
-0.24864 0.24838154 0.12381016
0.228369 0.28694367 0.12493557
0.18450484 0.35404101 0.12390466
0.20363566 0.35404101 0.1289019
-0.030202974 -0.35404101 0.13271049
-0.24864 -0.28960976 0.13530734
0.228369 -0.1940724 0.13596904
-0.24864 -0.14250787 0.13344
-0.088134885 -0.073331803 0.13860732
-0.040137671 -0.071885109 0.13994421
-0.0891857 -0.065323211 0.13568591
0.228369 -0.050354008 0.1347587
0.19323599 0.072512865 0.13649651
0.228369 0.14776838 0.13187553
0.046082538 0.16883276 0.13163483
0.228369 0.20127994 0.13609003
0.228369 0.28353 0.13991748
-0.067164958 0.35404101 0.13985807
0.067811035 0.35404101 0.13130759
0.17296866 -0.35404101 0.14441498
-0.24864 -0.31919777 0.14286897
0.228369 -0.20880596 0.14341947
-0.039542336 -0.063863121 0.14735742
0.016597629 -0.066464916 0.14495307
-0.0891857 -0.042813957 0.14137135
0.228369 -0.03314323 0.14891137
-0.24864 -0.014604151 0.14538136
0.19323599 0.023710646 0.14620614
0.228369 0.10976613 0.14263347
-0.0891857 0.12226377 0.14929363
0.11711493 0.14918776 0.1478352
0.228369 0.2143403 0.14068173
0.22565255 0.259545 0.1455186
-0.24864 0.29010054 0.14417881
-0.020814322 0.35404101 0.14273894
-0.13114759 -0.35404101 0.15522334
-0.10568586 -0.35404098 0.15836401
-0.24864 -0.32881683 0.15188193
0.228369 -0.3008422 0.15513159
-0.055600129 -0.050849739 0.15512976
0.019277701 -0.051817942 0.15462057
-0.083402708 -0.047230944 0.15703297
-0.24864 0.037377018 0.15755031
0.19323599 0.031681813 0.15120146
-0.24864 0.10997105 0.15877047
-0.021519952 0.13555504 0.15643962
0.032443035 0.1348957 0.15685575
0.002473332 0.35404104 0.15499717
0.10373555 0.35404101 0.15174899
-0.10051249 -0.35404101 0.16668856
0.13370754 -0.35404098 0.16728377
0.228369 -0.21710826 0.16761172
0.12065746 -0.032974239 0.16453081
0.19323599 0.084976159 0.16002314
0.052477237 0.11252668 0.1685369
-0.071464695 0.12933964 0.16036251
-0.16652575 0.35404101 0.16439214
0.069743998 0.35404101 0.16840443
0.098256655 0.35404098 0.16650124
-0.093792327 -0.35404101 0.17523597
-0.077793218 -0.35404101 0.17248976
-0.24864 -0.29568732 0.17501332
0.228369 -0.22233996 0.17680345
-0.24864 -0.21918997 0.17607883
0.228369 -0.11349003 0.17646554
-0.24864 -0.086203724 0.17304707
-0.0050496422 -0.014649861 0.172749
0.0019148774 -0.01534046 0.17259286
0.027992928 -0.01352107 0.17300421
0.090592302 0.013018465 0.17900465
-0.24864 0.083442256 0.17997921
-0.019456917 0.097054005 0.17334414
0.0024944153 0.099410221 0.17261209
0.011677846 0.10302173 0.17149001
0.228369 0.16384864 0.17710885
0.216208 0.25887144 0.17079324
-0.14286844 0.35404098 0.17627481
0.02855058 0.35404101 0.17197095
-0.021277949 -0.35404101 0.18569122
0.17966345 -0.35404098 0.18431497
0.20574185 -0.35404101 0.18442851
0.228369 -0.26634204 0.18643409
0.228369 -0.21625531 0.18446527
0.228369 -0.11998375 0.18890858
-0.03176583 0.01791927 0.18011269
0.09495993 0.023455329 0.18136436
-0.044224285 0.032612994 0.18196225
0.13712871 0.043181241 0.18154539
0.18055478 0.045414664 0.18145728
0.11649039 0.074717253 0.18028398
0.228369 0.1796013 0.18332961
-0.010441005 0.35404104 0.18344606
-0.23203987 -0.35404101 0.19445601
-0.16910455 -0.35404098 0.19675581
-0.13867146 -0.35404101 0.1950808
-0.10823727 -0.35404098 0.19920877
0.017181523 -0.35404101 0.19044772
0.15660453 -0.35404101 0.19062968
0.17879032 -0.35404101 0.1998533
0.21157752 -0.35404101 0.19556502
-0.24864 -0.15736303 0.19400375
-0.24864 -0.1485599 0.19140436
-0.24864 0.056100279 0.1911785
-0.24863999 0.27745131 0.19141087
-0.16908999 0.35404101 0.1977109
-0.1399743 0.35404101 0.19489148
-0.070613295 0.35404101 0.19711107
-0.02790305 0.35404101 0.19476455
-0.11662038 -0.35404104 0.20084879
0.228369 -0.038682554 0.20147142
0.228369 -0.021217737 0.20137662
0.228369 0.0074371519 0.20523247
0.228369 0.011384816 0.20940515
-0.24864 0.35220861 0.20165302
-0.063628219 0.35404098 0.2058748
0.047139995 -0.35404098 0.21070141
0.21888226 -0.35404101 0.21702243
0.228369 -0.29382923 0.21157536
-0.24864 -0.039090544 0.21278869
-0.24864 -0.028815567 0.21736652
0.228369 0.2205867 0.21008506
-0.24864 0.26709059 0.2132211
0.10279362 0.35404101 0.21374305
-0.19464231 -0.35404101 0.2224739
0.094745509 -0.35404101 0.22128087
0.21748613 -0.35404104 0.22841144
-0.24864 -0.22911341 0.22489735
-0.24864 0.06802313 0.22456661
-0.24864 0.13887836 0.22013362
0.10704286 0.35404101 0.22935897
0.027439207 -0.35404101 0.2344559
0.040528454 -0.35404101 0.23714347
-0.24864 -0.15169227 0.23023245
0.228369 0.0077010095 0.23095077
-0.24864 0.043614 0.23494795
0.228369 0.1447005 0.23140949
0.228369 0.254363 0.23528117
-0.11660924 0.35404101 0.23916009
0.18746082 0.35404104 0.23244651
0.17074281 -0.35404101 0.24384624
0.228369 -0.26025403 0.24052656
-0.24864 -0.080921963 0.24680246
-0.24864 -0.048678979 0.24962673
0.228369 0.15652207 0.24157181
-0.23792343 0.35404098 0.24727421
0.031138934 0.35404104 0.24521941
0.025032826 -0.35247621 0.25066599
-0.058911383 -0.34414366 0.25066599
-0.043595955 -0.341501 0.25066599
0.062103316 -0.34775615 0.25066599
-0.085345358 -0.33292174 0.25066599
-0.030824911 -0.33717054 0.25066599
0.12705387 -0.33707964 0.25066599
-0.2018798 -0.31611469 0.25066599
0.070321262 -0.31470504 0.25066599
0.082154401 -0.31482133 0.25066599
-0.14515057 -0.3013052 0.25066599
-0.11534908 -0.30812138 0.25066599
0.045368433 -0.30155843 0.25066599
0.061764691 -0.30515733 0.25066599
0.097849168 -0.3007952 0.25066599
-0.19490235 -0.29884183 0.25066599
-0.21596815 -0.28858861 0.25066599
-0.19515847 -0.2836048 0.25066599
0.13657704 -0.27507249 0.25066596
0.080918081 -0.25971624 0.25066599
0.18807957 -0.25220782 0.25066599
0.1818455 -0.24453999 0.25066596
0.22009328 -0.24804629 0.25066599
-0.1738234 -0.23164204 0.25066599
-0.14044861 -0.23880079 0.25066599
0.013616174 -0.23442549 0.25066599
-0.081048682 -0.21348672 0.25066599
0.0028027445 -0.21602592 0.25066599
-0.20318116 -0.20691249 0.25066599
0.089027219 -0.20681514 0.25066599
0.09189789 -0.18437248 0.25066599
0.17943229 -0.18529242 0.25066599
-0.058504634 -0.17013475 0.25066599
0.18261556 -0.16602355 0.25066599
0.028824512 -0.15979755 0.25066599
0.2130809 -0.14362818 0.25066599
-0.20334353 -0.13502026 0.25066599
-0.10173021 -0.11860006 0.25066599
-0.23221824 -0.10521143 0.25066599
-0.22352949 -0.10474203 0.25066599
0.025282256 -0.10513295 0.25066599
-0.22263691 -0.090096243 0.25066599
0.22018541 -0.085243881 0.25066599
0.0048504691 -0.065595075 0.25066599
0.054649748 -0.058331482 0.25066599
-0.16453689 -0.042044818 0.25066599
-0.037496231 -0.048394337 0.25066599
0.073501736 -0.047872979 0.25066599
0.17347613 -0.043972462 0.25066599
0.21063532 -0.048320755 0.25066599
-0.11391384 -0.030015334 0.25066599
-0.17229787 -0.0290685 0.25066599
-0.15859553 -0.027207546 0.25066599
-0.12770484 -0.029879436 0.25066599
0.021050572 -0.025171977 0.25066599
0.1608284 -0.021705285 0.25066599
0.19542724 -0.023130212 0.25066599
-0.15006122 -0.012893282 0.25066599
-0.13420306 -0.010566622 0.25066599
0.045370206 -0.019630369 0.25066599
0.066176713 -0.016463712 0.25066599
-0.18292068 -0.0059174746 0.25066599
0.1453073 -0.003531225 0.25066599
-0.10672388 0.0062697977 0.25066599
0.04990311 0.0086241337 0.25066599
-0.13727683 0.012158304 0.25066599
0.02022671 0.014817655 0.25066599
0.048990719 0.0194401 0.25066599
0.14422031 0.011800505 0.25066599
0.19127974 0.010463946 0.25066599
0.021690607 0.021497324 0.25066599
0.228369 0.026974238 0.25064677
-0.032006718 0.031844079 0.25066599
0.00085689873 0.034539178 0.25066599
0.13174319 0.031840257 0.25066599
0.14085764 0.038274895 0.25066599
0.15998399 0.032534391 0.25066599
0.042980805 0.044163212 0.25066599
-0.15971237 0.056283996 0.25066599
0.018885527 0.066086724 0.25066599
0.1011679 0.065349542 0.25066599
0.11120313 0.067937434 0.25066599
-0.034802299 0.072892055 0.25066599
0.013372064 0.078040868 0.25066599
0.086140729 0.077986211 0.25066599
-0.1932409 0.10036512 0.25066599
0.031376891 0.10792365 0.25066599
0.092914797 0.11310104 0.25066599
-0.1427152 0.14002085 0.25066599
-0.10142456 0.15120964 0.25066599
-0.10922454 0.16211019 0.25066599
0.033418704 0.17978576 0.25066599
0.22066067 0.17887601 0.25066599
-0.22229509 0.18387437 0.25066599
-0.15530971 0.18798353 0.25066599
0.15162984 0.1808275 0.25066599
-0.23554653 0.19485813 0.25066599
0.099770993 0.1955936 0.25066599
-0.097859383 0.20817097 0.25066599
-0.018814974 0.20128961 0.25066599
0.21338326 0.2012883 0.25066599
-0.17988595 0.21525286 0.25066599
-0.094044745 0.2134027 0.25066599
0.14824632 0.21496853 0.25066599
0.114268 0.22493938 0.25066599
0.18102051 0.22348842 0.25066599
0.20648409 0.22944981 0.25066599
0.0089937076 0.23302864 0.25066599
0.061918832 0.23073894 0.25066599
0.10468891 0.23106463 0.25066599
0.045214504 0.24895009 0.25066599
0.0043698316 0.25000209 0.25066599
-0.022103205 0.27224228 0.25066599
0.043689016 0.27682647 0.25066599
-0.18247095 0.28807986 0.25066599
-0.011390716 0.29586467 0.25066599
0.067503646 0.2935423 0.25066599
-0.034096442 0.30370328 0.25066599
0.13186911 0.30171061 0.25066599
0.15669879 0.30992213 0.25066599
-0.21208936 0.32593977 0.25066599
0.013087004 0.33112359 0.25066599
0.14347936 0.3357935 0.25066599
-0.054354064 0.34646255 0.25066599
0.092491627 0.34858942 0.25066599
0.18139742 0.34741178 0.25066599
