# .PCD v0.7 - Point Cloud Data file format
VERSION 0.7
FIELDS x y z
SIZE 4 4 4
TYPE F F F
COUNT 1 1 1
WIDTH 970
HEIGHT 1
VIEWPOINT 0 0 0 1 0 0 0
POINTS 970
DATA ascii
-0.18245925 -0.31535801 -0.25156021
-0.17144623 -0.30178058 -0.25862399
-0.14174998 -0.3062107 -0.25862399
0.0086288303 -0.30212724 -0.25862399
0.01118324 -0.30701351 -0.25862399
-0.026553184 -0.29651392 -0.25862399
0.075880513 -0.29408139 -0.25862399
-0.032575555 -0.28989977 -0.25862399
-0.15757723 -0.27756152 -0.25862399
-0.12000678 -0.27285272 -0.25862399
-0.043011874 -0.27575541 -0.25862399
-0.012255058 -0.27435157 -0.25862399
0.15352616 -0.27855158 -0.25862399
-0.11505334 -0.2667962 -0.25862399
-0.052028574 -0.26157731 -0.25862396
0.095257305 -0.26356441 -0.25862399
0.19816095 -0.26029435 -0.25862399
-0.14493015 -0.25483024 -0.25862399
-0.022658335 -0.25618032 -0.25862399
-0.016955875 -0.25254098 -0.25862399
0.0076596867 -0.25358772 -0.25862399
0.14754674 -0.2521624 -0.25862399
0.10455954 -0.24899313 -0.25862399
-0.14921784 -0.23490815 -0.25343171
-0.126949 -0.234919 -0.25375009
-0.11539615 -0.23599124 -0.25714904
-0.04860818 -0.23842493 -0.25862399
0.065897375 -0.23634264 -0.25783047
0.19231059 -0.20878313 -0.25862399
-0.031371512 -0.19386965 -0.25862399
0.14799321 -0.19773543 -0.25862399
-0.1874913 -0.18402037 -0.25862399
0.02528201 -0.18015596 -0.25862399
0.085782349 -0.18931922 -0.2570805
0.13668856 -0.1858187 -0.25862399
-0.19306485 -0.17791867 -0.25862399
0.1533071 -0.17276385 -0.25862399
0.16247809 -0.16852093 -0.25862399
-0.2018262 -0.15655625 -0.25862399
0.10210758 -0.15455858 -0.25862399
0.12489678 -0.15192533 -0.25862399
-0.036126073 -0.14454082 -0.25862399
0.083248429 -0.14462259 -0.25043428
0.1804356 -0.14540914 -0.25862399
0.11679499 -0.13160846 -0.25862399
-0.19743988 -0.12359197 -0.25862399
-0.090671122 -0.1234192 -0.25862399
0.011368076 -0.12459841 -0.25862399
0.10107136 -0.12960321 -0.25862399
-0.19399506 -0.11295947 -0.25862399
-0.0085895099 -0.11345366 -0.25862399
0.0096941404 -0.098868042 -0.25862399
0.15256742 -0.092889294 -0.25862399
-0.17855337 -0.08290004 -0.25862399
-0.060983047 -0.081763245 -0.25862399
0.096875131 -0.086789601 -0.25862399
-0.16786587 -0.072043546 -0.25862399
0.032256294 -0.070339397 -0.25288832
0.15256059 -0.075283349 -0.25862399
-0.082878821 -0.067024477 -0.25862399
0.1480521 -0.063268036 -0.25862399
-0.20472869 -0.056482844 -0.25862399
0.017047558 -0.055968255 -0.25862399
0.1085666 -0.037592486 -0.25862399
-0.19312361 -0.02049116 -0.25862399
0.14663658 -0.028417937 -0.25862399
-0.056405641 -0.013316877 -0.25862399
-0.085122854 -0.001990065 -0.25862399
-0.018813364 -0.0032596439 -0.25862399
0.011335691 -0.0040331781 -0.25862399
0.022359489 -0.0044555217 -0.25862399
0.084216624 -0.0041069686 -0.25125837
0.1351274 -0.0017797351 -0.25862399
-0.091289945 0.0075005591 -0.25862399
-0.026976436 0.005337283 -0.25862399
0.0084479284 0.014752336 -0.25862399
0.14298552 0.017754741 -0.25862399
-0.16405848 0.025124818 -0.2583259
0.08393985 0.025333472 -0.25095969
0.15699588 0.021119408 -0.25862399
-0.19134328 0.03921245 -0.25862399
-0.06217289 0.036937229 -0.25862399
-0.041878629 0.037332959 -0.25862399
0.032121956 0.030883916 -0.25551781
0.15899183 0.034245443 -0.25862399
-0.18240179 0.045262914 -0.25862399
-0.055107392 0.045763228 -0.25862399
0.0055202013 0.056699127 -0.25862399
0.13675874 0.054953091 -0.25862399
0.199837 0.058429696 -0.25195289
-0.020992542 0.060185499 -0.25862399
-0.16633914 0.070545986 -0.25862399
-0.16181806 0.090045936 -0.25537294
0.10594767 0.099994302 -0.25862399
0.13079016 0.097725891 -0.25862399
-0.21376601 0.10806577 -0.25277954
-0.17102699 0.10275376 -0.25862399
-0.01620369 0.10525628 -0.25862399
0.12349206 0.11569561 -0.25862399
-0.17858858 0.1262932 -0.25862399
0.11670496 0.12696354 -0.25862399
-0.17192228 0.14402422 -0.25862399
0.013310825 0.15019308 -0.25862399
-0.020374356 0.1682211 -0.25862399
0.11648007 0.16464898 -0.25862399
-0.080322385 0.1719116 -0.25862399
0.082767993 0.17582294 -0.25019714
0.10992175 0.17791422 -0.25862399
-0.10182448 0.18083632 -0.25862399
-0.17452991 0.19673324 -0.25862399
-0.092527643 0.19680803 -0.25862399
0.030060979 0.19566138 -0.25826114
-0.21376601 0.20674136 -0.25408906
-0.10064924 0.20571743 -0.25862399
0.099253282 0.21350661 -0.25862402
0.024841886 0.22433229 -0.25861621
0.12037025 0.22837211 -0.25862399
0.15186821 0.22087935 -0.25862399
-0.0029325231 0.23877852 -0.25862399
0.02160348 0.23788092 -0.25862399
0.1474528 0.2377587 -0.25862399
0.01859298 0.24426258 -0.25862399
-0.046583913 0.25587687 -0.25862402
0.18297075 0.25602084 -0.25862399
-0.19669241 0.26668435 -0.25862399
-0.16626361 0.26982728 -0.25862399
0.012134192 0.26942325 -0.25862399
0.046572421 0.27766025 -0.25862399
-0.045653544 0.28319725 -0.25862399
-0.010439683 0.28226385 -0.25862399
0.097915359 0.29208496 -0.25862399
-0.1067242 0.30007935 -0.25862399
0.078815117 0.30631673 -0.25862399
-0.19866432 0.31396922 -0.25862399
0.12120826 0.31148049 -0.25862399
0.17880183 0.31732991 -0.25862399
-0.15900338 0.32536584 -0.25862399
-0.087372035 0.32101321 -0.25862399
-0.14449245 0.34315646 -0.25862399
0.15557124 0.34469369 -0.25862399
0.04275278 0.35787851 -0.25862399
0.1785327 0.36651823 -0.25862399
0.18399997 0.36939633 -0.2577281
0.19538391 0.36473346 -0.25862399
0.20232779 0.3627699 -0.25862396
-0.21303561 -0.31384575 -0.24633843
-0.19777642 -0.31535801 -0.24052987
-0.14534324 -0.31535801 -0.2478016
0.027041726 -0.31535801 -0.24422722
0.17204475 -0.31535798 -0.24731901
0.18968605 -0.31535801 -0.24702147
0.199837 -0.25356215 -0.24185073
0.043721259 -0.20844141 -0.24991399
0.065281138 -0.20495573 -0.24991399
0.061248943 -0.18319322 -0.24991402
-0.11223055 -0.16715486 -0.24993466
-0.14177631 -0.1538752 -0.24991399
0.072705306 -0.137411 -0.24991402
0.080370545 -0.11324041 -0.24991399
-0.14597471 -0.10257591 -0.24991399
0.068697065 -0.098442629 -0.24991402
-0.12460715 -0.076889172 -0.24991399
0.199837 -0.077424407 -0.24518016
-0.14130977 -0.054807812 -0.24991402
0.057041522 -0.056350864 -0.24991399
0.046004035 -0.036254473 -0.24991402
0.052560929 0.049234338 -0.24991399
-0.14981306 0.051572695 -0.24991402
-0.1493378 0.077423617 -0.24991402
-0.21376601 0.087513827 -0.24952152
-0.12574416 0.082538098 -0.24991401
-0.14904727 0.14468308 -0.24991402
0.052888408 0.16668782 -0.24991399
0.070047773 0.19064735 -0.24991401
0.053250097 0.2011476 -0.24991402
0.044065315 0.21159446 -0.24991401
0.20242092 0.25668356 -0.24071264
0.199837 0.30726719 -0.24882063
0.042956941 0.37069899 -0.24618819
0.1545198 0.37069899 -0.24522322
-0.17251705 -0.31535801 -0.23143919
0.0048068427 -0.31535801 -0.23576175
0.199837 -0.17350101 -0.23843378
-0.21376601 -0.15026395 -0.23288533
0.199837 -0.13131782 -0.23071852
0.199837 -0.041993629 -0.23843171
-0.21376598 0.067899428 -0.23698044
-0.21376599 0.18906969 -0.239601
-0.21376599 0.22330728 -0.23532057
0.199837 0.30110073 -0.23799554
0.199837 0.3481445 -0.2357412
-0.16387795 0.37069902 -0.23696262
-0.20175655 -0.31535801 -0.22120294
-0.12014582 -0.31535801 -0.22956799
-0.053346857 -0.31535801 -0.22368249
-0.21376599 -0.19428527 -0.22547688
0.199837 -0.1962112 -0.22758915
-0.21376599 -0.18749301 -0.2204888
-0.21376599 -0.014477208 -0.22468185
-0.21376599 0.17714153 -0.22324359
0.199837 0.28476667 -0.22311313
0.20528865 0.35645601 -0.22131938
-0.17626727 0.37069899 -0.22118068
0.16886929 0.37069899 -0.22149117
0.029563919 -0.31535798 -0.21759784
0.069469064 -0.31535801 -0.21536633
-0.21376601 -0.099401228 -0.21041195
-0.21376599 -0.081802972 -0.21819973
-0.21376599 -0.046641052 -0.21186991
0.199837 -0.041737013 -0.21550958
0.199837 0.056909502 -0.21653217
0.199837 0.13709278 -0.21461448
0.199837 0.19804414 -0.21311414
-0.21376599 0.25889403 -0.21090415
0.20012441 0.26335436 -0.21483742
0.199837 0.32611915 -0.21910711
-0.11424505 0.37069899 -0.21431546
0.049131557 0.37069899 -0.21566978
0.092661627 0.37069899 -0.21444811
0.1530423 0.37069899 -0.21582147
-0.17282458 -0.31535801 -0.20084099
-0.050147854 -0.31535798 -0.20870346
0.0080227759 -0.31535801 -0.20655936
0.199837 -0.23100761 -0.20163268
0.199837 -0.1364606 -0.2012623
-0.21376599 -0.12926313 -0.20252864
0.199837 -0.062453695 -0.20103088
0.199837 0.091644391 -0.20467153
-0.21376599 0.29739365 -0.20341527
-0.19060539 0.37069899 -0.20076069
-0.13411465 0.37069896 -0.20680788
-0.095102139 0.37069899 -0.20799279
-0.048882343 0.37069899 -0.2086653
-0.031379983 0.37069899 -0.20303535
0.16272424 0.37069899 -0.2062716
-0.070395112 -0.31535801 -0.19290507
0.068215296 -0.31535801 -0.19767842
0.14590654 -0.31535801 -0.1907057
0.199837 -0.22844601 -0.19343156
0.199837 -0.18085197 -0.19568188
-0.21376599 -0.13680573 -0.1984911
0.199837 -0.1089514 -0.1999929
-0.21376599 0.036012754 -0.19482258
0.199837 0.085920632 -0.19916233
0.199837 0.18174164 -0.19734314
0.199837 0.22272739 -0.19969255
0.199837 0.30623817 -0.19512495
0.199837 0.31177396 -0.199635
-0.20272225 0.37069899 -0.19835626
-0.083367899 0.37069899 -0.19524401
0.059976682 0.37069899 -0.19641423
0.18642685 0.37069899 -0.19719732
-0.21376599 -0.3115792 -0.18028763
-0.13168505 -0.31535801 -0.1891281
-0.014642481 -0.31535801 -0.18925433
0.15520726 -0.31535801 -0.1899735
0.17108923 -0.31535801 -0.18234958
-0.21376599 -0.25651753 -0.18794908
0.20194501 -0.2569207 -0.18144992
-0.21376599 -0.2405058 -0.18326345
0.199837 -0.23140964 -0.18173301
-0.21376599 -0.11586061 -0.18996398
-0.21376599 -0.013326645 -0.18726858
0.204322 0.025328118 -0.18205208
-0.052698407 0.37069899 -0.18299854
-0.0032934323 0.37069899 -0.18891782
0.10215012 0.37069899 -0.18348733
-0.12724809 -0.31535804 -0.17969702
-0.11397301 -0.31535801 -0.17420772
0.13452102 -0.31535801 -0.17094426
0.18297586 -0.31535801 -0.1797794
-0.21376599 -0.22681387 -0.17555988
-0.21376599 -0.19092679 -0.17885849
-0.21376599 -0.16222762 -0.1759882
-0.21376599 -0.13952346 -0.17378609
0.199837 -0.097671568 -0.17994083
0.20114601 -0.038741346 -0.1724028
-0.21376601 0.02813144 -0.17979869
0.204322 0.020392755 -0.1720788
-0.21376598 0.077328801 -0.17250064
0.20114601 0.1074683 -0.17689969
0.20342386 0.24127173 -0.17888662
0.199837 0.25619215 -0.17231762
-0.21376599 0.28700599 -0.1716577
-0.14252317 -0.31535801 -0.16088144
0.085542142 -0.31535801 -0.16310477
0.20194501 -0.28516832 -0.16455723
0.199837 -0.23829877 -0.16762085
0.199837 -0.19873884 -0.16736761
0.20432201 0.0044795703 -0.16797777
-0.21376601 0.25905377 -0.16086425
-0.21376598 0.35672194 -0.16085304
0.21371487 0.36756024 -0.1669407
-0.21376599 -0.31104741 -0.15470402
-0.20980456 -0.31535801 -0.15475862
-0.083381668 -0.31535801 -0.15612158
-0.055235066 -0.31535801 -0.15547089
0.0065458193 -0.31535801 -0.15559959
0.03156215 -0.31535801 -0.15507391
0.12393006 -0.31535801 -0.15795818
0.199837 -0.11424452 -0.15820184
0.204322 0.044090722 -0.15448748
-0.21376599 0.18945067 -0.15893136
0.199837 0.18825006 -0.15755659
-0.21376599 0.20668623 -0.15778391
-0.21376598 0.22874509 -0.15084317
-0.18656667 0.37069899 -0.15805626
-0.16907775 0.37069899 -0.15842493
-0.16685612 -0.31535801 -0.14768195
-0.048715286 -0.31535804 -0.14386915
0.19493346 -0.31126565 -0.14574233
-0.21376599 -0.28009209 -0.14454676
-0.21376599 -0.27572778 -0.1452308
-0.21376599 -0.24081238 -0.14670993
0.20194501 -0.24030259 -0.14611831
0.199837 -0.18230239 -0.14741354
0.199837 -0.15781176 -0.14397082
-0.21376599 0.0048711747 -0.14929044
-0.21376601 0.091019452 -0.1453037
0.204322 0.097856186 -0.14083937
0.17687598 0.11653797 -0.14476891
-0.21376601 0.15207775 -0.14815331
-0.21376599 0.35686105 -0.14364401
-0.18241422 0.37069899 -0.14809817
0.0042140484 0.37069899 -0.14421192
-0.15874533 -0.31535801 -0.13103463
-0.14690785 -0.31535804 -0.13799399
0.12662697 -0.31535801 -0.13777962
0.20194501 -0.26830333 -0.13373931
0.199837 -0.17356047 -0.13058807
0.204322 0.00085607672 -0.13335069
0.188434 0.016165018 -0.13676064
-0.21376599 0.048877046 -0.13935623
0.170439 0.047546372 -0.13825449
0.170439 0.060540333 -0.13751005
0.170439 0.091334708 -0.13548194
-0.21376599 0.15694189 -0.1397776
0.20114602 0.16974209 -0.13678822
0.199837 0.23415256 -0.13293105
-0.21376601 0.30072883 -0.13077115
-0.042922281 0.37069899 -0.13502395
0.062453248 0.37069899 -0.1310631
0.16347221 0.37069899 -0.13737677
-0.17314845 -0.31535801 -0.1218771
-0.10061403 -0.31535801 -0.12763916
0.031415541 -0.31535801 -0.12895358
-0.21376598 -0.24124111 -0.1273606
-0.21376598 -0.18138492 -0.12494387
-0.21376599 -0.09696196 -0.12804525
0.188434 0.092102394 -0.12604372
0.20325959 0.091421068 -0.12004766
-0.21376599 0.11998024 -0.12224305
0.18804401 0.14775294 -0.12460449
0.20372842 0.17884344 -0.12492204
0.203997 0.24394114 -0.12197477
-0.21376599 0.26779839 -0.12665735
-0.087332644 0.37069899 -0.12518461
-0.038919028 0.37069899 -0.12148533
-0.0080971494 0.37069899 -0.12233503
0.18928388 0.37069899 -0.12628314
0.18881354 -0.31535804 -0.11616382
0.20194501 -0.28163755 -0.11545697
-0.21376599 -0.18458012 -0.11134671
-0.21376599 -0.17319703 -0.11882263
-0.21376599 -0.14127907 -0.11785503
-0.21376601 -0.10971493 -0.11765568
0.17102684 -0.074657232 -0.11336377
0.18227328 -0.072166182 -0.11661022
-0.21376599 0.047450215 -0.1170047
-0.21376601 0.15154654 -0.11665383
0.20339194 0.16009681 -0.11216009
-0.21376598 0.23639661 -0.1101027
0.20372801 0.26697198 -0.110969
-0.21376598 0.31037557 -0.11977508
-0.21376598 0.3427915 -0.11262437
0.071735919 0.37069899 -0.11173908
0.15810488 0.37069899 -0.1154772
-0.10500222 -0.31535801 -0.10642911
-0.0081157163 -0.31535801 -0.10289633
0.042443976 -0.31535801 -0.10348973
0.080688246 -0.31535801 -0.10887073
0.11369988 -0.31535801 -0.10621282
0.13464874 -0.31535801 -0.10939385
-0.21376599 -0.15277979 -0.10833091
-0.21376601 -0.027360007 -0.10077602
0.170439 -0.010040122 -0.10160956
-0.21376599 0.049479693 -0.10438663
0.19641162 0.16565774 -0.10491279
0.203997 0.2504411 -0.10770987
0.199837 0.28212097 -0.10973264
-0.16695242 0.37069899 -0.10622041
-0.089860849 0.37069899 -0.10540983
-0.072851352 0.37069899 -0.10457322
0.0090790056 0.37069899 -0.10873047
0.1669313 0.37069899 -0.10484926
-0.040310577 -0.31535801 -0.098394103
0.052823581 -0.31535804 -0.097103775
0.20194499 -0.2467676 -0.090084024
-0.21376601 -0.17922077 -0.091734208
0.20114601 -0.12491071 -0.098499298
-0.21376599 -0.098151006 -0.092310116
0.170439 0.1707163 -0.095880747
-0.21376599 0.19327706 -0.099767193
0.2022469 0.20036164 -0.095994793
-0.21376599 0.25157171 -0.094632939
-0.21376598 0.29159892 -0.092217393
-0.21376598 0.34008414 -0.0961034
0.18900742 -0.31535801 -0.087996215
0.19711664 -0.306822 -0.087181009
-0.21376598 -0.29583538 -0.081074148
-0.21376599 -0.21982934 -0.087444477
-0.21376601 -0.20104422 -0.089644313
0.199837 -0.13385576 -0.0860264
-0.21376599 -0.11949089 -0.081717737
-0.21376601 -0.10613911 -0.089793868
0.170439 -0.040141996 -0.087251037
-0.21376601 -0.029404243 -0.080297798
0.170439 0.068601131 -0.087620571
0.199837 0.34883201 -0.089559123
-0.20848793 0.37069899 -0.082903206
0.042465098 0.37069899 -0.088896237
0.14684278 0.37069899 -0.089410797
-0.10241546 -0.31535801 -0.079081729
-0.21376598 -0.2972852 -0.072885871
0.199837 -0.27776527 -0.07104563
-0.21376598 -0.21527039 -0.075600281
0.170439 -0.07783518 -0.072609834
-0.21376601 0.032004654 -0.070414439
-0.21376599 0.090936631 -0.07694564
-0.21376599 0.12250267 -0.073514089
0.20114601 0.20753957 -0.079397529
0.199837 0.29461473 -0.07674855
0.199837 0.31807777 -0.072850332
0.0022483021 0.37069899 -0.07578408
0.018032171 0.37069899 -0.078507252
0.041091003 0.37069899 -0.076825827
0.068479553 0.37069899 -0.078736588
0.074629664 0.37069899 -0.070085652
0.10734055 0.37069899 -0.074925356
0.14454153 0.37069899 -0.072311252
0.19575103 -0.30531144 -0.068250395
-0.21376598 -0.29934952 -0.061686449
-0.21376601 -0.19254729 -0.062289409
-0.21376599 -0.1404936 -0.068647459
0.20114601 -0.14135236 -0.060580496
-0.21376598 0.097282588 -0.069967546
0.17425063 0.18782225 -0.067099154
0.199837 0.28024855 -0.068901844
-0.19658676 0.37069899 -0.069509
-0.091930486 0.37069899 -0.062767409
0.058344111 0.37069899 -0.06611485
-0.081348419 -0.31535801 -0.051963553
0.199837 -0.28560707 -0.050086297
0.199837 -0.23581439 -0.054326911
-0.21376599 -0.22521433 -0.059754193
-0.21376599 -0.075587511 -0.053882144
-0.21376601 0.0022097826 -0.05919335
0.170439 0.044389375 -0.058776345
-0.21376601 0.11063556 -0.058969688
-0.21376601 0.17290664 -0.050249644
0.199837 0.23301604 -0.058751192
0.199837 0.30925536 -0.056439128
-0.20939663 0.37069899 -0.058607869
-0.047387373 0.37069899 -0.057365716
0.10939828 0.37069899 -0.059663042
0.095375806 -0.31535801 -0.043450937
0.204322 -0.12399197 -0.041370016
-0.21376601 -0.070873529 -0.047995389
-0.21376598 0.0048782974 -0.041421436
-0.21376601 0.014267415 -0.040385157
-0.21376599 0.025931314 -0.046358157
0.170439 0.032512914 -0.048001461
0.170439 0.12168511 -0.041736368
-0.21376599 0.34235606 -0.046795309
-0.21221673 0.36999583 -0.045333244
-0.1964674 0.37069899 -0.040159121
-0.12004434 -0.31535798 -0.030703951
0.017488234 -0.31535801 -0.030636013
-0.21376599 -0.2598379 -0.03070993
-0.21376599 -0.2257545 -0.039686903
-0.21376599 -0.12374277 -0.03474623
0.19797684 -0.11224776 -0.039747324
0.204322 -0.11261312 -0.039787658
-0.21376599 -0.031700015 -0.032056093
0.170439 0.032396801 -0.03373142
-0.21376601 0.093577057 -0.034311082
-0.21376598 0.15920871 -0.038573377
0.199837 0.31872144 -0.032548644
-0.21376598 0.34173492 -0.035222143
0.030773893 0.37069899 -0.035213843
-0.20833948 -0.31535801 -0.026614338
-0.07877972 -0.31535801 -0.021434404
-0.21376599 -0.26290977 -0.022460103
0.199837 -0.2604866 -0.021294449
0.170439 0.041018162 -0.026336659
-0.21376599 0.19261532 -0.021838211
0.199837 0.34669083 -0.021852706
0.11120763 0.37069899 -0.021447729
0.093969487 -0.31535801 -0.012575727
0.16129136 -0.31535801 -0.014333807
0.19148117 -0.31400213 -0.012705486
-0.21376599 -0.30522692 -0.018055152
-0.21376599 -0.13629666 -0.017323796
0.170439 0.10297246 -0.011624999
0.19972625 0.19995923 -0.015473477
-0.20284373 0.37069899 -0.018065162
-0.1187624 0.37069899 -0.011740707
0.13598137 0.37069899 -0.013834931
0.15560398 0.37069899 -0.011908837
-0.13564093 -0.31535804 -0.0032134801
-0.096233889 -0.31535801 -0.0067907721
0.17377788 -0.31535801 -0.0072249025
-0.21376599 -0.27856973 -0.0049869465
-0.21376598 -0.069249675 -0.0052197352
-0.21376599 0.0069541186 -0.0095951781
-0.21376598 0.16897064 -0.0075755715
0.170439 0.20032777 -0.0089406613
-0.21376601 0.22073591 -0.0084455572
0.1063295 0.37069899 -0.0037933588
0.20631415 0.37069899 -0.0063865408
0.199837 -0.19539206 0.0019362718
0.199837 -0.15144205 0.0045851967
-0.21376598 -0.12003618 0.00090496987
0.170439 -0.097501084 0.0097070504
0.170439 0.062618017 0.007922858
0.199837 0.28139341 0.0072925091
-0.21376599 0.34887227 0.002397947
-0.18902981 0.37069899 0.0051552951
0.018805318 0.37069899 0.0045338571
-0.073833644 -0.31535801 0.010797195
0.0038560033 -0.31535801 0.015468135
0.11431803 -0.31535801 0.015434124
0.199837 -0.15534088 0.010085688
-0.21376599 -0.090060502 0.015200004
-0.21376598 -0.063853309 0.014142171
0.199837 0.27637774 0.012271321
0.199837 0.29940575 0.013117478
0.20535301 0.32475775 0.010551867
-0.02262068 0.37069899 0.012706717
0.10049212 0.37069899 0.010727406
0.11400833 -0.31535801 0.027052622
-0.21376598 -0.087081939 0.027102564
0.170439 -0.064991966 0.02557455
-0.21376599 -0.00050584972 0.02291093
-0.21376599 0.075864248 0.028870201
-0.21376601 0.16998458 0.029204749
-0.21376599 0.24702781 0.02939342
-0.21376598 0.25214905 0.023532137
-0.21376599 0.35125709 0.025560498
-0.091742419 0.37069899 0.021982849
-0.029461592 0.37069899 0.022391841
-0.15740678 -0.31535801 0.035020806
0.043769896 -0.31535801 0.039899532
0.19716845 -0.30242649 0.032994214
-0.21376599 -0.28936315 0.031594686
0.199837 -0.17209737 0.03757469
-0.21376599 -0.027703889 0.034966901
-0.21376599 0.038532689 0.031620875
0.170439 0.039166089 0.034726154
0.170439 0.061270513 0.03545554
0.1790017 0.19406243 0.037840016
0.2025037 0.24792847 0.03519335
-0.21376599 0.34605879 0.034489214
0.20617127 0.35645598 0.038507126
-0.048883893 0.37069899 0.039748546
0.16679744 -0.31535798 0.044867288
-0.21376599 -0.21636656 0.043601617
-0.21376598 -0.16122234 0.049116179
0.19034383 -0.10683447 0.044387601
0.170439 -0.061131109 0.044464961
-0.21376601 -0.043610066 0.041860759
-0.21376598 0.044648096 0.047435962
-0.21376599 0.12288226 0.046324581
-0.21376598 0.15119368 0.04490564
-0.21376599 0.29652613 0.040769346
-0.21376598 0.32800424 0.046167403
-0.11617182 0.37069899 0.040100202
-0.079912573 0.37069899 0.045908302
-0.047498658 0.37069899 0.045900572
0.016182117 0.37069899 0.045246597
0.048375424 -0.31535801 0.054460511
-0.21376599 -0.15443203 0.054768533
0.20114601 -0.13508935 0.05409101
-0.21376598 -0.0016853288 0.052360073
-0.13689853 0.37069899 0.053933889
0.17891553 0.37069899 0.054623097
-0.17207631 -0.31535801 0.061553352
-0.099303693 -0.31535801 0.066398278
-0.21376601 -0.22468966 0.062889241
-0.21376599 -0.20802002 0.069115117
-0.21376599 -0.19089216 0.06407956
0.199837 -0.16749001 0.065366678
0.199837 -0.14889988 0.067056566
0.199837 0.26584274 0.060393214
0.199837 0.31279069 0.069490641
-0.21202794 0.37013003 0.069382839
-0.040133405 0.37069899 0.066470303
0.061242294 0.37069899 0.064920947
0.1765618 0.37069899 0.061214954
-0.075712472 -0.31535801 0.073688492
-0.0050692623 -0.31535801 0.071767464
0.19940302 -0.29658523 0.075206637
0.170439 -0.086477384 0.071458511
0.170439 -0.053976793 0.073494837
0.170439 0.053937536 0.077111103
-0.21376599 0.066251382 0.070223421
0.170439 0.13176796 0.070753612
-0.16835672 0.37069899 0.074925356
-0.17798632 -0.31535801 0.089171216
-0.21376598 -0.14708893 0.082820304
0.170439 -0.0081013096 0.084040835
0.170439 0.036218345 0.08760462
0.201694 0.26899692 0.089595534
0.20169401 0.31089509 0.081837699
-0.1967314 0.37069899 0.087293386
-0.14982431 0.37069899 0.085712209
-0.087857708 0.37069899 0.08675006
0.00030599907 0.37069899 0.087667137
-0.056857109 -0.31535801 0.092279598
-0.028449632 -0.31535801 0.091875233
0.037348047 -0.31535801 0.090852469
0.081451029 -0.31535801 0.090909496
0.14799239 -0.31535801 0.091258317
0.15499988 -0.31535804 0.092165254
0.19730636 -0.30214575 0.099998794
0.199837 -0.27929342 0.093065545
0.199837 -0.26582295 0.092816532
-0.21376598 -0.25810122 0.096375048
0.199837 -0.19640808 0.099764124
-0.21376598 -0.13164429 0.094645701
0.204322 -0.078747183 0.098534018
-0.21376599 -0.061669514 0.098319009
0.170439 0.028839108 0.09099374
0.170439 0.032056227 0.093982197
-0.21376598 0.076298513 0.09103097
-0.21376601 0.11927944 0.093879342
-0.21376599 0.13515481 0.090729669
0.196411 0.27207625 0.097951457
0.202957 0.28052717 0.093669392
-0.13633001 0.37069899 0.093681745
-0.025558829 0.37069899 0.099868067
0.021724049 0.37069899 0.094275035
0.11166422 0.37069899 0.093172401
0.037059072 -0.31535801 0.10327228
0.053696346 -0.31535801 0.10189909
-0.21376601 -0.072381586 0.10799959
0.170439 -0.016199894 0.1071628
-0.21376598 0.084009632 0.10699768
-0.21376601 0.11643732 0.10726421
-0.21376601 0.15219016 0.10463618
0.196411 0.26729327 0.10318737
-0.21376599 0.2795223 0.10009523
0.21357743 0.36814094 0.10969207
0.010368105 0.37069899 0.10699777
0.19567356 -0.3054691 0.11168905
-0.21376599 -0.17733306 0.11931247
-0.21376601 -0.074573189 0.11748126
0.170439 -0.0010670713 0.11092748
0.170439 0.065740734 0.11571813
0.170439 0.11490451 0.1124122
0.18915409 0.14440197 0.11298174
0.199837 0.2235671 0.11093459
-0.21376599 0.2517387 0.11559641
0.201694 0.25943097 0.11884633
-0.21376599 0.35881197 0.11207826
0.21286601 0.36940056 0.11421331
0.1854271 0.37069899 0.1120948
0.199837 -0.29620796 0.12433658
-0.21376599 -0.17265844 0.12365893
0.18566744 -0.050561033 0.12013704
-0.21376599 0.038035765 0.12722264
0.199837 0.18362294 0.12755476
0.19641098 0.27059147 0.12978457
-0.21376599 0.2910051 0.12280864
0.20169398 0.34356248 0.12711129
-0.07032641 0.37069899 0.12468544
0.099729881 0.37069899 0.12230632
-0.17913945 -0.31535798 0.13453193
0.16252053 -0.31535801 0.13330704
0.19793619 -0.30086386 0.13023709
-0.21376599 -0.28188196 0.13230726
-0.21376599 -0.23296224 0.13918456
-0.21376601 -0.11254898 0.13104641
-0.21376599 0.014402956 0.13303816
0.170439 0.037180725 0.13409594
0.18488242 0.12174895 0.13036375
0.204322 0.13756055 0.13462406
-0.21376599 0.15571232 0.13878269
0.20114601 0.1621975 0.13714749
-0.21376599 0.26398391 0.13134338
0.21376601 0.36460143 0.13803527
-0.048711799 0.37069899 0.13741693
0.049127348 0.37069899 0.13117048
0.080398299 0.37069899 0.1376428
0.090709411 0.37069899 0.13496785
0.17947243 -0.31535801 0.14087076
0.18161488 -0.31535801 0.1488883
0.19983698 -0.19542211 0.14931209
0.199837 -0.16780803 0.14117566
0.20114601 -0.060543038 0.14671816
-0.21376601 0.0628113 0.14180833
0.19607139 0.090473965 0.14334993
0.196411 0.2782445 0.14460024
0.20349917 0.283972 0.14881186
0.201694 0.29715616 0.14739791
0.201694 0.34065947 0.1421366
-0.017259467 0.37069899 0.14192986
0.096172631 0.37069899 0.14869803
-0.21376598 -0.0092368536 0.15585122
0.17239067 0.047102734 0.15107018
0.199837 0.15716237 0.15805508
0.20270725 0.26321 0.15197022
0.201694 0.32570523 0.15490314
0.14017905 0.37069899 0.15373667
-0.18742055 -0.31535801 0.16838829
-0.17170921 -0.31535801 0.16518305
-0.15441594 -0.31535801 0.16620663
-0.21376599 -0.29408041 0.16486886
0.20343447 -0.0070245517 0.16741684
-0.21376598 0.0065528154 0.16565475
-0.21376598 0.19972408 0.16901541
-0.21376599 0.2770201 0.16559117
0.196411 0.27831477 0.16665809
-0.11939711 0.37069899 0.16758655
-0.053836916 0.37069899 0.16643831
-0.00067248568 0.37069899 0.16965401
0.0028122328 0.37069899 0.16918668
0.14776735 0.37069899 0.16296905
0.16142282 0.37069899 0.16247523
-0.17661618 -0.31535798 0.17703119
-0.027100623 -0.31535801 0.1750484
0.199837 -0.24025048 0.17192018
-0.21376599 -0.23116496 0.17150258
-0.21376599 -0.16225582 0.17627171
0.199837 -0.11875098 0.1707972
-0.21376599 -0.090120435 0.17947292
-0.21376601 -0.08761102 0.1705247
0.20243748 0.015623252 0.17302699
0.199837 0.11446792 0.17235126
-0.21376599 0.23297867 0.17192475
0.21265027 0.35752004 0.17522658
0.14465523 -0.31535804 0.1822717
0.198212 -0.2105484 0.18442072
0.199837 -0.011879697 0.18527427
-0.21376601 0.0031723529 0.18531674
-0.21376599 0.13269661 0.18199463
0.199837 0.18352918 0.18585324
0.199837 0.2148134 0.18112604
0.203997 0.24279864 0.18382299
-0.21376599 0.34524015 0.18882301
-0.21376599 0.36296248 0.18403263
0.00764402 0.37069899 0.18984568
-0.16031443 -0.31535804 0.19658425
-0.10382354 -0.31535801 0.19520856
-0.070879549 -0.31535801 0.19219683
0.13628598 -0.31535801 0.19103599
-0.21376599 -0.28817403 0.19598429
-0.21376599 -0.053900093 0.19222762
-0.21376601 -0.036225647 0.19146918
-0.21376599 0.080887124 0.19055909
-0.21376599 0.21865375 0.19039452
-0.12695426 0.37069899 0.19047387
-0.035747897 0.37069899 0.19057679
0.12101566 0.37069899 0.19569819
0.16295907 0.37069899 0.19117284
-0.13629919 -0.31535801 0.20156153
-0.00094667822 -0.31535801 0.20343907
-0.21376599 -0.22153147 0.20600875
-0.21376599 -0.21275856 0.20709029
-0.21376598 -0.083340645 0.20683846
0.199837 -0.058711208 0.20751925
0.199837 0.044518057 0.20814708
0.199837 0.15167966 0.20610404
0.199837 0.18860058 0.20998418
0.199837 0.19612779 0.20140007
0.199837 0.20233826 0.2026833
-0.21376599 0.26121539 0.20863898
0.21256399 0.36971301 0.20351613
-0.084898703 0.37069899 0.20296606
0.066540197 0.37069899 0.20921186
0.12711847 0.37069899 0.20717365
0.16747141 0.37069899 0.20192029
-0.21376599 -0.31052786 0.21054538
-0.046818674 -0.31535801 0.21123686
-0.031095646 -0.31535801 0.21292607
-0.019145645 -0.31535801 0.21165489
0.199837 -0.2617369 0.21802118
-0.21376601 -0.11222836 0.21295275
-0.21376601 0.049142562 0.21704593
0.20169401 0.28433061 0.21112014
-0.046146013 -0.31535801 0.22457741
0.030564852 -0.31535801 0.22871116
-0.21376598 -0.25359586 0.22508234
-0.21376599 -0.24588373 0.22012162
0.199837 -0.19170024 0.22239807
0.199837 0.019782558 0.22696169
0.199837 0.19081181 0.22875388
-0.21376598 0.21982658 0.22478613
-0.21376599 0.3343378 0.22008231
-0.18562822 0.37069899 0.22087863
-0.063458279 0.37069899 0.22682792
0.18810293 -0.31535801 0.23535156
0.199837 -0.27682847 0.23370251
0.050608799 -0.230535 0.23598599
-0.21376599 -0.21831816 0.23273379
-0.11087901 -0.20687789 0.23641622
0.070294373 -0.18555093 0.23598599
-0.21376601 -0.17494282 0.23822004
0.034286752 -0.16690168 0.23635152
-0.21376599 -0.15825006 0.23991393
0.076061547 -0.15278842 0.23598599
-0.1610871 -0.14608198 0.23754072
0.06345091 -0.10769864 0.23598599
0.199837 -0.10797263 0.23870644
-0.15548921 -0.09292531 0.23598599
-0.21376601 -0.046753183 0.23047727
0.077999018 -0.040700123 0.23598599
0.082674459 -0.04602477 0.23623025
-0.21376599 -0.0054917573 0.23021884
-0.11073706 -0.008749254 0.23649439
0.085015148 0.0043658293 0.23906983
-0.13673797 0.024263293 0.23598599
0.199837 0.064947098 0.23485585
-0.13332067 0.10146795 0.23598599
-0.14565204 0.12751536 0.23598601
-0.11157687 0.15904875 0.23613654
-0.16008215 0.19248568 0.23657921
-0.11802276 0.20512164 0.23598599
-0.14767635 0.23046064 0.23598599
-0.13657026 0.23708475 0.23598599
0.063829489 0.23925057 0.23598599
-0.21376599 0.24223146 0.23452337
-0.12709965 0.25128186 0.23598599
-0.21376599 0.30703253 0.23195674
-0.21376598 0.33669779 0.23896326
0.201694 0.33882204 0.23758361
-0.17576788 0.37069899 0.23107864
-0.11025678 0.37069899 0.23503324
-0.14730805 -0.31535801 0.24252206
-0.079439588 -0.30046254 0.24469499
-0.16496302 -0.2998718 0.24469499
0.10459048 -0.29599613 0.24469499
-0.20182212 -0.28296548 0.24469501
-0.18752658 -0.28657076 0.24469498
-0.054489188 -0.28272194 0.24469499
0.075668134 -0.28999564 0.24469499
0.10696122 -0.28161758 0.24469498
0.17969707 -0.28921869 0.24469499
-0.21066622 -0.27054828 0.24463806
0.070212632 -0.2732389 0.24469501
-0.1908434 -0.2688137 0.24469499
-0.093567796 -0.26840076 0.24469498
0.075573646 -0.25211793 0.24469498
-0.14558572 -0.24370812 0.24469498
-0.081371598 -0.24783763 0.24469498
-0.012170541 -0.24290217 0.24469501
0.1177853 -0.24979267 0.24469498
0.199837 -0.24610758 0.24319717
0.010918245 -0.23820457 0.24469499
0.12178658 -0.23269016 0.24469499
0.16327222 -0.23684376 0.24469499
-0.069733873 -0.22639905 0.24469498
0.19721307 -0.22007771 0.24469499
-0.034377541 -0.21802105 0.24469501
0.14374158 -0.20252055 0.24469499
-0.095994443 -0.18705809 0.24469498
0.10238083 -0.18883549 0.24469498
-0.16649228 -0.16279981 0.24469499
-0.079463445 -0.16537577 0.24469501
-0.21113849 -0.15353841 0.2445271
-0.014487091 -0.15103441 0.24469499
0.17454304 -0.14546542 0.24469499
0.18536125 -0.14169887 0.24469499
-0.19574226 -0.13903075 0.24469498
0.12246806 -0.12206899 0.24469501
0.19833514 -0.12742689 0.24469498
0.19337213 -0.11002863 0.24469499
-0.10556376 -0.10462118 0.24467351
-0.00058732741 -0.1067926 0.24469499
-0.20300753 -0.090006605 0.24469499
-0.062040705 -0.095324345 0.24469499
-0.21216981 -0.089150548 0.2440252
0.1167147 -0.086442694 0.24469498
-0.085868284 -0.062933967 0.24469501
-0.052890033 -0.056583781 0.24469499
-0.21376598 -0.042106375 0.24039298
-0.023490114 -0.045916714 0.24469501
-0.0029313397 -0.040228706 0.24469498
0.15249822 -0.020356148 0.24469498
-0.065612726 -0.01062949 0.24469498
0.14575455 -0.015837699 0.24469498
-0.17921564 -0.00019273907 0.24469498
-0.066320494 -0.0018529296 0.24469501
-0.026320541 -0.0056278333 0.24469498
0.156295 -0.0034371763 0.24469501
-0.078883655 0.0093352869 0.24469498
0.090975747 0.0061534122 0.24469501
0.13984787 0.0043298006 0.24469498
-0.16677082 0.0103283 0.24469499
-0.072672576 0.015582614 0.24469501
0.17652646 0.015272953 0.24469498
-0.18506446 0.027357705 0.24469501
0.098586723 0.027606256 0.24469499
-0.17843693 0.035812382 0.24469498
-0.085562974 0.036232181 0.24469499
0.030563779 0.035293676 0.24403816
-0.052444875 0.047912214 0.24469498
-0.043617599 0.055631928 0.24469499
0.011214229 0.056384295 0.24469498
0.12817945 0.050333522 0.24469499
-0.20356114 0.067894548 0.24469498
-0.21376599 0.077186279 0.2403384
0.13230467 0.082556523 0.24469498
-0.0053037349 0.098304458 0.24469499
0.0051819161 0.09437263 0.24469498
-0.082153231 0.10354342 0.24469501
-0.062836744 0.10879052 0.24469499
-0.05380268 0.10945125 0.24469501
0.11275224 0.1057087 0.24469499
0.15318428 0.10524777 0.24469499
-0.18613413 0.12768134 0.24469499
-0.07534007 0.12430452 0.24469499
0.15878263 0.12475364 0.24469499
-0.10074043 0.13290709 0.24469498
-0.045995872 0.1370555 0.24469499
-0.17320752 0.14960071 0.24469498
0.085074902 0.14534132 0.24056847
0.18927948 0.15522143 0.24469499
-0.040994 0.16389294 0.24469499
-0.10431519 0.17544368 0.24469498
-0.0956752 0.17644647 0.24469499
-0.04416902 0.17571525 0.24469499
-0.031604104 0.17634903 0.24469499
-0.17663912 0.18495244 0.24469498
-0.19405828 0.19565463 0.24469498
-0.077950463 0.19531478 0.24469499
-0.062055472 0.19081774 0.24469501
-0.016591039 0.19142467 0.24469501
0.1535164 0.19131161 0.24469498
-0.20208789 0.20739418 0.24469498
-0.17660519 0.24409917 0.24469501
-0.065270059 0.24038713 0.24469499
0.096533008 0.24935704 0.24469499
0.11773485 0.2461606 0.24469499
0.16292897 0.25247681 0.24469499
0.027483322 0.26613894 0.24469501
-0.10515483 0.2856763 0.24469498
0.12368362 0.28156009 0.24469499
-0.049477503 0.29643807 0.24469499
-0.2131359 0.3002623 0.24304281
-0.1449322 0.30711067 0.24469499
-0.13785288 0.31573743 0.24469498
-0.075863555 0.31750971 0.24469498
0.036737759 0.31267744 0.24469501
0.15037404 0.31322318 0.24469499
0.17592865 0.31637555 0.24469498
0.18673642 0.33271146 0.24469499
-0.10295899 0.34760034 0.24469499
-0.013745079 0.34338611 0.24469499
0.13277911 0.34187266 0.24469499
-0.16835117 0.37069899 0.24488501
0.18185866 0.37069899 0.24476975
0.19140232 0.37069899 0.24327761
0.18191138 0.35655361 0.25575206
0.20403244 0.35835087 0.2581414
-0.15830113 0.36796242 0.2584874
-0.036451384 0.36224169 0.25862399
0.12075235 0.36578354 0.25862399
0.06575948 0.37069899 0.25408757
0.2099102 0.37069899 0.25408372
