# .PCD v0.7 - Point Cloud Data file format
VERSION 0.7
FIELDS x y z
SIZE 4 4 4
TYPE F F F
COUNT 1 1 1
WIDTH 984
HEIGHT 1
VIEWPOINT 0 0 0 1 0 0 0
POINTS 984
DATA ascii
-0.0061417222 -0.3231591 -0.243031
0.052683398 -0.31615609 -0.24303098
0.12750715 -0.31075883 -0.243031
0.074059069 -0.3060956 -0.243031
0.11320027 -0.30542165 -0.243031
0.071511216 -0.29267126 -0.243031
0.12211965 -0.29219234 -0.243031
0.18013845 -0.29060808 -0.24303101
0.21159539 -0.29152066 -0.243031
-0.23049662 -0.28425324 -0.243031
-0.25128508 -0.27456352 -0.243031
-0.038046114 -0.27582654 -0.243031
0.14992507 -0.27852038 -0.243031
-0.2415731 -0.26358858 -0.243031
-0.26651436 -0.25381255 -0.243031
-0.013843507 -0.25392035 -0.243031
0.066964298 -0.25148469 -0.243031
0.17921641 -0.25500247 -0.243031
0.23695649 -0.2541714 -0.243031
-0.26561341 -0.24076018 -0.243031
0.049002044 -0.24823156 -0.243031
0.061791368 -0.24248506 -0.243031
-0.22487347 -0.23556998 -0.243031
-0.054342888 -0.23515645 -0.243031
-0.023291856 -0.22214156 -0.243031
0.15107031 -0.22854701 -0.243031
-0.24388663 -0.21327764 -0.243031
-0.087043524 -0.21794578 -0.243031
0.087864943 -0.21126774 -0.243031
-0.20988727 -0.2062178 -0.243031
-0.16924083 -0.20394744 -0.243031
-0.019221783 -0.20294333 -0.243031
0.021264203 -0.20022409 -0.243031
0.0414517 -0.20450814 -0.243031
0.11526032 -0.20495552 -0.243031
-0.071743198 -0.19833957 -0.243031
-0.0070920363 -0.19098595 -0.243031
0.013710409 -0.17307383 -0.243031
0.12603149 -0.17185557 -0.243031
0.17583601 -0.15233311 -0.243031
-0.23443852 -0.14235102 -0.243031
-0.21961132 -0.1410664 -0.243031
-0.12231749 -0.14903526 -0.243031
0.12387657 -0.14034012 -0.243031
-0.15591498 -0.1380128 -0.243031
-0.01210174 -0.13376996 -0.243031
0.0027490854 -0.12284146 -0.243031
-0.036082655 -0.11250167 -0.243031
0.22026719 -0.11366424 -0.243031
-0.11748236 -0.10031303 -0.243031
0.23659097 -0.1038801 -0.243031
-0.14997046 -0.094292954 -0.243031
-0.097212359 -0.099552765 -0.243031
-0.23426533 -0.080945492 -0.243031
-0.078846917 -0.063276559 -0.243031
-0.084538668 -0.058784649 -0.243031
-0.064624235 -0.041818216 -0.243031
0.081670165 -0.029920783 -0.243031
0.1188096 -0.029497486 -0.243031
0.17528769 -0.020680889 -0.243031
-0.015351906 -0.011704862 -0.243031
0.11988173 -0.011431471 -0.243031
0.039306499 -0.0070977435 -0.243031
-0.26261839 0.01929675 -0.243031
-0.14112902 0.017944627 -0.243031
-0.043723606 0.015264854 -0.243031
-0.12638533 0.023190692 -0.243031
-0.2542583 0.032822724 -0.243031
0.030343045 0.038852539 -0.243031
-0.0043332237 0.041049916 -0.243031
0.17126976 0.045724154 -0.243031
0.23974472 0.04875759 -0.243031
-0.2010273 0.054686565 -0.243031
-0.14840028 0.05964959 -0.243031
-0.22858061 0.082829185 -0.243031
0.02617581 0.081729785 -0.243031
0.04819075 0.089182667 -0.243031
0.049768608 0.097881779 -0.243031
0.13859765 0.090711333 -0.243031
0.089251392 0.10601782 -0.243031
-0.20173565 0.11516827 -0.243031
-0.19993038 0.12224656 -0.243031
0.047707565 0.13436973 -0.243031
-0.15392593 0.14937125 -0.243031
-0.14401563 0.14399919 -0.243031
-0.12398399 0.14802127 -0.243031
-0.22789937 0.15635958 -0.24303098
0.12685177 0.1659427 -0.243031
0.20648156 0.16124853 -0.243031
-0.27542499 0.18945676 -0.24222732
-0.23430419 0.18681374 -0.243031
-0.14316055 0.18928146 -0.243031
-0.12813133 0.18507357 -0.243031
0.023416061 0.18987903 -0.243031
0.13846985 0.18046887 -0.243031
0.21802899 0.19501007 -0.243031
-0.20802413 0.20384826 -0.243031
0.20413458 0.20703265 -0.243031
-0.22669908 0.21842398 -0.24303098
-0.056308888 0.21784973 -0.243031
0.072947338 0.21361968 -0.243031
-0.17662874 0.22132987 -0.243031
0.021170832 0.22001226 -0.243031
0.037429452 0.22285284 -0.243031
0.080642812 0.22727829 -0.243031
0.17712595 0.22697066 -0.243031
0.056045499 0.23501197 -0.243031
-0.12299117 0.24187696 -0.243031
-0.089090496 0.24385157 -0.243031
0.069620535 0.24341625 -0.243031
-0.27542499 0.2593365 -0.24182945
-0.25724548 0.26577395 -0.243031
-0.22174799 0.27149075 -0.243031
-0.17768767 0.27404627 -0.243031
-0.12480509 0.27066511 -0.24303098
0.01507251 0.27697268 -0.243031
0.053651668 0.27697715 -0.243031
0.086424753 0.27210069 -0.243031
0.19990672 0.27289036 -0.243031
-0.24125856 0.28548396 -0.243031
-0.12448628 0.28726453 -0.243031
0.1065019 0.28278074 -0.243031
-0.17529163 0.29365462 -0.243031
-0.084547013 0.29871592 -0.243031
0.055836476 0.29784393 -0.243031
-0.26364249 0.30956209 -0.243031
-0.17731422 0.30186909 -0.243031
-0.13075578 0.30005622 -0.243031
-0.087616853 0.31780994 -0.243031
-0.054473501 0.31600177 -0.243031
-0.049832523 0.31372988 -0.243031
-0.24299616 0.32842991 -0.243031
-0.21813767 0.3275708 -0.243031
-0.11744831 0.32113749 -0.243031
-0.035504796 0.32776403 -0.243031
-0.2594837 0.33923 -0.24105227
0.064638704 0.33880511 -0.243031
0.21313493 -0.32910401 -0.23701778
0.24101499 -0.22292957 -0.23790835
0.241015 -0.19616173 -0.23514354
-0.27542499 -0.052766323 -0.23775032
-0.27542499 0.030507043 -0.23072362
-0.24397613 0.33923 -0.23418464
-0.033689201 0.33923 -0.23838821
0.026446886 0.33923 -0.23273449
0.241015 -0.30313665 -0.22486533
-0.27542502 -0.28510806 -0.22785072
-0.27542499 -0.27178785 -0.22536644
0.24101499 -0.11272552 -0.22394301
-0.27542499 0.050438032 -0.22545779
0.24101499 0.3062413 -0.22109163
-0.18440649 0.33923 -0.22715616
0.10495814 0.33923 -0.22149798
0.17983346 0.33923 -0.22744647
0.2152738 -0.33923 -0.21226354
-0.23487553 -0.32910401 -0.21058661
0.093688816 -0.32910401 -0.21547291
-0.27542499 -0.2119247 -0.21418224
-0.27542499 0.097596414 -0.21053784
-0.27542499 0.15961547 -0.21199322
0.058528565 0.33923 -0.21555732
0.11558147 0.33923 -0.21782827
0.066911206 -0.32910401 -0.20059043
-0.27542499 -0.20516746 -0.20929302
-0.27542499 -0.099457517 -0.20704934
-0.27542499 -0.064330697 -0.20084494
0.244573 -0.03462591 -0.20026931
-0.037934966 -0.02337997 -0.20250347
-0.018404137 -0.021663986 -0.2027294
0.015855558 -0.021640711 -0.20273246
0.14458692 -0.021298999 -0.20277745
-0.18766265 -0.015319474 -0.2035647
-0.13230975 -0.016221985 -0.20344587
0.11503844 -0.015359037 -0.2035595
0.070780329 -0.0035330476 -0.20511645
0.12393141 -0.0083653014 -0.20448026
-0.17802858 0.0021195319 -0.20586066
0.059502572 0.012641992 -0.20724601
0.23062512 0.033717006 -0.20667933
0.25114101 0.035619698 -0.20181979
-0.034689873 0.049883388 -0.20455094
-0.20357071 0.06259349 -0.20287758
-0.18737987 0.067124039 -0.20228112
-0.054010637 0.067536116 -0.20222685
0.14557935 0.061157927 -0.20306656
-0.20689559 0.070673861 -0.20181376
0.17456064 0.071361251 -0.20172326
0.13532078 0.33923 -0.20875093
-0.20094283 -0.32910401 -0.19682536
0.099131674 -0.32910401 -0.19682428
0.22551903 -0.32910401 -0.19052365
0.24009144 -0.31380501 -0.19364163
-0.27542499 -0.11712027 -0.19941591
-0.22910661 -0.059254624 -0.19006804
0.0017403355 -0.058787011 -0.19026174
0.20275728 -0.055640481 -0.19156504
-0.13811232 -0.046969134 -0.19515672
-0.075032517 -0.041885491 -0.19726238
-0.14561759 -0.038634576 -0.19860891
-0.05694396 -0.037926149 -0.19890234
0.13069096 -0.037717197 -0.19898888
0.25114101 0.041534498 -0.19994175
0.15523718 0.079003431 -0.19930737
-0.11745517 0.081103176 -0.19843763
0.062636591 0.083504885 -0.19744281
-0.27542499 0.098898843 -0.19425666
-0.27542499 0.22777304 -0.19168887
0.24101502 0.32138845 -0.19920665
-0.0078937709 0.33923 -0.19524297
0.09639062 -0.32910401 -0.1805204
0.20039856 -0.32910401 -0.18979561
-0.27542499 -0.1546272 -0.18773133
-0.040120199 -0.076640904 -0.1828666
0.16465668 -0.079669572 -0.18161212
-0.18655106 -0.064065985 -0.18807516
-0.27542499 0.029956996 -0.18883225
-0.040556103 0.10809442 -0.18725759
-0.024648808 0.10304065 -0.1893509
0.18516737 0.10850054 -0.18708937
0.24092764 0.10537007 -0.18838602
-0.14534661 0.11398793 -0.18481643
0.00256522 0.11313345 -0.18517037
0.19308105 0.11648519 -0.18378204
0.24101502 0.14538282 -0.18492503
-0.27542499 0.18697923 -0.18895534
0.241015 0.18116754 -0.18842244
0.24101502 0.27385011 -0.18207866
-0.11730976 0.33923 -0.18088937
-0.058964022 0.33923 -0.18846907
0.006666474 0.33923 -0.18274111
-0.25795648 -0.32910401 -0.17693073
0.11972079 -0.32910401 -0.17719889
-0.27542499 -0.17862807 -0.17837709
-0.16932438 -0.092355445 -0.17246601
-0.15141411 -0.093534827 -0.17156102
0.25114101 -0.090592481 -0.17110027
-0.236185 -0.0072921766 -0.17599985
-0.27542499 0.0054910332 -0.17785852
-0.23618501 0.092449725 -0.17849168
-0.23618498 0.10587434 -0.17869031
0.07994321 0.13529299 -0.17178842
0.19949022 0.13706693 -0.1704272
0.24101502 0.238345 -0.17234901
0.24103923 0.3133952 -0.175928
-0.227035 0.33923 -0.17249085
-0.22583812 -0.32910401 -0.16204496
-0.27542499 -0.20891429 -0.16848789
-0.27542499 -0.15753096 -0.163516
-0.27542496 -0.14680451 -0.16142981
0.241015 -0.12666178 -0.1626621
-0.22582753 -0.10157774 -0.16538931
-0.16838336 -0.10149898 -0.16544977
-0.12761074 -0.097828172 -0.16826655
0.061820246 -0.097891614 -0.16821787
0.15909295 -0.097370796 -0.16861752
0.16852698 -0.097212501 -0.16873898
-0.27542499 -0.049139798 -0.16673289
-0.27542499 0.01022768 -0.16940942
-0.236185 0.08146508 -0.16906522
-0.27542499 0.13059424 -0.16417252
-0.051280469 0.1398073 -0.16832444
0.20428628 0.13963127 -0.16845952
-0.23038758 0.14538041 -0.16404802
-0.18833275 0.33923 -0.16301131
0.17076465 0.33923 -0.16143246
-0.26511788 -0.32910401 -0.15664563
-0.21188107 -0.32910401 -0.15720066
-0.2083513 -0.32910401 -0.15348625
0.14654748 -0.32910401 -0.15543376
-0.27542499 -0.29475141 -0.15727462
-0.27542499 -0.22967058 -0.15046267
-0.086371765 -0.11133124 -0.157905
-0.026333421 -0.1196175 -0.15154657
0.0018017665 -0.11633349 -0.15406653
0.23998721 -0.11396274 -0.15588573
-0.236185 -0.041073576 -0.15590933
0.25114101 0.084345408 -0.15876406
-0.27542499 0.098983765 -0.15198997
-0.27542499 0.1105301 -0.15861867
-0.078784816 0.1534573 -0.15785033
-0.018161386 0.15384936 -0.15754947
-0.27542499 0.33879137 -0.15083931
-0.22359082 0.33923 -0.15109941
0.08493109 -0.32910401 -0.14391083
0.241015 -0.26965335 -0.14327548
-0.27542499 -0.25346902 -0.14800996
-0.27542499 -0.20451729 -0.14263003
-0.27542499 -0.15448095 -0.14712688
0.18104227 -0.12668726 -0.14453958
-0.27542499 0.071410351 -0.14312832
-0.27542499 0.17144707 -0.14895573
0.241015 0.17468727 -0.14417784
0.241015 0.27431083 -0.14474739
-0.24012698 0.33923 -0.14286369
0.030571837 0.33923 -0.14135671
0.15018021 0.33923 -0.14111564
0.10959326 -0.32910401 -0.13529994
0.029390421 -0.13143247 -0.13835555
0.11239538 -0.13279638 -0.13657808
0.25114101 -0.10942892 -0.13348612
-0.27542499 -0.01326929 -0.13950589
-0.27542499 0.020025 -0.13839129
-0.23618501 0.052280545 -0.1333864
-0.27542499 0.084966585 -0.13559815
0.25114101 0.1344749 -0.13491261
-0.017166801 0.17764762 -0.13293402
0.20962197 0.17260633 -0.13950387
0.24133605 0.17545515 -0.13579124
-0.1462658 0.33923 -0.13152646
-0.074434295 0.33923 -0.13419992
-0.026525382 0.33923 -0.13527444
0.19402206 0.33923 -0.13118604
-0.23993717 -0.32910401 -0.12650175
-0.093513772 -0.32910401 -0.12925903
0.12970434 -0.32910401 -0.12604639
0.13468145 -0.32910401 -0.1263124
-0.27542499 -0.1760253 -0.12653355
-0.13542183 -0.14363238 -0.12245649
-0.047114171 -0.14101923 -0.12586199
-0.030672349 -0.14434269 -0.12153083
-0.236185 0.13968621 -0.12823498
-0.23544168 0.18579766 -0.12231277
-0.10561295 0.18407388 -0.12455922
-0.0085144173 0.18187979 -0.12741862
0.13731895 0.18130824 -0.12816344
0.19365385 0.186839 -0.12095569
0.24101502 0.25229409 -0.12484673
-0.24489574 0.33923 -0.12809166
-0.069845602 0.33923 -0.12197816
-0.27066517 -0.32910401 -0.11703406
0.13620111 -0.15239988 -0.11103057
0.21896093 -0.15066795 -0.11328766
0.15813993 -0.14663887 -0.1185384
-0.27542499 -0.11529726 -0.1186818
-0.27542499 0.10167744 -0.1129946
-0.23618501 0.17585957 -0.11277311
-0.12305251 0.19018205 -0.11659899
-0.046341032 0.1906743 -0.11595747
-0.27542499 0.24958044 -0.1173214
-0.27542496 0.29212099 -0.11057553
-0.27542499 0.32000569 -0.11025833
0.242028 0.32243949 -0.11821084
-0.11291164 0.33923 -0.11331429
-0.16195689 -0.15572883 -0.10669224
-0.035796564 -0.15629655 -0.10592292
0.017159022 -0.15629424 -0.10592847
0.043121193 -0.15469956 -0.10803359
0.157134 -0.15410115 -0.10881346
-0.23618501 -0.12616506 -0.10966727
-0.236185 -0.082852647 -0.10629488
-0.236185 0.048626315 -0.10380895
-0.27542499 0.13321292 -0.10751616
-0.23618498 0.18422297 -0.1079893
-0.065713391 0.20067158 -0.10032178
0.24101502 0.259307 -0.10037507
0.010351285 0.33923 -0.10160944
0.13212167 0.33923 -0.10345545
0.23523465 0.33923 -0.10949902
-0.073831558 -0.16215384 -0.091782033
-0.27542499 -0.11281113 -0.095980756
-0.27542499 -0.045875255 -0.091953069
-0.23618501 0.10684247 -0.099913612
-0.11361882 0.20119019 -0.099069811
-0.0078979731 0.20418912 -0.091829598
0.046623703 0.20367746 -0.093064904
-0.25892884 0.33923 -0.095756792
-0.0095466599 -0.32910401 -0.089548975
0.18673703 -0.32910401 -0.080236636
0.20058915 -0.32910401 -0.081989959
0.241015 -0.2838822 -0.08896929
0.24101499 -0.26859558 -0.084496289
-0.03281159 -0.16626661 -0.081852905
-0.236185 -0.089154065 -0.084501751
-0.27542499 -0.043738678 -0.083564073
-0.236185 0.062597767 -0.088943765
-0.236185 0.20320754 -0.082641862
-0.031050861 0.20765272 -0.083467692
-0.00013887137 0.20551082 -0.088638745
0.0130798 0.20899591 -0.080224961
0.241015 0.25879169 -0.087497935
-0.27542499 0.27695617 -0.087265074
0.15963036 0.33923 -0.083790742
0.22640225 0.33923 -0.085146852
-0.27542499 -0.30110538 -0.078899592
0.10819887 -0.17017418 -0.072419055
-0.20160711 -0.1682846 -0.076980948
-0.19708782 -0.16786343 -0.077997774
-0.057235055 -0.16747537 -0.078934617
-0.27542499 -0.048073616 -0.071880728
-0.23618501 0.0063257823 -0.07918188
-0.27542499 0.028949544 -0.074263304
0.25114101 0.18244007 -0.077145867
-0.080337919 0.2127461 -0.071171127
0.083900884 0.21303356 -0.070477113
-0.14921241 0.33923 -0.07570976
-0.017632084 0.33923 -0.074570671
0.042096108 0.33923 -0.078266881
0.16255999 0.33923 -0.077769496
0.20456293 0.33923 -0.073644795
-0.13382769 -0.32910401 -0.062205695
-0.17252919 -0.17321113 -0.065087125
-0.092055663 -0.1746029 -0.061727118
0.021044135 -0.1731876 -0.065143973
0.06705077 -0.17458153 -0.061778724
0.12055479 -0.174961 -0.060862582
-0.27542502 -0.05368039 -0.065982237
-0.236185 -0.042960223 -0.064233139
-0.27542499 0.013282727 -0.062193274
-0.27542499 0.072284296 -0.068595022
-0.23618501 0.14310563 -0.068767659
-0.27542499 0.15076418 -0.065231487
-0.21409644 0.21660477 -0.061855365
-0.16376489 0.33923 -0.06386283
-0.081404902 0.33923 -0.069923013
-0.012515955 -0.32910401 -0.056652121
0.085823677 -0.32910401 -0.051247939
-0.23618498 0.024254328 -0.059419692
-0.23618498 0.071262524 -0.056960873
-0.27542499 0.2177396 -0.057187967
-0.17142798 0.21931185 -0.052548617
-0.16021496 0.21958999 -0.050435923
0.241015 0.2218014 -0.050314009
-0.24853103 -0.32910401 -0.047429003
0.12762648 -0.32910401 -0.040634423
0.241015 -0.31576955 -0.043275017
-0.27542499 -0.29568279 -0.048722923
0.241015 -0.20129594 -0.042070851
0.025501467 -0.17776915 -0.048657335
-0.23618498 -0.14957334 -0.045535289
-0.27542499 0.01775305 -0.043242924
-0.27542499 0.154083 -0.042428166
-0.18169418 0.22040495 -0.044245765
0.24101502 0.2429302 -0.042446725
0.24223219 0.27345991 -0.04654948
-0.17240182 0.33923 -0.047856521
-0.022270449 0.33923 -0.043763936
0.033201367 0.33923 -0.048018694
-0.19695994 -0.32910401 -0.038228326
0.17231926 -0.32910401 -0.036140658
-0.21265966 -0.17967704 -0.034165896
0.17919861 -0.1793448 -0.03668936
0.18456343 -0.17960612 -0.034704454
-0.27542499 -0.014070324 -0.033774942
-0.27542499 0.0031076372 -0.039709553
-0.27542499 0.14029279 -0.030983325
-0.22641364 0.22114387 -0.03863338
-0.044260874 0.22121377 -0.038102407
0.21958789 0.22146671 -0.036181159
-0.15435368 0.33923 -0.03339085
0.21007293 0.33923 -0.031722367
0.241015 0.33136579 -0.030882079
-0.023852348 -0.32910401 -0.025934301
0.012112915 -0.32910401 -0.024491463
0.16834071 -0.32910401 -0.021011785
0.24101502 -0.29175791 -0.024097946
-0.27542499 -0.21016601 -0.029032528
-0.21261621 -0.18119401 -0.022643581
-0.23618501 -0.1390917 -0.028577112
-0.27542499 -0.11106496 -0.0254215
-0.27542499 0.061487198 -0.024892122
-0.236185 0.19627726 -0.024948239
0.21713673 0.22233555 -0.029581875
-0.27542499 0.23282927 -0.02680552
-0.27542496 0.32285783 -0.027698532
0.042929579 0.33923 -0.027971368
-0.093348563 -0.32910401 -0.011417542
-0.059833199 -0.32910401 -0.015118442
0.096365184 -0.32910401 -0.012933921
-0.27542499 -0.30378401 -0.019994877
-0.27542499 -0.1887473 -0.010025002
0.25114101 -0.1735075 -0.015499312
-0.27542499 -0.082328096 -0.016794324
-0.23618501 -0.077858225 -0.019995999
0.007201802 0.22423831 -0.015129324
0.15177399 0.33923 -0.011464566
-0.081379265 -0.32910401 -0.0078629255
0.060949393 -0.32910401 -0.0067082122
0.241015 -0.32508639 -0.0051981956
-0.20844281 -0.18323234 -0.007161133
-0.27542499 -0.11507329 -0.0096212178
-0.10651011 0.22574311 -0.0036993497
-0.033229977 0.22504318 -0.0090156365
0.20822224 0.22547285 -0.0014963991
-0.27542499 0.3122949 -0.0057089725
-0.040571533 0.33923 -0.0019373856
0.096865341 0.33923 -0.0018215664
0.10012022 0.33923 -0.0091714114
0.12135141 0.33923 -0.00047513843
-0.21950307 -0.32910401 0.007795597
0.15592033 -0.18236062 0.006533918
-0.23618501 -0.023791777 0.0052053444
-0.069750093 0.22407444 0.0091251954
-0.039395232 0.224317 0.0072828718
0.012909677 0.22396368 0.0099665765
0.15688814 0.2242353 0.007903384
0.243294 0.27777982 0.0098763658
-0.27542499 0.32971582 0.0091758966
-0.26485994 0.33923 0.0025795028
0.14642918 0.33923 0.0054422766
-0.17563942 -0.32910401 0.012789566
-0.27542499 -0.26001912 0.011552542
-0.27542499 -0.19130997 0.012450099
-0.19503999 -0.18096058 0.017167797
0.063808292 -0.18097982 0.017021649
0.16261971 -0.18060084 0.019900223
0.23619214 -0.18141061 0.013749499
0.25114101 -0.18005729 0.016730594
-0.27542499 -0.17978093 0.018337149
-0.23618498 -0.16442819 0.018120147
0.25114101 -0.14218163 0.018407149
-0.236185 -0.087624788 0.017088316
-0.236185 0.017507853 0.013501577
-0.23618501 0.05444923 0.015633702
-0.23618501 0.11667297 0.013995102
0.25114101 0.18025565 0.019651912
-0.15161671 0.22305015 0.016905122
-0.26580665 0.33923 0.010011084
-0.011344802 0.33923 0.019937616
-0.27460992 -0.32910401 0.024416946
-0.23726878 -0.32910401 0.022169113
-0.14964993 -0.32910401 0.025851719
0.24101502 -0.27158964 0.02962932
-0.27542499 -0.26267707 0.026042283
0.24101502 -0.24026842 0.02525896
-0.27542499 -0.20496993 0.025657417
0.24101502 -0.20571215 0.02629308
-0.27542499 -0.18717331 0.024059255
-0.081275672 -0.18051952 0.020517925
0.13992392 -0.18036525 0.021689652
0.2031458 -0.17944473 0.028681425
-0.27542499 -0.15078561 0.022993397
-0.236185 -0.086245313 0.027729355
-0.27542499 0.0068216622 0.028251857
-0.23618501 0.054971121 0.021501819
-0.091121249 0.22167021 0.027386421
-0.024682106 0.22239693 0.021866785
-0.27542499 0.23280036 0.029891193
0.241015 0.23500095 0.029930629
-0.2585372 0.33923 0.024595238
0.092846692 0.33923 0.024352729
-0.22474374 -0.32910401 0.035878003
0.022049688 -0.32910401 0.030842878
0.23928787 -0.32910401 0.032779716
0.24101499 -0.28408846 0.031358365
-0.27542499 -0.18259585 0.036697701
-0.20624231 -0.17831697 0.037247326
-0.236185 -0.053150404 0.032342695
-0.27542499 0.056413818 0.035123449
-0.27542499 0.22763343 0.035636306
0.1183811 0.22102654 0.032275472
-0.27542499 0.2424739 0.035451379
-0.27542499 0.33192796 0.031879358
0.090013079 0.33923 0.032741994
-0.22959042 -0.32910401 0.040072948
-0.1351632 -0.32910401 0.041432805
-0.049735613 -0.32910401 0.0482063
-0.27542499 -0.29431048 0.046694383
-0.27542499 -0.26100266 0.048580855
-0.27542499 -0.25728741 0.041632988
0.25114101 -0.17365743 0.04365683
-0.27542499 -0.076711848 0.049932163
-0.236185 -0.042991258 0.049094208
-0.236185 0.013868707 0.0467797
-0.27542496 0.032033846 0.045735382
-0.27542499 0.058864936 0.049754396
-0.27542499 0.073499724 0.040631101
-0.23618498 0.14122273 0.04019925
-0.030923875 0.21950342 0.043844413
-0.0075174645 0.21983893 0.041296005
0.075905398 0.21975534 0.041930906
-0.27542499 0.27706388 0.046786748
-0.20267014 0.33923 0.043227099
0.057508551 0.33923 0.046256084
0.20889491 0.33923 0.047406629
-0.027381912 -0.32910401 0.056746874
-0.19701992 -0.17538808 0.052582309
-0.15862659 -0.17645563 0.050004985
0.072630987 -0.17405318 0.055805136
-0.23618498 -0.070190638 0.058706552
-0.27542499 -0.010412473 0.057278838
-0.23618498 0.04268555 0.059636641
-0.27542499 0.10331755 0.052231856
-0.23618501 0.18713243 0.051745228
0.25114101 0.20254906 0.056801345
-0.21777046 0.21582213 0.056495685
-0.16442227 0.21569939 0.056791984
0.071617365 0.21509822 0.058243386
-0.27542499 0.30851257 0.0520778
0.241015 0.31314382 0.054086797
0.241015 0.32068634 0.05717209
-0.07722684 0.33923 0.057776429
-0.27542499 -0.32297754 0.060003527
-0.25677294 -0.32910401 0.060028948
-0.06713748 -0.32910401 0.069385916
-0.041107193 -0.32910401 0.069789693
0.068791263 -0.32910401 0.068071343
0.13769118 -0.32910401 0.066389486
0.23360391 -0.32910401 0.063764296
-0.17884573 -0.17053759 0.064292595
-0.027662225 -0.17068666 0.063932672
0.19566834 -0.16875054 0.068606958
-0.27542499 -0.0063672066 0.065069892
-0.22530971 0.21312448 0.063008428
-0.0030398741 0.21143194 0.067094684
0.052148219 0.21096787 0.06821505
0.21558404 0.21263427 0.064191893
0.24101499 0.29113591 0.068959609
-0.16277075 0.33923 0.067276314
0.047276072 0.33923 0.065996349
-0.24546449 -0.32910401 0.071817607
-0.27542499 -0.20287751 0.076555997
-0.27542499 -0.19389868 0.076120324
-0.20864213 -0.16644554 0.074171796
-0.23618501 -0.020229261 0.073977321
-0.236185 0.070574619 0.075520389
-0.15367745 0.2077543 0.075973369
-0.24276978 0.33923 0.073272541
-0.10653915 0.33923 0.072641701
0.17463019 0.33923 0.073894985
-0.20059994 -0.32910401 0.086184628
-0.17339934 -0.32910401 0.084452234
-0.134413 -0.32910401 0.082459643
0.241015 -0.24683443 0.086605005
0.024146525 -0.16298246 0.082532436
0.21055263 -0.16150835 0.086091377
-0.18967079 0.20537783 0.081710748
-0.1066464 0.33923 0.08541315
0.14206412 0.33923 0.087934889
0.2133761 0.33923 0.089440666
-0.17269719 -0.32910401 0.090701312
-0.13053837 -0.32910401 0.098000422
0.077524431 -0.32910401 0.092886709
-0.27542502 -0.29784906 0.094375193
0.241015 -0.27353331 0.093510315
0.050278656 -0.15817425 0.094140679
0.08033672 -0.15741555 0.095972344
0.12398918 -0.15632625 0.098602198
-0.23618501 0.13473544 0.098668039
-0.13642614 0.19814378 0.098974153
0.241015 0.22101897 0.090545148
0.16445632 -0.32910401 0.10012063
0.17138352 -0.32910401 0.10600007
-0.27542499 -0.29659784 0.10100812
0.01480601 -0.15528995 0.1000152
0.13550887 -0.15162593 0.1047902
0.00098880008 -0.14957084 0.10746843
-0.18237692 0.19122614 0.1079893
-0.12314198 0.19707558 0.10036627
-0.0579818 0.19242512 0.1064268
0.241015 0.22636101 0.10846607
-0.27542499 0.25960958 0.10493672
0.24101502 0.25729269 0.10723551
0.241015 0.27257347 0.1058092
-0.24284184 -0.32910401 0.1147361
0.0254144 -0.32910401 0.11485188
0.24101502 -0.30487126 0.1192031
0.24101499 -0.28939316 0.11300577
-0.27542499 -0.22868738 0.11560985
-0.047630984 -0.14422762 0.11443177
-0.0094363261 -0.14445752 0.11413214
-0.27542499 -0.11839578 0.11538452
-0.23618501 0.10638697 0.11832494
-0.27542499 0.16589355 0.11668225
0.032901332 0.18794812 0.11226125
0.067766652 0.18700445 0.11349108
-0.19671158 0.33923 0.11801068
-0.12013806 0.33923 0.1125197
-0.099934705 0.33923 0.11265431
-0.013785236 0.33923 0.11565623
0.076937683 0.33923 0.11033542
0.012035862 -0.32910401 0.12793861
0.059087932 -0.32910401 0.12260822
-0.17109407 -0.13823771 0.12223787
0.096529283 -0.13892436 0.12134305
0.24786821 -0.13941666 0.12070146
0.25114101 -0.12491681 0.12740248
-0.27542499 -0.085950278 0.12381686
-0.236185 -0.02569549 0.12692949
-0.21966037 0.17473553 0.12948006
-0.13477656 0.1764154 0.12729084
0.076051906 0.17773239 0.12557454
0.11460824 0.17859393 0.12445174
0.17805284 0.17649576 0.12718612
-0.23136592 0.33923003 0.12810206
-0.077289477 0.33923 0.12153528
0.2062498 0.33923 0.12227615
-0.22108427 -0.32910401 0.1339893
-0.095519207 -0.32910401 0.13989635
0.2025826 -0.32910401 0.13549942
0.241015 -0.17224601 0.13858624
0.19146216 -0.12662999 0.13736522
0.22162735 -0.12824824 0.13525629
0.25114101 -0.11096865 0.13264897
0.045990959 0.16803013 0.13821864
-0.26173207 0.33923 0.13419177
-0.18881156 0.33923 0.1355267
-0.097525075 -0.32910401 0.14124081
0.11199591 -0.32910401 0.14862616
0.21563429 -0.32910401 0.14978591
-0.27542499 -0.29048541 0.14352378
-0.27542499 -0.27975535 0.14839454
0.24101502 -0.27996224 0.14131813
0.241015 -0.25499263 0.14572319
-0.11021549 -0.12444456 0.1402133
-0.236185 0.062019985 0.14730887
0.25114101 0.12294005 0.14711259
-0.010564879 0.15471773 0.14963415
-0.0049302727 0.15913349 0.14624578
-0.27542499 0.17690007 0.1495266
0.241015 0.20556845 0.14413546
-0.21932173 0.33923 0.14064303
0.11624789 0.33923 0.14819719
-0.011707895 -0.32910401 0.15873533
0.07497023 -0.32910401 0.15980968
0.12030949 -0.32910401 0.15769169
-0.27542502 -0.23891447 0.15360473
0.019565456 -0.11194401 0.15018579
-0.0107478 -0.10767124 0.15346448
0.11672271 -0.10049418 0.15897177
0.25114101 -0.071476802 0.15704031
-0.236185 -0.0075550666 0.15040846
-0.236185 0.02975625 0.15367424
0.25114101 0.062311314 0.15050253
-0.11961775 0.14144886 0.15981582
-0.046244241 0.14627975 0.15610889
0.054454699 0.14426339 0.15765613
-0.10580211 0.15060592 0.15278928
0.241015 0.18263674 0.15118383
0.24101499 0.29316634 0.1581068
-0.11357728 0.33923 0.15734288
-0.27542499 -0.32456052 0.16695328
-0.17967255 -0.32910401 0.16251624
0.23018949 -0.32910401 0.16276759
-0.27542499 -0.091682546 0.16193101
-0.048442774 -0.094284035 0.16373712
0.11090784 -0.097445376 0.16131128
-0.12869021 -0.089640021 0.16730073
0.13471439 -0.088083528 0.16849507
-0.27542499 0.013053589 0.1652011
-0.236185 0.058501054 0.16340563
-0.236185 0.077375762 0.16280182
-0.16294071 0.13100636 0.16782871
-0.13111529 0.13676707 0.16340832
0.16038308 0.13682491 0.16336393
0.22674845 0.13881214 0.16183905
-0.27542499 0.25661585 0.16913447
0.241015 0.2686218 0.16695192
0.24101499 0.31206405 0.16660783
0.24101502 0.32942575 0.16975197
-0.25033745 -0.32910401 0.17744158
-0.18487634 -0.32910401 0.17213124
0.13908537 -0.32910401 0.17310648
-0.27542499 -0.23299146 0.17419563
-0.27542502 -0.15953837 0.17263703
-0.16626453 -0.085098162 0.17078589
0.02892106 -0.083920166 0.17168984
0.062206522 -0.080778494 0.17390379
0.12586483 -0.083218753 0.17222805
-0.035379678 -0.076000303 0.17588294
0.15448622 -0.066917062 0.17964524
-0.236185 0.10181406 0.17512843
0.25114101 0.10242872 0.17098637
-0.10670139 0.1118734 0.17844328
-0.022329822 0.11510327 0.17710543
0.16483417 0.11955095 0.17526318
0.25114101 0.11113229 0.17155312
-0.16577703 0.12469396 0.17267242
-0.27542499 0.16038908 0.17492771
-0.27542499 0.19210249 0.17306563
0.241015 0.20960572 0.17843528
0.24101502 0.30966261 0.17578748
-0.24806741 0.33923 0.17739825
-0.1276014 -0.32910401 0.18760434
0.11679076 -0.32910401 0.18475807
0.14597529 -0.32910401 0.18732575
0.241015 -0.06559851 0.18083128
-0.1132003 -0.050799519 0.18632117
-0.11880216 -0.047406666 0.1877265
0.25114101 0.035155699 0.18308507
-0.074375413 0.085256115 0.18946844
0.035235651 0.091695182 0.18680131
0.12274262 0.097220972 0.18451248
0.17026702 0.099652223 0.18350543
0.18260388 0.094560422 0.1856145
0.092799596 0.10386666 0.18175977
0.24101499 0.15680796 0.1886155
0.241015 0.26179314 0.18242651
0.24101502 0.28984979 0.18022546
-0.21467784 0.33922997 0.18121445
-0.24425708 -0.33004254 0.19250298
-0.20095454 -0.32910401 0.19063711
-0.10149784 -0.32910401 0.19044814
0.12819961 -0.32910401 0.19091585
0.1970804 -0.32910401 0.19630948
0.220725 -0.32910401 0.19839591
0.241015 -0.27546576 0.19127288
-0.27542499 -0.18714416 0.19913913
-0.27542499 -0.14437331 0.19916359
0.10152134 -0.038425602 0.19144647
-0.050591219 -0.023018762 0.19530204
-0.10094777 -0.005400402 0.19762161
-0.23587908 0.0091385795 0.19953577
0.16423714 0.0076297889 0.19933712
-0.036373548 0.012221926 0.19994172
0.11354911 0.039541282 0.19866353
-0.14514671 0.04478785 0.19797279
-0.035171319 0.046658043 0.19772656
-0.02620193 0.040056884 0.19859566
0.22983062 0.043264601 0.19817334
-0.27542499 0.053834289 0.19698557
-0.23618498 0.053969745 0.19268888
-0.20244661 0.052196853 0.19699737
0.078729264 0.069769599 0.19468381
0.037501082 0.072637528 0.19430622
0.12892765 0.075712182 0.19342163
0.1316836 0.083824642 0.19006138
0.24101499 0.30808625 0.19713119
-0.27542499 0.32468569 0.19190586
-0.039619684 0.33923 0.19828556
0.071985304 0.33923 0.19065592
-0.026770316 -0.32910401 0.20085418
0.010666586 -0.32910401 0.20965889
0.049014945 -0.32910401 0.20303732
0.11272686 -0.32910401 0.20251065
-0.27542496 -0.098759629 0.20554984
-0.27542499 -0.054645345 0.20246848
0.24101502 -0.05541205 0.20503379
0.026519276 0.013798233 0.20014925
-0.12879319 0.33923 0.20865527
-0.10941921 0.33923 0.20931557
0.11914672 0.33923 0.20132285
0.13893881 0.33923 0.201049
0.18154688 0.33923 0.2040748
0.22943808 -0.33520523 0.21973014
0.016302202 -0.32910401 0.21708241
-0.27542499 -0.21828529 0.21911292
0.241015 -0.093546852 0.21647879
0.24101499 -0.0040385351 0.21170272
0.24101499 0.07003592 0.2189614
0.241015 0.13456132 0.21365115
-0.27542499 0.25327557 0.21397439
-0.22859195 -0.32910401 0.22414149
0.022103302 -0.32910401 0.22387761
0.14703622 -0.32910401 0.22835377
0.24101499 -0.017021112 0.22928005
0.241015 0.10592887 0.22471286
0.24101499 0.14868891 0.22547935
-0.27542499 0.31354529 0.22254555
-0.19739003 -0.32910401 0.23131356
-0.065107346 -0.32910401 0.23598467
0.1087933 -0.32910401 0.23042607
0.16290878 -0.32910401 0.2390369
0.241015 -0.14811099 0.23462397
-0.27542499 0.03654848 0.23286094
-0.27542499 0.11990183 0.23711161
0.241015 0.27257609 0.23059122
-0.13118908 0.33923 0.23380336
0.16598709 0.33923 0.23317814
-0.23094197 -0.32401395 0.243031
-0.17215014 -0.32910401 0.24117139
-0.053937435 -0.32645559 0.243031
0.17159998 -0.32001251 0.243031
-0.18081731 -0.31750894 0.243031
0.0068542585 -0.3107698 0.243031
-0.27087969 -0.30810758 0.243031
0.069941662 -0.29447943 0.243031
0.24025007 -0.2984412 0.243031
-0.27542499 -0.27092108 0.24152781
0.0027975291 -0.27315462 0.243031
0.021041274 -0.27730915 0.243031
-0.10760629 -0.26499918 0.243031
0.0013328344 -0.25219399 0.243031
0.057359159 -0.25967655 0.243031
0.20108342 -0.25416952 0.243031
-0.049662851 -0.24882603 0.243031
0.10147271 -0.24906859 0.243031
0.11993274 -0.24065037 0.243031
-0.19810989 -0.23845406 0.243031
-0.12874153 -0.23447332 0.243031
-0.23332836 -0.22163564 0.243031
0.19392729 -0.22158529 0.243031
-0.25789329 -0.21125707 0.243031
-0.2262217 -0.20419452 0.243031
-0.21573739 -0.2060547 0.243031
0.036118016 -0.20627455 0.24303098
0.066821143 -0.20613302 0.243031
0.08488252 -0.2006869 0.243031
0.0063432157 -0.19118734 0.243031
-0.26028576 -0.18715207 0.243031
-0.063891008 -0.18857674 0.243031
0.10066161 -0.17782548 0.243031
-0.17458718 -0.16324544 0.243031
-0.15243745 -0.16918416 0.24303101
-0.079570964 -0.1626564 0.243031
0.10122021 -0.16494372 0.243031
0.14111754 -0.1681329 0.243031
-0.11549023 -0.15676996 0.243031
-0.046741087 -0.1567964 0.243031
0.098910347 -0.15088344 0.243031
0.12717536 -0.15642159 0.243031
0.18128844 -0.15027979 0.243031
-0.12098439 -0.14387774 0.243031
-0.081762537 -0.14259495 0.243031
0.1483718 -0.14892623 0.243031
-0.07644593 -0.13668962 0.243031
0.13290653 -0.13932005 0.243031
-0.19123355 -0.12251155 0.243031
0.10595436 -0.12982896 0.243031
-0.10149407 -0.11095691 0.243031
-0.24031492 -0.10766443 0.243031
-0.23589587 -0.10185751 0.243031
-0.2698153 -0.096150324 0.243031
-0.23179287 -0.095675848 0.243031
-0.15711622 -0.097738668 0.243031
0.039327543 -0.097437903 0.243031
-0.21100581 -0.085707173 0.243031
-0.25994471 -0.070776917 0.243031
-0.12812033 -0.070396006 0.243031
0.055898756 -0.077778362 0.243031
0.22254437 -0.072487526 0.243031
0.072740726 -0.069357887 0.243031
0.10120057 -0.055960499 0.243031
0.11694708 -0.053099737 0.243031
-0.2740283 -0.044211105 0.243031
-0.035409376 -0.047588602 0.243031
-0.11374713 -0.033209767 0.243031
0.046832651 -0.0374773 0.243031
0.20627266 -0.03952834 0.243031
-0.09825515 -0.028215311 0.243031
0.040759467 -0.021738807 0.243031
0.15767334 -0.027873293 0.243031
-0.054936953 -0.010029793 0.243031
0.006610794 -0.018717 0.243031
0.024289211 -0.015260341 0.243031
0.057381712 -0.010338396 0.243031
0.065858066 -0.013243757 0.243031
0.074121311 -0.011830561 0.243031
0.0095993206 -0.00585109 0.243031
0.026045712 0.029112458 0.243031
-0.26036695 0.034050785 0.243031
0.15122117 0.035706602 0.243031
-0.010699064 0.043397926 0.243031
0.054051131 0.043022342 0.243031
-0.27542499 0.067017332 0.24075329
-0.20237279 0.063513793 0.243031
-0.11127583 0.072832644 0.243031
-0.18943496 0.10192029 0.243031
-0.035641622 0.12797232 0.243031
-0.074620731 0.13339573 0.243031
0.015464537 0.1403923 0.243031
-0.11131188 0.15726545 0.243031
-0.12809388 0.16311392 0.243031
-0.015054762 0.16978858 0.243031
-0.19505775 0.1734747 0.243031
0.091742143 0.17889319 0.243031
-0.26115012 0.18764381 0.243031
-0.22835459 0.1942317 0.243031
0.10589035 0.1908195 0.243031
-0.2616024 0.20030507 0.243031
-0.2026085 0.21201886 0.243031
-0.1482203 0.21199383 0.243031
-0.25937882 0.22629264 0.243031
-0.27542499 0.23818767 0.24095571
0.21793216 0.234405 0.243031
-0.26305014 0.24252225 0.243031
-0.16877759 0.246521 0.243031
0.045251645 0.24715114 0.243031
0.15340175 0.24289921 0.243031
-0.20958355 0.25268614 0.243031
-0.16978647 0.25575352 0.243031
0.15909973 0.25342852 0.243031
0.17273417 0.25046802 0.243031
0.21651743 0.25092772 0.243031
-0.1893149 0.26736143 0.243031
0.024026558 0.26372138 0.243031
-0.23239169 0.27045003 0.243031
-0.15911677 0.27553794 0.243031
-0.13249223 0.27281785 0.243031
-0.10671428 0.27576545 0.243031
-0.22259362 0.28801915 0.243031
0.22218148 0.29345369 0.243031
-0.088627256 0.30404782 0.243031
0.037646994 0.3212029 0.243031
0.045037583 0.33923 0.24273217
