# .PCD v0.7 - Point Cloud Data file format
VERSION 0.7
FIELDS x y z
SIZE 4 4 4
TYPE F F F
COUNT 1 1 1
WIDTH 972
HEIGHT 1
VIEWPOINT 0 0 0 1 0 0 0
POINTS 972
DATA ascii
-0.091778457 -0.34463608 -0.25183401
-0.048703812 -0.34851491 -0.25183398
0.20665726 -0.34933993 -0.25183401
0.23761083 -0.34743834 -0.25183401
-0.14842634 -0.33049023 -0.25183401
-0.12327723 -0.33495909 -0.25183401
-0.21274923 -0.31999183 -0.25183401
-0.17389859 -0.30120665 -0.25183401
0.0091316849 -0.30773649 -0.25183401
0.073830016 -0.30421633 -0.25183401
0.10604127 -0.30419031 -0.25183401
-0.031863742 -0.2924487 -0.25183401
-0.16245848 -0.28447539 -0.25183401
-0.10450878 -0.28483883 -0.25183401
-0.00096546859 -0.28820947 -0.25183401
0.058402427 -0.28656775 -0.25183398
0.15803705 -0.2862764 -0.25183401
0.21888311 -0.28068516 -0.25183401
-0.20281985 -0.27641854 -0.25183401
0.06025593 -0.27368706 -0.25183401
0.076377593 -0.27411789 -0.25183401
0.11853743 -0.27762213 -0.25183401
-0.15486434 -0.26599023 -0.25183401
0.08827123 -0.26166785 -0.25183401
0.094069548 -0.26202574 -0.25183401
-0.095327735 -0.25214469 -0.25183401
0.18269382 -0.25720587 -0.25183401
-0.036820464 -0.22396201 -0.25183401
0.011284217 -0.21256289 -0.25183401
0.063492 -0.21522045 -0.25183401
0.12761764 -0.21451373 -0.25183401
0.25158143 -0.21636271 -0.25183401
-0.21952812 -0.20239274 -0.25183401
-0.20388064 -0.20003374 -0.25183401
0.10175957 -0.19966766 -0.25183401
0.21720338 -0.19357869 -0.25183401
0.13114136 -0.18048567 -0.25183401
0.0023578405 -0.17315882 -0.25183401
0.052095182 -0.17385139 -0.25183401
0.14842142 -0.17037344 -0.25183401
-0.14758563 -0.16484545 -0.25183401
-0.043772049 -0.16103131 -0.25183401
0.085383356 -0.15599227 -0.25183401
0.21875523 -0.15262875 -0.25183401
-0.1794772 -0.14070545 -0.25183401
-0.0094214231 -0.14675151 -0.25183401
0.052011378 -0.14181626 -0.25183401
0.10170938 -0.14271982 -0.25183401
0.02680774 -0.13204226 -0.25183401
0.16336477 -0.13744104 -0.25183401
0.24375136 -0.13535804 -0.25183401
-0.19123396 -0.12217249 -0.25183401
-0.15512893 -0.1250322 -0.25183401
0.013663761 -0.12035051 -0.25183401
0.039311804 -0.12697345 -0.25183401
0.13051111 -0.12984096 -0.25183401
-0.077107958 -0.11657155 -0.25183401
-0.0078949388 -0.11071029 -0.25183401
-0.074913144 -0.10948227 -0.25183401
-0.053309262 -0.10322374 -0.25183401
0.15851605 -0.097273767 -0.25183401
-0.13285936 -0.08183261 -0.25183401
0.14159687 -0.080694675 -0.25183401
-0.16387919 -0.0741923 -0.25183401
-0.050255012 -0.078994013 -0.25183401
0.014772781 -0.073339194 -0.25183401
-0.14985076 -0.065003216 -0.25183401
0.081665382 -0.063529044 -0.25183401
0.1935402 -0.065567054 -0.25183401
-0.00052134693 -0.050583392 -0.25183401
0.018068619 -0.055772908 -0.25183401
0.20810437 -0.053408772 -0.25183401
-0.23376293 -0.040392019 -0.25183401
0.012570679 -0.046588987 -0.25183401
0.20543799 -0.046021 -0.25183401
-0.21742101 -0.036733881 -0.25183401
0.085304461 -0.033681735 -0.25183401
0.15077056 -0.039184384 -0.25183401
-0.20602903 -0.029570326 -0.25183401
0.10046162 -0.022600241 -0.25183401
0.20685394 -0.021956261 -0.25183401
0.23126769 -0.021800607 -0.25183401
0.25175533 -0.022164313 -0.25183401
0.17080963 -0.012980163 -0.25183401
-0.19586483 -0.00049489317 -0.25183401
-0.1178311 -0.0027576908 -0.25183401
-0.05391857 -0.0080418959 -0.25183401
0.12510052 -0.0023006946 -0.25183401
0.20932865 -0.003073588 -0.25183401
-0.2488561 0.00082182465 -0.25183401
-0.00096260849 0.0036348943 -0.25183401
-0.21008998 0.017175108 -0.25183401
-0.03618554 0.01619269 -0.25183401
0.20153625 0.010659566 -0.25183401
0.24276741 0.010151841 -0.25183401
-0.048183486 0.025359344 -0.25183401
0.018413395 0.020980075 -0.25183401
0.11423826 0.022685902 -0.25183401
0.21482819 0.036091018 -0.25183401
-0.14462097 0.042625368 -0.25183401
-0.22159153 0.052571893 -0.25183401
-0.12483163 0.050535817 -0.25183401
0.080554858 0.052349653 -0.25183401
0.11984641 0.055324711 -0.25183401
0.22433993 0.064629301 -0.25183401
-0.21064925 0.077996023 -0.25183401
-0.20296285 0.074972302 -0.25183401
-0.12800659 0.075437993 -0.25183401
-0.011427365 0.075030647 -0.25183401
0.15833171 0.075509578 -0.25183401
0.20675682 0.079863816 -0.25183398
-0.23105094 0.085777208 -0.25183401
0.13926367 0.085512325 -0.25183401
-0.17996858 0.09022525 -0.25183401
-0.0163581 0.09971451 -0.25183403
0.094295532 0.097362593 -0.25183401
-0.14728461 0.10873245 -0.25183401
-0.032223895 0.10918218 -0.25183401
-0.00025849044 0.1055349 -0.25183401
0.068859443 0.10905109 -0.25183401
-0.23579022 0.11504343 -0.25183401
-0.060873702 0.11209375 -0.25183401
0.083186775 0.12214118 -0.25183401
-0.1492563 0.13668211 -0.25183401
0.0061711743 0.13217044 -0.25183401
0.23457463 0.13120268 -0.25183401
0.032599077 0.14087412 -0.25183403
0.20618683 0.1428158 -0.25183401
0.23059541 0.14796489 -0.25183401
-0.22527274 0.15327574 -0.25183401
0.031465225 0.153671 -0.25183401
0.23696449 0.15061097 -0.25183401
-0.22654928 0.16602933 -0.25183401
-0.19193326 0.16650568 -0.25183401
-0.12550537 0.16550019 -0.25183401
0.07880187 0.16115534 -0.25183403
0.086351596 0.16597356 -0.25183401
0.12586577 0.16677999 -0.25076616
-0.22940004 0.17374186 -0.25183401
-0.2052469 0.19726542 -0.25183401
-0.21227798 0.20869914 -0.25183401
-0.23236181 0.29455322 -0.25183401
-0.25183401 0.31873903 -0.25108799
-0.2286129 0.32739654 -0.25183401
-0.15956604 -0.350941 -0.24309579
-0.068159997 -0.350941 -0.24207622
0.25183401 -0.2932694 -0.24200541
-0.25183401 -0.21143205 -0.2462506
0.25183401 -0.19901001 -0.24482721
0.25183401 -0.11268455 -0.24280988
0.25183401 -0.04103519 -0.24433091
0.25183401 0.01741112 -0.24777751
-0.25183401 0.07987155 -0.2459698
0.010124527 0.16677999 -0.24387857
0.17579976 0.16677999 -0.24186531
0.20746221 0.16677999 -0.24513373
0.22098067 0.16677999 -0.24535683
-0.19341196 0.2691485 -0.2446264
-0.25183401 0.27372253 -0.2491181
-0.20339826 0.28233039 -0.24356113
-0.16220006 -0.350941 -0.23381391
-0.12718025 -0.350941 -0.23398656
-0.25183401 -0.29715952 -0.2389026
-0.25183401 -0.22065538 -0.23230496
0.25183401 -0.2272639 -0.23844223
-0.25183401 -0.17218313 -0.23701243
0.25183401 -0.073811732 -0.23450002
-0.25183401 -0.045150325 -0.2363409
0.25183401 -0.015866771 -0.2324343
-0.25183401 0.081443265 -0.23382017
0.21684566 0.16512296 -0.23377
0.22323924 0.16391633 -0.23376998
-0.25183401 0.22191307 -0.23326783
-0.19991662 0.29557961 -0.23903266
-0.23494157 0.350941 -0.23819916
-0.192463 -0.350941 -0.2228228
0.25183401 -0.33996129 -0.22185117
-0.25183401 -0.24601737 -0.22298181
0.25183401 -0.10571603 -0.22531095
-0.25183401 0.021587146 -0.22773571
0.25183401 0.090212956 -0.22671609
-0.026319526 0.162342 -0.22419643
0.045378372 0.162342 -0.22961119
-0.25183401 0.18188976 -0.22795033
-0.18939011 0.26055667 -0.22442794
-0.25183401 0.31250063 -0.22494148
-0.1629968 -0.350941 -0.21371332
0.037300408 -0.350941 -0.2128005
0.25183401 -0.31687036 -0.21630472
-0.25183401 -0.25357834 -0.21769118
0.25183401 -0.093332544 -0.21450296
-0.25183401 0.028147159 -0.21550137
-0.018581234 0.162342 -0.21067831
0.067020603 0.162342 -0.21072088
0.081992418 0.16234198 -0.21277663
0.10651057 0.162342 -0.21767423
-0.25183401 0.28576076 -0.21624431
-0.088165589 -0.350941 -0.20352352
0.019507855 -0.350941 -0.20966959
0.24196929 -0.350941 -0.20000023
-0.25183401 -0.34777606 -0.20302708
0.25183401 -0.33844981 -0.20754026
0.25183401 -0.12671687 -0.20489906
-0.25183401 -0.082233511 -0.20223728
0.25183401 -0.031002782 -0.20274831
0.25183403 0.15978563 -0.20151635
-0.25183401 0.16171895 -0.20640099
0.1045685 0.162342 -0.20828311
-0.25183401 0.2380252 -0.2059108
-0.064569682 -0.350941 -0.19088712
-0.02452036 -0.350941 -0.19158971
-0.0058570355 -0.350941 -0.19434313
0.01807937 -0.350941 -0.1938733
0.07272011 -0.350941 -0.19951227
0.25183401 -0.34598902 -0.19257979
-0.25183401 -0.31628507 -0.19839931
0.25183401 -0.27496341 -0.19705026
-0.25183401 -0.16014391 -0.19840392
0.25183401 -0.049172431 -0.19807343
0.25183401 -0.016580656 -0.19941184
0.25183401 0.0063241348 -0.19558296
0.25183403 0.021303758 -0.19868776
-0.25183401 0.16314043 -0.19358453
-0.14615586 0.162342 -0.19561563
0.02105958 0.162342 -0.19649918
-0.2210957 0.3271516 -0.19754325
-0.2513352 -0.350941 -0.18096006
0.036219448 -0.350941 -0.18103349
0.25082621 -0.350941 -0.18661308
-0.25183401 -0.34182772 -0.18710947
-0.25183401 -0.25772348 -0.18524182
-0.25183401 0.064086668 -0.18234506
-0.068015188 0.162342 -0.18038224
0.23067744 0.162342 -0.18135011
-0.18607779 0.24824768 -0.18646345
-0.038433701 -0.350941 -0.17712499
0.12979554 -0.350941 -0.17094044
0.19102219 -0.350941 -0.17895338
0.25183401 -0.34140417 -0.17564858
-0.25183401 -0.29726145 -0.1783649
-0.25183401 -0.22557305 -0.17711814
-0.25183401 -0.12907895 -0.1771881
0.25183401 -0.053674862 -0.17701226
-0.19451311 0.23125145 -0.17488526
-0.25183401 0.29333568 -0.1776464
-0.23473591 -0.350941 -0.16302252
0.15978494 -0.350941 -0.16993195
0.1823718 -0.350941 -0.16672246
-0.25183401 -0.34827679 -0.16268869
-0.25183401 -0.24977474 -0.1663875
-0.25183401 -0.15703197 -0.16826881
0.25183401 -0.12932236 -0.16615091
0.25183401 -0.11711224 -0.16890378
0.25183401 -0.044595622 -0.16456342
-0.25183401 -0.028301463 -0.16784179
0.19422941 0.162342 -0.16838846
-0.25183401 0.23686545 -0.16341388
-0.15655354 -0.350941 -0.15934607
-0.13206561 -0.350941 -0.15366755
-0.12918933 -0.350941 -0.15827356
-0.03751782 -0.350941 -0.15470788
0.052004285 -0.350941 -0.15926762
0.081948102 -0.350941 -0.15916096
0.099562809 -0.350941 -0.15505667
0.1482759 -0.350941 -0.15751387
0.22698119 -0.350941 -0.15596552
0.25183401 -0.22671567 -0.15601705
-0.25183401 -0.21164005 -0.15021113
0.25183401 -0.11276914 -0.15666831
0.11703397 0.162342 -0.1513364
-0.20001751 0.30005407 -0.15935969
-0.24345334 0.350941 -0.15784633
-0.23706919 -0.350941 -0.14485659
-0.045531422 -0.350941 -0.14593025
0.022965841 -0.350941 -0.14789763
0.16061851 -0.350941 -0.14713778
0.25183401 -0.19506083 -0.14515443
0.25183401 -0.129566 -0.14765064
0.25183401 0.0051204413 -0.14709626
0.25183401 0.094671361 -0.14052333
0.25183401 0.1063593 -0.14585264
-0.25183401 0.15163055 -0.14639914
-0.084945761 0.162342 -0.14474192
-0.0046256781 0.16234201 -0.14229238
-0.22309873 0.33459592 -0.14218201
0.15151787 -0.350941 -0.13759604
0.25183401 -0.27960739 -0.13458052
-0.25183401 0.061082281 -0.13083437
0.25183401 0.070319027 -0.13908775
-0.14235915 0.162342 -0.13287944
0.03706941 0.162342 -0.13665089
-0.25183401 0.28707394 -0.13593781
-0.2086636 0.28095007 -0.13144097
-0.16323391 -0.350941 -0.12941158
-0.15348998 -0.350941 -0.12684014
-0.095854558 -0.350941 -0.1219601
0.11549646 -0.350941 -0.12812001
0.12478053 -0.350941 -0.12731537
0.14080971 -0.350941 -0.12169756
0.20139819 -0.350941 -0.12455011
0.25183401 -0.28676394 -0.12147513
-0.25183401 -0.19508082 -0.12005109
-0.25183401 0.12586133 -0.12778643
0.25183401 0.12726003 -0.12516052
-0.25183401 0.14166307 -0.12011353
-0.15130919 0.16234201 -0.12179975
0.13524689 0.162342 -0.12292765
0.146126 0.162342 -0.12376523
-0.25183401 0.17881544 -0.12693207
-0.18826695 -0.350941 -0.11861642
-0.10121285 -0.350941 -0.11224432
-0.063378945 -0.350941 -0.11530772
0.102513 -0.350941 -0.1161311
0.11324372 -0.350941 -0.11752392
0.19490774 -0.350941 -0.11193438
-0.25183401 -0.33483237 -0.11242432
0.25183401 -0.33467096 -0.11617808
-0.25183401 -0.23514827 -0.11802424
0.25183401 -0.062913008 -0.11147197
0.25183401 0.0071656704 -0.11044551
0.25183401 0.04377849 -0.11654696
-0.25183401 0.1064155 -0.11858919
-0.15988 0.16259009 -0.11881283
-0.057775863 -0.350941 -0.10682721
0.13406178 -0.350941 -0.1013677
0.19229624 -0.350941 -0.1056726
0.23130527 -0.350941 -0.10790072
0.25183401 -0.35047975 -0.10083968
0.25183401 -0.33308822 -0.10859621
-0.25183401 -0.12996772 -0.10836273
-0.25183401 0.034589589 -0.10610191
-0.25183401 0.063344002 -0.10794866
0.25183401 0.07129474 -0.10150351
-0.17123666 0.16677999 -0.10878718
-0.027008928 0.162342 -0.10251712
0.061342336 0.162342 -0.10584113
0.14448346 0.162342 -0.10171825
0.23321313 0.162342 -0.10672013
-0.25183401 0.20294651 -0.10720278
-0.21637851 -0.350941 -0.098616146
-0.16972467 -0.350941 -0.096142374
-0.25183401 -0.34743661 -0.093089581
0.25183401 -0.33585057 -0.094547108
0.25183401 -0.16101192 -0.091424674
0.25183401 0.033470642 -0.096112922
0.25183401 0.064028881 -0.097321808
0.25183401 0.090577006 -0.096980393
0.04083541 0.162342 -0.097122043
0.24666622 0.16677999 -0.098970197
-0.17993462 0.17417823 -0.099069029
-0.25183401 0.30613592 -0.090678275
-0.25183401 0.32663599 -0.095908724
-0.21759224 -0.350941 -0.08495333
-0.082204551 -0.350941 -0.087434597
-0.25183401 0.019225687 -0.081008844
-0.25183401 0.078156546 -0.087721288
0.022556201 0.162342 -0.082243577
0.052155286 0.162342 -0.089476898
0.2179562 0.162342 -0.083056867
-0.25183401 0.18531257 -0.089760751
-0.1920839 0.21933118 -0.087749772
-0.25183401 0.24232376 -0.083706111
-0.24636304 -0.350941 -0.076276101
-0.20928097 -0.350941 -0.075918533
0.15685675 -0.350941 -0.072993316
0.25183401 -0.31635559 -0.076772571
0.25183401 -0.29327786 -0.074380822
0.25183401 -0.16920392 -0.079520211
0.25183401 -0.1032936 -0.074245542
-0.25183401 -0.079754449 -0.070338905
-0.25183401 -0.051765524 -0.075042576
-0.25183401 0.015678605 -0.07432349
0.25183401 0.058058389 -0.075599231
-0.25183401 0.086999685 -0.071295828
0.25183401 0.084997721 -0.077604786
-0.10467281 0.16234198 -0.072002716
-0.19651912 0.23581332 -0.078570105
0.025300054 -0.350941 -0.060772091
0.1288902 -0.350941 -0.060843144
0.1738534 -0.350941 -0.061317854
-0.25183401 -0.27596229 -0.063857771
0.25183401 -0.13541396 -0.065243512
0.25183401 -0.093770884 -0.065518983
-0.25183401 -0.036023289 -0.066986755
-0.25183401 0.008797437 -0.062819138
-0.25183401 0.045752667 -0.06497094
-0.18110719 0.17853619 -0.068210393
-0.23673657 -0.350941 -0.057154257
-0.1081723 -0.350941 -0.056867205
0.24795246 -0.350941 -0.057560854
-0.25183401 -0.28823179 -0.056482315
0.25183401 -0.25081402 -0.051663291
0.25183401 -0.062914617 -0.059939731
-0.25183401 0.095645711 -0.05357717
-0.25183401 0.11460993 -0.054032199
-0.24358431 0.350941 -0.057834543
0.11529508 -0.350941 -0.044049531
0.25183401 -0.26415777 -0.041363768
0.25183401 -0.23424134 -0.046391267
0.25183401 0.011703979 -0.048501961
0.25183401 0.04185285 -0.049976461
-0.25183401 0.13052675 -0.04245187
-0.14616208 0.162342 -0.044665284
-0.24119939 0.350941 -0.041272465
-0.25047186 -0.350941 -0.037133813
-0.081978232 -0.350941 -0.031707004
0.070820317 -0.350941 -0.035191178
0.25078991 -0.350941 -0.034626
0.25183401 -0.31921259 -0.034197181
0.25183401 -0.2798852 -0.036837138
0.25183401 -0.22632042 -0.030219469
-0.25183401 -0.14212237 -0.031861573
0.25183401 -0.12662643 -0.036299132
-0.25183401 -0.09192194 -0.030114589
0.25183401 -0.075060382 -0.038378328
-0.25183401 -0.047460683 -0.035752371
-0.25183401 0.056202855 -0.039677285
-0.015567633 0.16234198 -0.032417554
-0.25183401 0.18137281 -0.031883635
-0.25183401 0.26660448 -0.039011732
-0.25183401 0.30888832 -0.032871418
-0.096429899 -0.350941 -0.026364382
-0.073110968 -0.350941 -0.022985442
0.2160798 -0.350941 -0.024151277
0.25183401 -0.26628748 -0.023493588
0.25183401 -0.1595756 -0.027891915
-0.25183401 -0.13069308 -0.021451876
0.25183401 -0.089373425 -0.027813226
-0.25183401 -0.019330576 -0.021840291
0.25183401 -0.014943175 -0.02755487
-0.25183401 0.011461943 -0.026141435
-0.25183401 0.09904594 -0.02787248
0.14062122 0.162342 -0.02417714
-0.19912273 0.24548972 -0.023442801
-0.22101296 0.32684416 -0.022408359
-0.077046096 -0.350941 -0.016522374
-0.036798812 -0.350941 -0.01137419
0.021606594 -0.350941 -0.017609462
0.25183401 -0.31521696 -0.013788007
-0.25183401 -0.18255585 -0.014579803
-0.25183401 -0.15345258 -0.016620625
0.25183401 -0.15012155 -0.012829315
0.25183401 -0.06742648 -0.018911548
-0.25183401 0.059872054 -0.018652525
0.25183401 0.15450062 -0.018550694
-0.15941337 0.162342 -0.014445551
0.036576506 0.162342 -0.011219151
0.16574234 0.162342 -0.018252015
-0.25183401 0.29524168 -0.015282974
-0.25183401 0.31123722 -0.010698192
-0.25183401 -0.2542401 -0.0084801912
0.25183401 -0.21182486 -0.0095351487
-0.25183401 -0.1813691 -0.00024093688
-0.25183401 -0.17299423 -0.0020970479
-0.25183401 -0.10726371 -0.005752936
-0.25183401 -0.040259197 -0.0063450113
0.25183401 -0.030892441 -0.0081348382
0.25183401 0.11651741 -0.0028979566
-0.25183401 0.12854193 -0.0071370192
0.080020785 0.162342 -0.0085071921
0.25183401 0.16402867 -0.00098020583
-0.25183401 0.18830891 -0.00049233437
-0.21534106 0.30576554 -0.0032834411
-0.22377932 0.33712512 -0.0028109401
-0.25183401 -0.29046965 0.007440187
0.25183401 0.059630077 0.0018927343
0.25183403 0.096881583 0.0088612717
0.25183401 0.11670422 0.00081610214
0.25183401 0.12692933 0.0028034579
-0.25183401 0.14248186 0.0073922165
-0.16393287 0.16677999 0.0050783008
-0.095928915 0.162342 0.0050359778
-0.057832886 0.162342 0.0090114772
0.22898859 0.162342 0.0087156147
0.25183401 0.16233315 0.003545031
-0.25183401 0.18723185 0.0023085624
-0.25183401 0.2164591 0.0053836927
-0.25183401 0.22239153 0.0056394041
-0.19294813 0.22254428 0.0048401915
0.096859269 -0.350941 0.014638521
0.25183401 -0.34505469 0.013417602
0.25183398 -0.33235803 0.014064893
0.25183401 -0.32185856 0.011983275
-0.25183401 -0.25662839 0.016755231
0.25183401 -0.23646832 0.017346878
0.25183401 -0.18658122 0.015412722
0.25183401 -0.13082476 0.014601469
0.25183401 -0.038926732 0.014713972
-0.25183401 0.088115029 0.013277574
0.24768029 0.10865718 0.013380694
-0.25183401 0.11054818 0.015797473
-0.10978004 0.162342 0.018009409
-0.067547418 0.162342 0.011538871
0.090302058 0.162342 0.019185411
-0.25183401 0.23684809 0.015291139
-0.25183401 0.2827794 0.018569551
-0.21470004 0.30338335 0.011285603
-0.22093377 0.32654941 0.015920885
-0.23714834 -0.350941 0.021845702
-0.046372131 -0.350941 0.025464371
0.12883642 -0.350941 0.028843019
0.14770919 -0.350941 0.025079105
-0.25183401 -0.25904351 0.020759866
-0.25183401 -0.069776118 0.021289375
-0.25183401 -0.015852338 0.022307547
0.25183401 0.021668667 0.025303401
-0.25183401 0.085494541 0.025115294
0.25183401 0.11935975 0.028451212
-0.25183401 0.14956878 0.025234826
-0.16928034 0.16677999 0.021445997
0.044389918 0.162342 0.026548566
0.17468074 0.162342 0.022619121
0.18060841 0.162342 0.028444938
-0.18662947 0.19906001 0.027683884
-0.22014423 0.32361516 0.021059591
-0.20527655 -0.350941 0.032468408
0.193235 -0.350941 0.039792016
0.23604272 -0.350941 0.031023189
0.25183401 -0.31599224 0.038744301
-0.25183401 -0.1682574 0.036652766
0.25183401 -0.16007718 0.031989135
0.25183401 -0.084278971 0.036634058
-0.25183401 -0.07731168 0.032223806
0.25096509 0.1142955 0.038056981
-0.25183401 0.14571767 0.033927977
0.032529857 0.162342 0.034513496
0.23280273 0.162342 0.030566994
-0.25183401 0.23730013 0.038960285
-0.20444249 0.26526046 0.03807658
-0.056832649 -0.350941 0.047234409
0.085961297 -0.350941 0.046061102
0.25183401 -0.23607427 0.046989866
0.25183401 -0.18532956 0.049569279
0.25183401 -0.045312092 0.045948826
0.25183401 0.035696231 0.043339528
-0.0095732193 0.16234201 0.048726469
-0.17925335 0.17164627 0.044744939
-0.12627548 -0.350941 0.053187542
-0.091744393 -0.350941 0.051072374
0.25183401 -0.3262538 0.058276691
0.25183401 -0.16688965 0.053869918
-0.25183401 -0.13477457 0.0559958
-0.25183401 -0.081574336 0.0598692
0.25183401 -0.083440863 0.054113857
0.15570444 0.16234198 0.059916187
-0.18393874 0.18905976 0.054748766
-0.18547632 0.19477426 0.059004582
-0.19530486 0.23130304 0.052847136
-0.19123201 0.28743678 0.053590212
-0.061301649 -0.350941 0.066314399
-0.0055799112 -0.350941 0.068405971
0.0098754652 -0.350941 0.067758292
0.22567879 -0.350941 0.067462549
-0.25183401 -0.3139928 0.069655925
0.25183401 -0.15164579 0.066908948
0.25183401 -0.14092086 0.068426229
-0.25183401 -0.030463308 0.068226546
0.25183401 0.010895692 0.066002354
0.25183401 0.063486561 0.06777513
0.25183401 0.10002482 0.068931669
-0.25183401 0.11214603 0.064424776
-0.15625936 0.162342 0.064932339
-0.089072287 0.162342 0.06780149
0.23689407 0.16677999 0.065747812
-0.25183401 0.22900805 0.066061974
0.037909806 -0.350941 0.077473104
0.15951028 -0.350941 0.078223847
0.22972202 -0.350941 0.077246435
0.25183401 -0.21932891 0.077086277
0.25183401 -0.098056376 0.073300719
0.25183401 -0.069931626 0.079189919
0.25183401 -0.0022976696 0.078499116
-0.25183401 0.052992128 0.072384119
-0.15819392 0.16389793 0.077978104
0.097930275 0.162342 0.073185042
0.11809076 0.162342 0.070623994
-0.25183401 0.26071891 0.076571591
-0.25183401 0.30962285 0.071325138
-0.25183401 0.31302994 0.074859284
-0.22285613 0.33369428 0.079037838
-0.042025626 -0.350941 0.080577143
0.029230822 -0.350941 0.082988158
-0.25183401 -0.28429073 0.087295644
-0.25183401 -0.18383515 0.082302786
-0.25183401 -0.12155779 0.088506967
-0.25183401 -0.064093009 0.080671906
-0.25183401 -0.017156169 0.083873466
0.25183401 0.0830677 0.089616567
0.019479956 0.162342 0.08199653
0.19951643 0.162342 0.082955934
-0.25183401 0.20013066 0.085709877
-0.23034731 0.350941 0.089451343
0.11208659 -0.350941 0.095324501
0.22115937 -0.350941 0.098785996
0.25183401 -0.3013629 0.099523634
-0.25183401 -0.15984246 0.091779552
-0.25183401 -0.13433586 0.091975808
0.25183401 -0.10072762 0.094717622
0.25183401 -0.021813087 0.094495654
0.18391529 0.16234201 0.093456253
-0.25183401 0.34384739 0.09177544
0.0017783865 -0.350941 0.10674001
0.25183401 -0.33292931 0.10324487
-0.25183401 -0.29239947 0.10320231
0.25183401 -0.16423817 0.10831849
0.25183401 -0.034557257 0.10574414
0.25183401 -0.019236013 0.10687512
0.25183401 0.093874827 0.10778937
0.029332161 0.162342 0.10095234
0.12413456 0.162342 0.10775404
-0.18471335 0.1919387 0.10692812
-0.18819505 0.20487858 0.1081392
-0.25183401 0.28424358 0.10338385
-0.25183401 0.33108115 0.10248241
-0.21815461 -0.350941 0.11770412
0.07759545 -0.350941 0.11127757
-0.25183401 -0.34232816 0.11564618
-0.25183401 -0.29924759 0.11924052
-0.25183401 -0.28119519 0.11243609
0.25183401 -0.14882797 0.11268615
0.25183401 -0.069012389 0.11141169
-0.25183401 0.044238612 0.1168858
0.25183401 0.049407043 0.11992057
-0.16111183 0.16677999 0.11000337
0.10683049 0.162342 0.11361858
0.14675127 0.16234201 0.11254504
-0.25183401 0.20225276 0.11790691
-0.18948489 0.20967235 0.1160706
-0.25183401 0.23563455 0.11096194
-0.25183401 0.3013998 0.1118629
-0.17192271 -0.350941 0.12928578
0.064614184 -0.350941 0.12639621
0.081325457 -0.350941 0.12454785
0.10104834 -0.350941 0.12198003
0.11799624 -0.350941 0.12332831
-0.25183401 -0.32111046 0.1237272
0.25183401 -0.31518215 0.12330743
0.25183401 -0.2364558 0.12599355
-0.25183401 -0.21731803 0.12777521
-0.25183401 -0.15491319 0.12072704
-0.25183401 -0.12532628 0.12487035
-0.25183401 -0.081659451 0.12593752
-0.25183401 0.044840328 0.12846486
-0.25183401 0.087634772 0.12056076
0.25183401 0.1068935 0.12570912
-0.081985712 0.162342 0.12928997
0.1126534 0.162342 0.12714562
0.15560701 0.162342 0.12270699
-0.25183401 0.26611763 0.12352026
-0.210242 0.28681627 0.12913609
-0.25183401 0.30369243 0.1267052
-0.25183401 0.33494526 0.12410913
-0.011369705 -0.350941 0.13131566
0.22895777 -0.350941 0.1378279
0.25183401 -0.29891089 0.13670546
-0.25183401 -0.28405184 0.13840218
-0.25183401 -0.18917 0.13683251
-0.25183401 -0.10327606 0.13983567
-0.25183401 0.07687296 0.13397008
-0.25183401 0.1015415 0.13103664
0.10462257 0.162342 0.13468078
-0.1886124 0.24868162 0.13954391
-0.1964547 0.27782708 0.13132596
-0.2059277 -0.350941 0.14256079
-0.10437418 -0.350941 0.1446746
-0.25183401 -0.33721533 0.14841604
0.25183401 -0.28356835 0.14458621
-0.25183401 -0.27231008 0.14457992
-0.25183401 -0.20421229 0.14934731
0.25183401 -0.067366719 0.14382321
-0.25183401 -0.039676361 0.14763466
-0.25183401 0.15945408 0.14691395
0.086623393 0.162342 0.14390174
0.20565927 0.162342 0.14128996
-0.19114012 0.21582393 0.14715138
-0.10565361 -0.35094103 0.15858684
0.099823207 -0.350941 0.15050894
-0.25183401 -0.31453326 0.15838006
-0.25183401 -0.28859484 0.15340173
0.25183401 -0.2508553 0.15598461
-0.25183401 -0.24085414 0.15032411
-0.25183401 -0.098671749 0.15030685
-0.25183401 -0.038408287 0.15113929
-0.13363846 0.162342 0.15158701
-0.1035779 0.16234201 0.15545303
-0.043350015 0.162342 0.15257257
0.09017919 0.16234198 0.15600809
0.18648323 0.162342 0.15728782
-0.25183401 0.23028645 0.15392908
-0.25183401 0.2583341 0.15255454
-0.22585574 0.34484166 0.15115148
0.045772221 -0.350941 0.16377145
0.25183401 -0.3121936 0.16803515
-0.25183401 -0.27546489 0.16785347
0.25183401 -0.22713843 0.16583365
-0.25183401 -0.13097744 0.16304213
0.25183401 -0.092476256 0.16081411
0.25183401 -0.082859062 0.16359946
-0.25183401 0.027258042 0.1617315
0.25183401 0.080363981 0.16042025
0.25183401 0.099437274 0.16344061
0.25183401 0.14938812 0.16557527
-0.091320582 0.162342 0.1634243
-0.080273703 0.16234201 0.16086319
-0.061937589 0.162342 0.16664356
-0.18234827 0.18314865 0.16253211
-0.25183403 0.20273511 0.16254561
-0.18237796 0.22551313 0.16345246
-0.12978846 -0.350941 0.170844
-0.25183401 -0.19965965 0.17769825
0.25183401 -0.13227184 0.17562374
0.25183401 0.049436081 0.17016834
-0.023268647 0.16234198 0.17317481
0.083492033 0.162342 0.17661016
0.16619557 0.162342 0.17140277
-0.18520305 0.19375858 0.17041919
-0.21244121 0.32268888 0.17226158
-0.18420894 -0.350941 0.18628828
-0.10811562 -0.350941 0.18351865
-0.037462853 -0.350941 0.1805187
0.2004064 -0.350941 0.18517381
0.21421465 -0.350941 0.18998504
0.22794229 -0.350941 0.18528789
0.25183401 -0.25862932 0.18381369
-0.25183401 -0.24176377 0.18186636
-0.25183401 -0.0080232173 0.18664318
-0.25183401 0.027972043 0.18040323
-0.25183401 0.16501763 0.18703653
-0.11277469 0.162342 0.1819315
-0.084417582 0.162342 0.18578121
-0.02413018 0.162342 0.18819736
0.15295762 0.162342 0.18638231
0.16301131 0.162342 0.18652608
0.17664802 0.16234201 0.18238306
0.20243664 0.162342 0.1873614
-0.25183401 0.20983638 0.18299933
-0.18997969 0.22210568 0.18926451
-0.20274474 0.30120391 0.18420053
-0.25183401 0.32725739 0.18823573
-0.10576838 -0.350941 0.1987426
0.028843708 -0.350941 0.19133514
0.17605877 -0.350941 0.19151795
0.19230278 -0.350941 0.19735475
-0.25183401 -0.30286688 0.19896844
0.25183401 -0.30627814 0.19438985
-0.25183401 -0.16851915 0.1914978
0.25183401 -0.13436663 0.19967139
0.25183401 0.090735719 0.19236717
0.063264996 0.162342 0.19546427
0.071371667 0.162342 0.19989204
0.23703599 0.16677999 0.19292299
-0.18081957 0.17746718 0.19829142
-0.25183401 0.27179825 0.19873059
-0.25183401 0.32385626 0.19850074
0.25183401 -0.25129953 0.20768949
-0.13745521 0.162342 0.20747818
-0.041647833 0.16234198 0.20885384
0.1004249 0.16234201 0.20636557
0.14376801 0.16234198 0.20443344
0.19952482 0.162342 0.20239416
0.23522359 0.16677999 0.20429136
0.25183401 0.16528104 0.20908968
-0.25183401 0.21221155 0.20833138
-0.22259586 0.33272704 0.20431584
-0.017360896 -0.350941 0.21662632
-0.25183401 -0.19438182 0.21955889
-0.25183401 -0.15165703 0.21621314
-0.25183401 -0.1124361 0.21578288
0.25183401 0.021265095 0.21195018
-0.25183401 0.072849214 0.2152973
0.25183401 0.070076935 0.21667732
-0.25183401 0.087735325 0.21299428
-0.17841083 0.16851498 0.21661635
-0.092099056 0.16234201 0.21216236
0.055225655 0.162342 0.21865253
0.20731542 0.162342 0.2130155
-0.18252431 0.18380304 0.21979792
-0.25183401 0.27011922 0.21146676
-0.12458038 -0.350941 0.22825012
0.11108512 -0.350941 0.22574034
0.25183401 -0.17496578 0.22161037
-0.25183401 0.0079644509 0.22545895
0.25183401 0.021013595 0.22241144
-0.25183401 0.081727564 0.22217113
-0.25183401 0.2276988 0.22817913
-0.19955741 0.24710639 0.22627872
-0.19342133 0.26655608 0.22551915
-0.23157784 -0.350941 0.23601073
0.037281215 -0.350941 0.23801704
0.053495444 -0.350941 0.2382485
-0.25183401 -0.26273105 0.23423825
-0.25183401 -0.22486115 0.23866636
-0.25183401 -0.13989404 0.23562607
-0.25183401 -0.031297043 0.23512974
-0.15348679 0.16677999 0.23519878
-0.11812834 0.16677999 0.23989516
0.1817362 0.16284433 0.23377
-0.25183401 0.22748944 0.23481545
-0.25183401 0.25546533 0.23579282
-0.20336585 0.26125771 0.23365006
-0.22178347 0.32970691 0.23624712
-0.20461512 -0.350941 0.24799804
-0.033828117 -0.350941 0.24983808
0.1909872 -0.350941 0.24498251
-0.25183401 0.071846202 0.24082348
-0.25183401 0.090299353 0.24261668
-0.25183401 0.10830767 0.24106902
-0.25183401 0.24897224 0.24162427
-0.14401717 -0.350941 0.2504155
0.20259264 -0.350941 0.2505306
-0.25154558 -0.34992942 0.25183401
-0.14779632 -0.3405109 0.25183401
-0.13111684 -0.3454372 0.25183401
0.15494272 -0.3247878 0.25183401
-0.14047594 -0.31037566 0.25183401
0.053048968 -0.31319815 0.25183403
0.17167549 -0.31800902 0.25183401
-0.25183401 -0.30669504 0.25099722
-0.15337114 -0.30832109 0.25183401
-0.12448202 -0.3033331 0.25183401
-0.052682586 -0.30703399 0.25183401
-0.24314256 -0.28333911 0.25183401
-0.13256527 -0.28170002 0.25183401
0.18126391 -0.28494206 0.25183401
-0.1559127 -0.2739155 0.25183401
0.059353571 -0.2779434 0.25183401
0.24968354 -0.27487963 0.25183401
0.18587044 -0.2674064 0.25183401
-0.15625447 -0.25240475 0.25183401
0.026586777 -0.25478125 0.25183401
-0.010388128 -0.24221452 0.25183401
0.22946495 -0.24900615 0.25183401
0.00062165409 -0.23816228 0.25183401
0.051740788 -0.23441017 0.25183401
0.25183401 -0.23488817 0.25180215
-0.18613707 -0.22818214 0.25183401
0.052821793 -0.22941217 0.25183401
0.063992128 -0.22821376 0.25183401
0.098950997 -0.22912294 0.25183401
-0.030084133 -0.21513864 0.25183401
0.11176696 -0.21744883 0.25183401
-0.24553022 -0.20069295 0.25183401
-0.14548618 -0.20026211 0.25183401
0.015107978 -0.20486636 0.25183401
-0.24987489 -0.19865809 0.25183401
-0.18013598 -0.19714649 0.25183401
0.0015052967 -0.19713524 0.25183401
0.1831328 -0.19078091 0.25183401
-0.16383576 -0.18081932 0.25183401
0.019001354 -0.18822123 0.25183401
0.17118499 -0.18116961 0.25183401
-0.22503048 -0.17434254 0.25183401
-0.19981408 -0.17874429 0.25183401
-0.10937248 -0.1733655 0.25183401
0.024930719 -0.17639996 0.25183401
0.20412073 -0.17890543 0.25183401
-0.050487757 -0.16986649 0.25183401
0.2211328 -0.15239511 0.25183401
-0.11165948 -0.14759699 0.25183401
-0.020719126 -0.1329917 0.25183401
0.011970997 -0.13329169 0.25183401
0.11956396 -0.13240445 0.25183401
0.16813324 -0.13603438 0.25183401
-0.13580132 -0.1207662 0.25183401
0.094259113 -0.12254174 0.25183401
0.24129558 -0.127303 0.25183401
-0.2265925 -0.11116997 0.25183401
-0.17472233 -0.1128187 0.25183401
0.026985578 -0.11579922 0.25183401
-0.20840655 -0.10274365 0.25183401
-0.18547687 -0.10917994 0.25183401
-0.14705268 -0.10532773 0.25183398
-0.099909544 -0.10274333 0.25183401
-0.026891738 -0.10890053 0.25183401
0.043141015 -0.10336811 0.25183401
0.13489702 -0.10869446 0.25183401
0.050340541 -0.093089707 0.25183401
-0.10034933 -0.080326334 0.25183401
-0.052758813 -0.083999224 0.25183401
0.089044333 -0.082758382 0.25183401
0.010560133 -0.07493683 0.25183401
0.047391981 -0.071187697 0.25183401
0.10475671 -0.07827723 0.25183401
-0.11043513 -0.065448329 0.25183401
-0.011328876 -0.063796125 0.25183401
-0.0067578256 -0.063468717 0.25183401
0.040456474 -0.062629327 0.25183401
-0.04582762 -0.058881514 0.25183401
0.033841372 -0.052468248 0.25183401
0.1531857 -0.051243342 0.25183401
0.2129952 -0.051577382 0.25183401
-0.088633657 -0.047009669 0.25183401
0.14613611 -0.041436151 0.25183401
-0.11870295 -0.037066393 0.25183401
0.18110344 -0.037627228 0.25183401
-0.11225792 -0.024058044 0.25183401
-0.090824008 -0.028416172 0.25183401
-0.040965747 -0.026966877 0.25183401
0.0056158118 -0.029125083 0.25183401
0.2496711 -0.02793704 0.25183401
-0.13917175 -0.017664492 0.25183401
-0.08236929 -0.010252751 0.25183401
0.057360239 -0.012815587 0.25183401
0.094165735 -0.014197406 0.25183401
-0.027323112 -0.0045511909 0.25183401
0.0090524442 -0.0084950682 0.25183401
0.013162611 -0.004675176 0.25183401
0.1257493 -0.0067269485 0.25183401
0.15631436 -0.007429108 0.25183401
-0.16350286 0.0066086799 0.25183401
-0.023495417 0.0061508641 0.25183401
0.055354439 0.005910255 0.25183401
0.15916856 0.0016642585 0.25183401
0.25183401 0.004298076 0.2501041
-0.18626811 0.012980737 0.25183401
-0.04415594 0.028734859 0.25183401
-0.010111406 0.02902364 0.25183401
0.042740598 0.022202693 0.25183401
0.15376964 0.027751863 0.25183401
-0.087538615 0.035818875 0.25183401
0.049265064 0.032324545 0.25183401
0.14872245 0.030875832 0.25183401
-0.21094638 0.044818804 0.25183401
-0.20860146 0.040542234 0.25183401
-0.04156654 0.041644551 0.25183401
0.03706722 0.043920036 0.25183401
0.080385044 0.041234471 0.25183401
0.20713903 0.044980276 0.25183401
0.13882406 0.05028503 0.25183401
0.22704956 0.055458985 0.25183401
-0.23377605 0.064319171 0.25183401
-0.17085287 0.063653603 0.25183401
0.03207124 0.067552723 0.25183401
0.19953269 0.066952214 0.25183401
-0.22587624 0.089997128 0.25183401
-0.19995652 0.08405751 0.25183401
0.075430065 0.08726383 0.25183401
0.11754043 0.08136861 0.25183401
0.17300063 0.082227483 0.25183401
-0.20805332 0.095003948 0.25183401
-0.13993119 0.090524092 0.25183401
-0.085567385 0.092548795 0.25183403
-0.02840979 0.094168469 0.25183401
-0.22858229 0.10567603 0.25183401
-0.16100544 0.10673553 0.25183401
-0.15668623 0.10670872 0.25183401
-0.05270711 0.10829671 0.25183401
0.047185719 0.10927803 0.25183401
-0.12758462 0.11907974 0.25183401
-0.11451769 0.11856607 0.25183401
-0.00398672 0.12599872 0.25183401
0.074973106 0.12883845 0.25183401
0.10318945 0.12682986 0.25183401
0.20046504 0.12359157 0.25183401
-0.07272882 0.13360438 0.25183401
0.013741843 0.13900074 0.25183401
0.08020591 0.1463016 0.25183401
-0.1139888 0.15307413 0.25183401
0.18439451 0.1520669 0.25183401
0.0051533058 0.1646149 0.25183401
0.036121279 0.16677999 0.2509447
0.067663416 0.16441256 0.25183401
0.23344621 0.16485676 0.25183401
-0.19589052 0.17511606 0.25183401
-0.24827833 0.1971156 0.25183401
-0.25183401 0.20973456 0.25138676
-0.24269742 0.22299781 0.25183401
-0.2337687 0.22972928 0.25183401
-0.25183401 0.24538992 0.25178543
-0.20812793 0.24329436 0.25183401
-0.2021669 0.25407857 0.25183401
-0.23801664 0.31848407 0.25183401
