# .PCD v0.7 - Point Cloud Data file format
VERSION 0.7
FIELDS x y z
SIZE 4 4 4
TYPE F F F
COUNT 1 1 1
WIDTH 976
HEIGHT 1
VIEWPOINT 0 0 0 1 0 0 0
POINTS 976
DATA ascii
-0.15030804 -0.27449793 -0.37537101
-0.060387451 -0.27210766 -0.37537101
0.077988386 -0.26279551 -0.37537101
0.12697689 -0.2682825 -0.37537101
-0.11421564 -0.25868833 -0.37537101
0.097853683 -0.25103736 -0.37537101
-0.15298483 -0.24586779 -0.37537101
-0.11938436 -0.23567265 -0.37537101
-0.029260583 -0.23232892 -0.37537101
0.0041530356 -0.23857731 -0.37537101
0.013679326 -0.2270453 -0.37537101
-0.11390238 -0.20884614 -0.37537101
-0.14778966 -0.19026153 -0.37537101
-0.13697056 -0.19785836 -0.37537101
-0.0080370344 -0.18326104 -0.37537101
0.16400044 -0.18557443 -0.37537101
-0.086379319 -0.17980383 -0.37537101
-0.036380053 -0.17099628 -0.37537101
0.14007048 -0.17790654 -0.37537098
-0.14951874 -0.15441921 -0.37537098
-0.1600911 -0.14680913 -0.37537101
0.047611009 -0.14957237 -0.37537101
0.10743146 -0.14974192 -0.37537101
-0.091670945 -0.13279019 -0.37537101
-0.043942928 -0.12297949 -0.37537101
-0.0022184309 -0.1272666 -0.37537101
-0.10347926 -0.10262489 -0.37537101
0.031040251 -0.10277448 -0.37537101
-0.0052531585 -0.098849803 -0.37537098
0.15200678 -0.0830933 -0.37537101
0.087505825 -0.078705899 -0.37537101
0.14800496 -0.070825823 -0.37537101
-0.017226974 -0.060268089 -0.37537101
0.065488294 -0.061538357 -0.37537101
0.12986879 -0.062314935 -0.37537101
-0.16397163 -0.05610162 -0.37537101
0.13275903 -0.046263769 -0.37537101
-0.15983488 -0.035793826 -0.37537101
0.015533758 -0.038684469 -0.37537101
0.057498228 -0.039890058 -0.37537101
0.12954244 -0.039530374 -0.37537101
0.058085993 -0.022339147 -0.37537101
-0.12328285 -0.018607408 -0.37537101
0.095394462 -0.013514865 -0.37537101
0.11616734 -0.014436733 -0.37537101
0.14720088 -0.010670789 -0.37537104
-0.022496082 -0.0066728448 -0.37537101
0.053139426 -0.0088524679 -0.37537101
-0.097177967 0.0035761185 -0.37537104
0.0042091198 0.0043049529 -0.37537101
-0.052978791 0.019249685 -0.37537101
0.15608065 0.019953486 -0.37537104
0.12321401 0.026108827 -0.37537101
-0.045240276 0.030497156 -0.37537101
0.071019009 0.037497334 -0.37537101
-0.13922399 0.058617868 -0.37537098
0.011076359 0.056009993 -0.37537101
-0.090619043 0.066271991 -0.37537101
-0.13417745 0.071251139 -0.37537101
-0.0016928837 0.078202531 -0.37537101
0.0064001121 0.08831545 -0.37537104
-0.10404892 0.09996821 -0.37537101
-0.11412898 0.11285724 -0.37537101
0.11256206 0.11226337 -0.37537098
0.13232461 0.11456725 -0.37537104
-0.13734463 0.12476322 -0.37537101
-0.09797065 0.12001278 -0.37537098
0.11040652 0.12754913 -0.37537098
-0.16045412 0.15003115 -0.37537101
-0.14330994 0.15639736 -0.37537101
-0.034218483 0.15640157 -0.37537101
0.04498744 0.16324288 -0.37537101
0.050951645 0.16526626 -0.37537104
0.14433077 0.1603916 -0.37537101
-0.13360821 0.17699622 -0.37537101
0.014278665 0.17879441 -0.37537098
0.12457355 0.17651807 -0.37537101
-0.059229076 0.18519002 -0.37387288
0.010678452 0.18497822 -0.37537101
-0.1206174 0.20708594 -0.37537098
-0.15490636 0.2153147 -0.37537101
-0.16200712 0.28265801 -0.37514794
-0.036489464 -0.28265801 -0.36936885
0.0052571716 -0.28265801 -0.36666983
0.0120955 -0.28265801 -0.36098972
-0.170884 -0.26865542 -0.363231
0.167006 -0.2648522 -0.36397448
0.167006 -0.25864792 -0.36870468
-0.170884 -0.20379862 -0.36351487
0.167006 -0.18205747 -0.36522281
0.167006 -0.17130095 -0.36728963
-0.170884 -0.14701572 -0.36796874
-0.170884 -0.063747093 -0.36122969
-0.170884 -0.021002017 -0.36877203
-0.170884 0.030881651 -0.36407959
0.063556328 0.165696 -0.36065984
0.051873777 0.18519001 -0.3680293
-0.170884 0.24797551 -0.36544263
0.1615458 -0.28265801 -0.35333782
-0.170884 -0.26636386 -0.35803109
-0.17088398 -0.19419399 -0.3529239
0.167006 0.061131909 -0.3589969
-0.1048952 0.165696 -0.35154673
-0.13788307 0.26759917 -0.3590624
-0.13281886 -0.28265801 -0.341896
0.03737729 -0.28265801 -0.34354347
0.074552096 -0.28265798 -0.34308061
0.167006 -0.14244173 -0.34743223
-0.13541867 0.165696 -0.34477252
0.07679224 0.18519001 -0.34522229
0.167006 -0.10418674 -0.33644819
0.167006 -0.034002595 -0.33354327
0.167006 0.04334924 -0.33682451
0.167006 0.10112975 -0.33085397
-0.170884 0.16976632 -0.33602929
0.094966114 0.165696 -0.33837691
-0.094304413 0.18518999 -0.33926049
-0.11370418 0.21565239 -0.33897576
0.02314922 -0.28265801 -0.3248229
0.05730556 -0.28265801 -0.32407761
0.098560981 -0.28265801 -0.32957676
0.16700602 -0.1343414 -0.32677442
-0.170884 -0.081442058 -0.32777792
0.082547262 0.165696 -0.32460111
-0.096064672 0.18519001 -0.3272661
-0.055995695 0.18519002 -0.32045093
-0.11881339 0.2420267 -0.32799798
-0.170884 0.27893293 -0.32764068
-0.15082954 -0.28265801 -0.31385008
0.167006 0.08643268 -0.31198201
0.12068108 0.165696 -0.31170413
0.13103855 0.18519002 -0.31081468
0.16700599 0.18313088 -0.31685439
-0.10679618 -0.28265801 -0.308588
0.10739917 -0.28265801 -0.30824569
0.167006 -0.23190223 -0.30517033
-0.170884 -0.12698308 -0.3092199
0.16700602 0.10910615 -0.30659869
-0.086373009 0.18519001 -0.3085832
-0.051255271 0.18519001 -0.30243328
-0.02875495 0.18519001 -0.30529535
-0.170884 0.24533695 -0.30814067
-0.17032531 -0.28265804 -0.2961576
-0.074273907 -0.28265801 -0.29417214
-0.052170444 -0.28265801 -0.29013324
-0.170884 -0.15751263 -0.29918301
0.16700602 -0.13264702 -0.29814839
-0.170884 0.10115844 -0.29812679
0.020821869 0.165696 -0.29630193
-0.17088398 0.21677296 -0.2906003
0.025658373 -0.28265801 -0.2890664
0.068303049 -0.28265801 -0.28608733
-0.170884 -0.27763972 -0.28290233
-0.170884 -0.21227901 -0.2834647
0.167006 -0.18833703 -0.2841261
-0.170884 -0.11446107 -0.28391814
-0.17088401 -0.061449919 -0.28955591
0.167006 -0.015398961 -0.2839579
-0.170884 0.040475734 -0.28403392
0.16700599 0.097380385 -0.28418964
-0.0098742731 0.165696 -0.28158677
-0.089410856 0.18519001 -0.28471011
-0.16414282 0.28265801 -0.28416049
0.0072258301 -0.28265801 -0.27410877
0.070336491 -0.28265801 -0.27247721
0.13234161 -0.28265801 -0.27303511
0.14073378 -0.28265804 -0.27281848
-0.170884 -0.25101167 -0.27785867
-0.170884 0.25829342 -0.27964264
-0.084441632 -0.28265801 -0.26311919
-0.05521401 -0.28265801 -0.26805982
-0.17088398 -0.20518227 -0.2688376
-0.170884 -0.1861361 -0.2676118
0.16700602 -0.0040027611 -0.26578593
0.167006 0.025836021 -0.26133776
-0.170884 0.12520921 -0.26915461
0.16611259 0.165696 -0.26029181
-0.13147847 0.25383878 -0.26389128
-0.170884 -0.20479429 -0.25530005
0.167006 -0.0048274398 -0.25806886
0.16700599 0.011208113 -0.25849211
0.167006 0.10467481 -0.25950775
0.078073733 0.165696 -0.25097862
-0.170884 0.2546064 -0.25069094
-0.14860073 0.28265801 -0.25773516
0.14652328 -0.28265801 -0.24568251
-0.17088401 -0.22254151 -0.24675116
-0.170884 -0.1986798 -0.24923804
-0.170884 -0.03902141 -0.24745896
0.16700602 0.010559384 -0.24443002
-0.170884 0.12523174 -0.24671692
0.056162208 0.165696 -0.24356326
0.039912291 0.18519001 -0.2412775
-0.170884 0.21744619 -0.24078552
-0.12686609 0.24393031 -0.24828051
-0.13565314 0.26280814 -0.24540874
-0.025640763 -0.28265801 -0.23214634
-0.170884 -0.14021218 -0.23175696
0.167006 -0.064098693 -0.23345649
0.167006 0.023428379 -0.23972437
-0.17088401 0.098792955 -0.23422487
0.167006 0.09182208 -0.23342605
-0.170884 0.16359499 -0.23245518
0.076683305 0.165696 -0.23913687
0.13984728 0.18519001 -0.23499846
0.167006 0.18088131 -0.23553281
0.15427911 -0.28265801 -0.22251379
-0.170884 -0.23266393 -0.22598426
0.167006 0.043386254 -0.22157615
-0.14469805 0.165696 -0.22591391
0.040357463 0.165696 -0.22689311
0.13836566 0.18519001 -0.22998285
-0.16712108 0.28265801 -0.22552037
-0.15866783 -0.28265798 -0.21106479
0.16120915 -0.28265804 -0.21236166
0.16700602 -0.26443118 -0.21398352
-0.170884 -0.01540911 -0.21536951
0.167006 0.083009243 -0.219477
0.167006 0.10722562 -0.21460882
-0.097409397 0.18519001 -0.21219601
0.045951445 0.18519001 -0.21872799
0.07714963 0.18519001 -0.21729645
0.083235398 0.18519001 -0.2131657
-0.10442218 0.19571161 -0.21597537
0.167006 -0.27927512 -0.20715515
0.16700599 -0.25318882 -0.20890652
-0.17088401 -0.098369218 -0.20659068
-0.170884 -0.032420896 -0.20085154
0.167006 0.076846302 -0.20984615
-0.170884 0.18342289 -0.20879757
-0.063957117 0.18519001 -0.20953952
0.13945505 0.18519001 -0.20826793
-0.170884 0.22897463 -0.2039098
-0.11970536 -0.28265801 -0.19721666
-0.170884 -0.27130544 -0.19545433
-0.170884 0.0015408471 -0.19392717
0.167006 0.070286267 -0.19434403
0.083062269 0.165696 -0.195775
0.10955617 0.165696 -0.19651152
-0.12281941 0.23523517 -0.19490047
-0.17088401 -0.25477254 -0.18752903
0.167006 -0.19737603 -0.18064749
-0.17088398 0.011734022 -0.1838942
-0.170884 0.11504079 -0.18829904
0.13782187 0.165696 -0.18414101
0.14122429 0.165696 -0.1846116
0.054802395 0.18519001 -0.18549401
-0.170884 0.21438169 -0.18730186
0.02134978 -0.28265801 -0.17302459
0.037378538 -0.28265801 -0.172571
0.10673302 -0.28265801 -0.17385447
-0.17088398 -0.25268561 -0.17480339
0.167006 -0.22549954 -0.17131251
0.167006 -0.213209 -0.17742759
0.16700602 -0.14160866 -0.17232898
-0.170884 -0.13591272 -0.17713881
0.167006 -0.097951561 -0.17991589
-0.16954502 0.165696 -0.17497103
0.167006 0.16087884 -0.17893377
-0.034436844 0.18519001 -0.17983441
0.024345566 0.18519001 -0.1722853
0.097092897 0.18518999 -0.17896977
-0.12254229 0.23463964 -0.17744318
-0.076679744 -0.28265801 -0.16938142
-0.049623396 -0.28265801 -0.16463602
0.167006 -0.24532467 -0.16264236
0.167006 -0.23826706 -0.16882987
-0.17088398 -0.13897617 -0.16962674
-0.17088401 -0.11934444 -0.16908702
0.167006 -0.10683955 -0.16333403
0.167006 -0.038383726 -0.16745493
-0.170884 0.055730313 -0.16165152
-0.170884 0.12828025 -0.16858041
0.073786102 0.18519001 -0.16475539
0.063434683 -0.28265801 -0.15582457
-0.170884 -0.25866294 -0.1541402
0.167006 -0.2433854 -0.15382595
-0.170884 -0.11251771 -0.15785435
-0.170884 -0.073972456 -0.15404654
-0.170884 -0.034814052 -0.15327784
0.167006 0.060580887 -0.15217194
0.167006 0.13684922 -0.15899062
0.16015673 0.165696 -0.15470879
-0.11056052 0.20889869 -0.15283154
-0.08048813 -0.28265801 -0.14920413
0.11856539 -0.28265801 -0.1409362
-0.170884 -0.23277745 -0.14345634
0.167006 -0.068014227 -0.14940315
-0.018763533 0.165696 -0.14486018
-0.038466379 0.18519001 -0.14595574
-0.170884 0.25128523 -0.14371905
-0.14155802 -0.28265801 -0.13304158
-0.031433292 -0.28265801 -0.13335186
0.10198504 -0.28265801 -0.13989681
-0.17088398 -0.1768565 -0.13739543
-0.170884 -0.16018565 -0.13042636
-0.170884 -0.081930354 -0.13895924
-0.170884 -0.067355841 -0.13685481
0.167006 0.082414515 -0.1319062
-0.170884 0.16023584 -0.13536289
-0.13847449 0.165696 -0.13850671
0.032323342 0.165696 -0.13601351
0.16700602 0.17584507 -0.13110517
-0.17088398 0.27454498 -0.13727495
0.018840108 -0.28265801 -0.12247273
0.167006 -0.13385069 -0.12101632
0.167006 -0.11873364 -0.12511367
0.167006 -0.019667529 -0.1218237
0.16700602 0.069667451 -0.1201766
-0.12304151 0.165696 -0.12414676
0.13652687 0.165696 -0.12258241
0.00042306259 0.18519001 -0.12240551
-0.11812223 0.22514318 -0.12272033
-0.14758945 -0.28265798 -0.11893207
-0.1054868 -0.28265801 -0.11257401
-0.098917663 -0.28265801 -0.11556923
-0.023477318 -0.28265801 -0.11784983
0.13846692 -0.28265801 -0.11587784
0.167006 -0.11117195 -0.11075997
-0.17088401 -0.037271403 -0.11810529
0.16700602 -0.036584511 -0.1137953
-0.170884 0.16824192 -0.11694905
-0.019731969 0.18519001 -0.11494955
-0.00045178086 0.18519001 -0.11187295
-0.14056462 -0.28265801 -0.10429461
0.11692916 0.165696 -0.10524368
-0.087418973 0.18519001 -0.10390896
0.039757311 0.18519002 -0.10844577
0.167006 -0.27784202 -0.093752481
0.16700602 -0.17503414 -0.094068974
0.167006 -0.14513493 -0.091515183
-0.17088401 -0.046996776 -0.096829377
-0.11360644 0.21544185 -0.097887725
-0.13452668 0.26038861 -0.097443089
0.022833873 -0.28265801 -0.083075315
0.047029201 0.165696 -0.082909733
0.167006 0.16834009 -0.08949814
0.087129831 0.18518999 -0.089088164
-0.14780928 0.28265801 -0.085296027
-0.13244197 -0.28265801 -0.076167859
-0.083495945 -0.28265801 -0.071552783
-0.045173176 -0.28265801 -0.073697887
0.16700602 -0.26716176 -0.077516884
0.16700599 -0.18214603 -0.079114109
0.167006 -0.11562511 -0.075916633
-0.170884 0.048159994 -0.07720568
-0.170884 0.10220078 -0.074945956
0.027612008 0.165696 -0.074119359
0.081616513 0.165696 -0.078022428
-0.072310179 0.18519001 -0.070924923
0.11914817 0.18519001 -0.070845455
-0.13943936 0.27094331 -0.079445079
-0.170884 -0.28154966 -0.067298099
-0.14743076 -0.28265801 -0.065198734
-0.065860927 -0.28265801 -0.064122476
0.07100863 -0.28265801 -0.066287331
-0.170884 -0.2035545 -0.068356827
0.167006 0.017852135 -0.0651737
-0.047829725 0.165696 -0.06825383
-0.170884 0.18424796 -0.069532499
-0.083744936 0.18519001 -0.062217496
-0.059425931 0.18519001 -0.066505216
0.018477209 0.18519001 -0.066632569
-0.1156085 -0.28265801 -0.057162412
-0.02954342 -0.28265801 -0.052124925
0.030585196 -0.28265801 -0.057123575
0.13146594 -0.28265801 -0.053756375
0.167006 -0.25849703 -0.056814272
0.167006 -0.069018364 -0.054022729
0.167006 -0.052869245 -0.059221536
0.167006 -0.028993584 -0.054538645
0.167006 0.035487507 -0.057677947
-0.17088401 0.10969552 -0.0524331
-0.170884 0.16430944 -0.05503232
-0.11655116 0.165696 -0.053087175
-0.10773344 0.165696 -0.057915673
-0.055994861 0.165696 -0.051342722
-0.07880649 -0.28265801 -0.049218349
-0.051907476 -0.28265801 -0.048478186
0.03426332 -0.28265801 -0.040612526
0.167006 -0.17098087 -0.040694814
-0.17088398 -0.016293719 -0.043341417
-0.170884 0.034691043 -0.041551642
0.167006 0.084323078 -0.041017629
-0.170884 0.13889356 -0.04863698
-0.058930665 0.165696 -0.048340298
-0.025043231 0.18519001 -0.042663831
-0.11906474 -0.28265801 -0.033774555
-0.023305893 -0.28265798 -0.035951547
0.034370411 -0.28265801 -0.038364641
0.11563621 -0.28265801 -0.034457203
0.15276536 -0.28265801 -0.03797026
-0.170884 -0.19727099 -0.039105922
-0.170884 -0.13125966 -0.039185092
0.167006 0.14615521 -0.030856136
0.090368479 0.165696 -0.034184199
0.1099082 0.165696 -0.035387669
0.014012255 0.18519001 -0.034111135
0.054860201 0.18519001 -0.033949897
0.0044397041 -0.28265801 -0.029480493
-0.095515519 -0.27101851 -0.024485398
0.032648176 -0.27868724 -0.0244854
0.10200565 -0.27348226 -0.024485398
-0.10482933 -0.26770499 -0.0244854
0.045742285 -0.26707768 -0.024485398
0.167006 -0.26129228 -0.027836908
-0.14499328 -0.25722864 -0.0244854
0.13626003 -0.25739002 -0.0244854
-0.049440142 -0.24604383 -0.024485402
0.032771759 -0.24177371 -0.0244854
-0.12401306 -0.22706835 -0.0244854
-0.10655714 -0.22300015 -0.024485402
0.1129019 -0.22309449 -0.0244854
-0.078888074 -0.21279824 -0.0244854
0.023571711 -0.21794221 -0.024485398
-0.13868317 -0.20710132 -0.024485398
-0.066820242 -0.1904701 -0.0244854
0.051279526 -0.19753513 -0.0244854
0.11062868 -0.19585131 -0.024485398
-0.13730797 -0.18507239 -0.0244854
-0.12218197 -0.18041463 -0.0244854
-0.021320015 -0.17089139 -0.0244854
0.1195558 -0.17273332 -0.024485402
0.00833588 -0.16392478 -0.0244854
0.063666686 -0.16506475 -0.024485402
0.10892221 -0.16755007 -0.0244854
0.011611206 -0.15221128 -0.0244854
0.037268259 -0.15472579 -0.024485402
0.15037914 -0.14007446 -0.024485398
0.0058474839 -0.13323087 -0.024485402
0.085623764 -0.12350604 -0.0244854
0.028912686 -0.11339552 -0.024485402
-0.070357516 -0.10946929 -0.0244854
0.1515038 -0.10868745 -0.0244854
0.11264769 -0.098990001 -0.0244854
0.07659775 -0.081506476 -0.0244854
-0.170884 -0.074711256 -0.029093411
0.027466364 -0.06831935 -0.0244854
0.014712621 -0.053159121 -0.0244854
0.071056813 -0.05874176 -0.0244854
-0.12433162 -0.041004665 -0.024485402
0.12449577 -0.043153111 -0.0244854
-0.017431498 -0.033387635 -0.0244854
0.066258416 -0.037922405 -0.024485398
0.11339682 -0.036123425 -0.0244854
-0.089822426 -0.027883232 -0.0244854
0.035686009 -0.025522396 -0.0244854
-0.095852017 -0.010840818 -0.0244854
-0.085219406 -0.014296927 -0.0244854
0.019568108 -0.011694487 -0.0244854
0.02060508 -0.015618213 -0.0244854
-0.170884 -0.0031324639 -0.02770189
0.039943159 -0.0086123161 -0.024485398
-0.15309693 0.01308696 -0.024485402
0.022568369 0.020770758 -0.0244854
-0.13879818 0.036476038 -0.024485402
0.13468874 0.038362123 -0.0244854
0.070629314 0.06245264 -0.0244854
0.15687776 0.062604651 -0.0244854
-0.12600856 0.07099463 -0.024485402
-0.049439237 0.072730489 -0.0244854
-0.024322521 0.072541147 -0.0244854
0.053208627 0.078639403 -0.024485402
-0.0113532 0.083250545 -0.0244854
0.036820434 0.088908628 -0.0244854
0.064163178 0.094349682 -0.0244854
0.10103106 0.099506348 -0.0244854
0.16413459 0.094572991 -0.024485398
-0.11788756 0.10382351 -0.0244854
-0.089212179 0.10904682 -0.0244854
0.028606154 0.10961537 -0.0244854
0.15853739 0.10018408 -0.0244854
-0.068731561 0.11444821 -0.0244854
-0.056914583 0.11662161 -0.024485402
-0.017345831 0.1106572 -0.024485402
0.095047474 0.11667808 -0.024485398
0.15553559 0.11866647 -0.024485398
-0.05072391 0.13798937 -0.024485398
0.049073145 0.1350033 -0.024485402
-0.015026011 0.14336812 -0.0244854
-0.16026881 0.165696 -0.027573621
-0.10312313 0.16106872 -0.024485402
-0.026850535 0.165696 -0.025434351
0.167006 0.17245325 -0.028479183
0.13118148 0.18519001 -0.029258577
0.14201875 0.18519001 -0.027157759
-0.1392573 0.19711679 -0.024485398
-0.10941934 0.205323 -0.0244854
-0.13403898 0.22817177 -0.024485402
-0.15757222 0.26900154 -0.024485402
-0.14570574 -0.28265801 0.025068454
-0.096369952 -0.28265801 0.026439825
-0.089128517 -0.28265801 0.025241243
0.11596739 -0.28265801 0.029055528
0.12007111 -0.28265801 0.024519339
0.035560548 -0.27101001 0.024485501
-0.1171524 -0.2688694 0.024485501
-0.10640627 -0.26444229 0.024485501
-0.076020204 -0.26723871 0.024485501
-0.11306479 -0.24779788 0.024485501
0.032056805 -0.24002804 0.024485499
0.083041266 -0.24674276 0.024485501
0.065105803 -0.2214877 0.024485502
-0.1554713 -0.21021199 0.024485499
0.007139951 -0.21226946 0.024485499
0.0023732036 -0.20439035 0.024485501
0.019460015 -0.20741116 0.024485501
-0.022456236 -0.1935741 0.024485501
-0.0075778253 -0.19534843 0.024485502
0.13324341 -0.18057573 0.024485501
0.011129633 -0.16557547 0.024485501
0.064806052 -0.15149368 0.024485501
-0.13258 -0.14908916 0.024485501
0.093047768 -0.14690623 0.024485501
-0.075702928 -0.12664144 0.024485502
0.041309819 -0.12599973 0.024485501
0.078564063 -0.12209568 0.024485501
0.099695258 -0.12210628 0.024485501
0.1357398 -0.12584457 0.024485501
0.14355095 -0.12163694 0.024485501
-0.14639857 -0.11970766 0.024485501
-0.0748813 -0.11230528 0.024485501
0.13942367 -0.10345137 0.024485501
-0.1243688 -0.096632957 0.024485502
-0.003991127 -0.098048791 0.024485502
0.014956005 -0.096088707 0.024485502
-0.078998625 -0.080065466 0.024485501
0.071793176 -0.080846958 0.024485501
0.16587201 -0.082156152 0.024485501
0.0024167071 -0.077910133 0.024485501
0.038786635 -0.061934821 0.024485501
0.11622498 -0.069615938 0.024485499
-0.051312018 -0.052888885 0.024485499
0.14977136 -0.051181555 0.024485501
0.020890795 -0.046839014 0.024485501
0.058535684 -0.049852949 0.024485501
-0.025401704 -0.03176032 0.024485501
0.083827302 -0.035356697 0.024485501
0.088346459 -0.025265301 0.024485501
-0.079924479 -0.005381681 0.024485501
0.01125915 -0.0041712653 0.024485501
0.094006062 -0.0087046809 0.024485502
-0.042292401 0.008188013 0.024485501
0.12970529 0.0057038888 0.024485501
-0.1367195 0.012534043 0.024485501
-0.037196063 0.011518724 0.024485501
0.17088398 0.018684126 0.02803174
-0.089236736 0.028782176 0.024485501
-0.034071758 0.028773027 0.024485501
0.096487515 0.024241716 0.024485501
0.10144189 0.029399207 0.024485501
0.11086045 0.036695577 0.024485501
0.089058071 0.047341153 0.024485501
0.051596962 0.056078237 0.024485501
0.023892641 0.067128345 0.024485502
-0.13536863 0.077186212 0.024485502
-0.072168037 0.071357884 0.024485501
-0.010663044 0.07662379 0.024485501
0.035641011 0.074540004 0.024485499
0.039471008 0.090047121 0.024485502
0.028700195 0.11724918 0.024485502
0.078473344 0.11025648 0.024485499
0.016192831 0.12046266 0.024485501
0.084838167 0.14412072 0.024485502
0.011955626 0.15030925 0.024485501
-0.080567345 0.16796938 0.024485501
-0.040397458 0.16063645 0.024485501
-0.036904298 0.165696 0.025032062
0.055627219 0.165696 0.025791049
0.11640364 0.16833155 0.024485501
-0.14418861 0.17778412 0.024485499
0.074119136 0.17955628 0.024485501
-0.1270303 0.21785684 0.024485502
-0.11689785 0.23084414 0.024542512
-0.13393539 0.26744801 0.026326099
-0.12454123 -0.28265798 0.03674376
-0.01312758 -0.28265801 0.036122695
-0.167006 0.10908222 0.03632544
0.059794072 0.165696 0.035610549
0.066640258 0.18519001 0.034258112
-0.10004319 0.19463311 0.036071502
0.037009012 -0.28265801 0.04993917
0.14315248 -0.28265801 0.047370963
0.170884 -0.22022071 0.04205304
-0.16700602 -0.17446847 0.040069144
-0.167006 -0.13920079 0.046884507
-0.167006 -0.083384827 0.04587381
0.170884 -0.016060077 0.043438029
0.170884 0.11688015 0.048598036
-0.13111836 0.165696 0.040727232
-0.096215419 0.165696 0.047568817
0.005355753 0.165696 0.042043217
-0.085070215 0.18519001 0.049753208
0.032207742 0.18519001 0.041974705
0.078317702 0.18519001 0.041930091
0.087380975 0.18519002 0.049216256
0.170884 0.18388878 0.04488435
-0.13710169 0.2742503 0.045150958
0.170884 -0.10766564 0.052330747
-0.167006 -0.041950807 0.058560904
0.17088401 -0.048898436 0.054739464
-0.167006 0.033548981 0.05782894
-0.167006 0.10000212 0.055622719
0.013098918 0.165696 0.050491046
0.051596962 0.165696 0.059310198
-0.04264975 0.18519001 0.058319967
0.082257181 0.18519001 0.059046537
-0.12194927 0.24169646 0.052739955
-0.15574825 0.28265801 0.053233683
0.064775318 -0.28265801 0.060164038
0.13278423 -0.28265801 0.061480537
0.15784526 -0.28265801 0.061640672
0.17088401 -0.1721677 0.069939144
0.17088398 -0.15033166 0.065994367
-0.167006 0.12580113 0.060921751
0.070510179 0.165696 0.065101638
0.090765573 0.165696 0.063818522
0.023228757 0.18519001 0.062078923
0.031535059 0.18519001 0.063574106
-0.10631044 -0.28265801 0.07834208
-0.094178289 -0.28265801 0.076132923
-0.047778688 -0.28265801 0.070273601
0.044358075 -0.28265801 0.077786013
-0.167006 -0.15159653 0.070439696
-0.16700599 0.026995003 0.072346896
0.16491239 0.165696 0.0763705
-0.16572343 -0.28265801 0.087921411
-0.14947909 -0.28265801 0.08959116
0.014264051 -0.28265801 0.087553665
0.043096557 -0.28265801 0.084722839
0.099536836 -0.28265804 0.086689189
-0.167006 -0.18278311 0.080328755
0.170884 -0.18511432 0.086344048
0.170884 -0.033361584 0.082129605
-0.167006 -0.022037171 0.082796499
0.170884 -0.0080178753 0.086668633
-0.167006 0.00032589585 0.085442342
0.170884 0.065913267 0.086096853
-0.12295707 0.24587291 0.089516401
-0.1327488 0.26489812 0.08395952
-0.11649516 -0.28265801 0.097039193
-0.099845588 -0.28265801 0.098118693
-0.016856197 -0.28265801 0.095856279
0.170884 -0.048503213 0.098817855
-0.167006 0.064699091 0.093209863
-0.14116435 -0.28265804 0.10250407
0.038946077 -0.28265801 0.10659662
0.070530586 -0.28265801 0.10086504
0.17088401 -0.22932528 0.10155523
0.17088401 -0.19299132 0.10962075
-0.167006 -0.056425977 0.10632715
0.170884 0.12707481 0.10327002
-0.167006 0.16540858 0.10321505
-0.005842343 0.165696 0.10073327
0.12569392 0.165696 0.1075753
0.13664164 0.165696 0.10863133
0.170884 0.18132073 0.10760611
-0.16285974 -0.28265801 0.11936215
0.16318356 -0.28265804 0.11346636
-0.167006 -0.1714731 0.11053467
0.170884 0.013912139 0.11305998
0.13981277 0.165696 0.11320657
-0.1168114 0.23065838 0.11417181
0.02323572 -0.28265801 0.12803102
-0.167006 -0.18014778 0.1260957
0.170884 -0.10263456 0.1221453
-0.167006 -0.04236728 0.12206465
-0.051465787 0.165696 0.12314434
-0.064338803 0.18519001 0.12520453
0.13046654 0.18519001 0.12325051
-0.062731057 -0.28265801 0.13585237
0.023525387 -0.28265801 0.13639848
0.13028392 -0.28265801 0.13058874
0.170884 -0.23774487 0.13318218
-0.167006 -0.21218894 0.13491416
0.170884 -0.096707679 0.13115099
-0.16700602 -0.065694153 0.13678104
0.170884 -0.021978334 0.13029616
0.170884 0.026132638 0.13785608
-0.167006 0.055408768 0.13426168
0.17088401 0.093924388 0.13938969
0.170884 0.13234212 0.13700755
-0.067368567 0.165696 0.13907997
-0.028915733 -0.28265801 0.14372733
0.170884 -0.15367095 0.1438641
-0.16700599 -0.10657926 0.14263237
-0.049883518 0.18519001 0.14384271
0.01608355 0.18519001 0.14012471
0.062601976 0.18519001 0.14611502
-0.075155191 -0.28265798 0.15709157
-0.167006 -0.2543512 0.15755372
-0.167006 -0.1061742 0.15211298
0.170884 -0.044676594 0.15240154
0.170884 -0.03701096 0.15606754
0.170884 -0.0090039 0.15478572
0.170884 0.0019853439 0.15254253
-0.040557336 0.165696 0.15889519
-0.0033352263 0.165696 0.1559125
0.17088398 0.18144532 0.15551844
0.015404891 -0.28265801 0.16414909
0.170884 -0.264853 0.16954666
0.170884 -0.18163416 0.16034849
-0.167006 0.060450237 0.16312942
-0.087550268 0.165696 0.16407788
-0.07857734 0.165696 0.16742158
0.11194751 0.18519001 0.1695182
-0.079061076 -0.28265801 0.17439373
-0.035279281 -0.28265801 0.17747921
0.11617664 -0.28265801 0.17025888
0.15177035 -0.28265801 0.17262648
0.170884 -0.28207612 0.17183128
0.170884 -0.2359706 0.17541414
-0.167006 -0.22166458 0.17973983
0.17088401 -0.070610449 0.17371848
-0.167006 0.1551877 0.17174383
0.016779549 0.165696 0.17532079
0.170884 0.16300929 0.17180359
-0.12218471 -0.28265801 0.18686062
-0.031651624 -0.28265801 0.18509677
-0.019796617 -0.28265804 0.18815011
0.098283038 -0.28265801 0.18424568
0.11741135 -0.28265801 0.18637554
-0.167006 -0.16268712 0.18398134
-0.167006 0.039193198 0.18940312
-0.167006 0.085868686 0.18547362
-0.10343584 0.20192312 0.1875242
0.170884 -0.16362256 0.19221149
-0.167006 -0.12604982 0.19233809
-0.167006 -0.11440121 0.19553024
-0.16700602 -0.10381218 0.19641659
-0.167006 0.035565794 0.19918738
-0.052612938 0.165696 0.19757938
-0.039148778 0.165696 0.19717745
-0.017237946 0.18518999 0.1998391
-0.167006 0.20443064 0.19936657
-0.167006 0.23116907 0.19277354
-0.085373119 -0.28265801 0.2000961
0.170884 -0.16032982 0.203448
0.170884 -0.12163756 0.20393923
-0.167006 -0.038623329 0.20785317
-0.167006 0.016181277 0.20850499
0.170884 0.080981933 0.20604527
-0.070123851 0.165696 0.2075114
-0.048288103 0.165696 0.20180613
-0.026931591 0.18519001 0.20350009
0.012778595 0.18519001 0.20758601
-0.071933955 -0.28265801 0.21150719
-0.0073668542 -0.28265801 0.21514352
-0.167006 -0.25178093 0.21641192
0.170884 0.038881749 0.21172231
0.170884 0.12408096 0.21908827
-0.12947741 0.165696 0.21498941
-0.086821593 0.165696 0.21434405
-0.167006 0.1719718 0.2156352
0.070466012 0.18519001 0.21246487
0.15099321 -0.28265804 0.22896184
0.170884 -0.029634142 0.22226126
0.170884 0.10355269 0.22365484
-0.0029896498 0.165696 0.22357695
0.004913494 0.165696 0.22701235
0.14705743 0.18518999 0.22369167
-0.16700602 0.23225574 0.22563182
-0.13789475 -0.28265801 0.23534243
0.081379429 -0.28265801 0.2372822
0.170884 -0.19005696 0.23067133
-0.167006 -0.045844976 0.23190191
0.170884 0.084021561 0.23698154
-0.167006 0.12767188 0.23663014
-0.056978393 0.165696 0.23539677
-0.048978541 0.165696 0.23424906
0.14436162 0.165696 0.23488459
-0.091262892 0.18518999 0.23749717
0.035052299 0.18519001 0.23706047
-0.1145579 0.22930531 0.23105733
-0.036455248 -0.28265801 0.24893057
-0.011685487 -0.28265801 0.24429381
0.04038962 -0.28265804 0.24394308
0.054078933 -0.28265801 0.24657398
0.13004956 -0.28265801 0.24357495
0.170884 -0.066860929 0.24103852
0.170884 0.0046114773 0.24665968
-0.11510988 0.165696 0.24061422
0.090786204 0.165696 0.24450904
-0.07126122 0.18519001 0.24583475
-0.0112307 0.18519002 0.2453399
-0.13923995 0.27884433 0.2493622
-0.022981215 -0.28265801 0.25220746
0.10295542 -0.28265801 0.25687546
0.12630251 -0.28265801 0.25991082
0.170884 -0.23416615 0.25299129
0.170884 -0.082356155 0.25534847
-0.167006 -0.063602142 0.2535516
-0.167006 -0.052293129 0.25963494
0.17088401 -0.053866897 0.25158757
-0.167006 -0.042784788 0.25778198
-0.14093259 0.165696 0.25866759
-0.12823766 0.165696 0.25002313
-0.072117858 0.165696 0.25984487
-0.167006 0.19688274 0.25005645
-0.11360037 0.22375989 0.25621712
0.15918343 -0.28265801 0.26674402
0.170884 -0.1825074 0.26871869
0.170884 -0.013787955 0.26490185
-0.049917519 0.165696 0.26300237
0.091379575 0.165696 0.2688635
-0.167006 0.25178108 0.2654433
0.03243316 -0.28265801 0.27513182
-0.16700599 -0.20827013 0.27843183
-0.065400735 0.165696 0.27825248
-0.007069692 0.165696 0.27290812
0.15316287 0.165696 0.27309355
0.16343425 0.165696 0.27469242
-0.056970358 0.18519002 0.27526918
-0.11126272 -0.28265801 0.28215104
-0.167006 -0.13239947 0.28842762
-0.167006 -0.022530833 0.28238815
-0.167006 0.11198604 0.28417453
-0.11967015 0.165696 0.28524801
-0.053766899 0.165696 0.28753281
0.0076180398 0.165696 0.28158522
-0.0050017238 0.18519001 0.28307173
-0.167006 0.19527343 0.28598267
-0.167006 0.22415093 0.28205928
-0.060977392 -0.28265801 0.29509014
-0.167006 -0.20680958 0.29710707
-0.167006 -0.094087876 0.29059896
0.170884 0.12152836 0.29183128
-0.16700599 0.13056584 0.29779226
0.013835529 0.165696 0.29375654
0.039227847 0.18519001 0.29237881
-0.167006 0.21816033 0.29319453
-0.16700602 0.23786485 0.29130194
-0.099945724 -0.28265801 0.30457437
-0.042312749 -0.28265801 0.30843768
0.10290642 -0.28265801 0.30446738
0.170884 0.038929455 0.30841178
-0.053308643 0.165696 0.30882627
-0.031113978 0.165696 0.30173549
-0.015515082 0.18519001 0.30542341
-0.12504938 0.24835759 0.30882853
-0.14034399 0.28121635 0.30174032
-0.16039839 -0.28265801 0.31018555
0.170884 -0.27361059 0.31184202
-0.16700602 -0.26527369 0.31023848
-0.16700599 -0.14264688 0.31794459
0.170884 -0.13356197 0.31779557
-0.167006 -0.060768016 0.31936383
0.170884 0.086066008 0.31486613
0.170884 0.090963051 0.31510869
0.12169099 0.18519001 0.31897098
-0.15749186 0.28265801 0.31470317
-0.10665315 -0.28265801 0.32331944
0.10876922 -0.28265801 0.32380158
0.17088398 -0.27520052 0.32079104
-0.16700602 -0.18729763 0.32929054
-0.16700599 -0.17256129 0.32667261
0.17088398 0.066278368 0.32330412
-0.14110011 0.165696 0.32775509
0.085962482 0.18519001 0.32270679
-0.167006 0.24422462 0.32334927
-0.16700599 0.27069587 0.3297441
-0.16261882 -0.28265801 0.33027998
-0.15032244 -0.28265801 0.3381452
-0.13699222 -0.28265801 0.33796528
-0.12915264 -0.28265801 0.33996058
-0.167006 -0.072813794 0.33591205
0.170884 -0.067430235 0.33788759
-0.167006 0.042581834 0.33183566
0.17088398 0.041077238 0.33174202
0.008592993 0.165696 0.33285469
0.078378633 0.165696 0.33057022
0.043293595 0.18519001 0.33050868
0.053168036 -0.28265801 0.34595397
-0.167006 -0.25194913 0.3464542
0.170884 -0.17652959 0.34166351
-0.167006 -0.08832255 0.34730422
0.170884 -0.068702392 0.34402138
-0.167006 0.011279568 0.34180972
-0.167006 0.033387396 0.34610492
0.170884 0.080685347 0.3495284
-0.040647767 0.18519001 0.34119275
0.012448467 -0.28265801 0.35931677
0.15237859 -0.28265801 0.35663605
-0.167006 0.03334818 0.35556218
-0.16700599 0.18899399 0.35756499
-0.093836851 0.18519001 0.35787904
0.035112474 0.18519001 0.35246545
-0.080950946 -0.28265801 0.36504543
0.13950586 -0.28265801 0.36758
0.170884 -0.14826861 0.36731797
-0.16700599 -0.13453209 0.36028439
-0.16700599 -0.0053487495 0.36598343
0.170884 0.070713602 0.36045808
0.086170793 0.165696 0.36453927
0.10347015 0.165696 0.36151052
0.083569169 0.18519002 0.36600929
0.13371062 -0.28265801 0.37347895
0.041118629 -0.27397186 0.37537098
0.17088398 -0.26955187 0.37299708
0.013585694 -0.25131691 0.37537101
-0.167006 -0.23921117 0.37378877
-0.12706897 -0.23416179 0.37537098
0.072894618 -0.23539725 0.37537098
0.0043694004 -0.22840446 0.37537101
0.12551714 -0.22431065 0.37537101
-0.13940358 -0.21064839 0.37537101
0.12300298 -0.2195676 0.37537101
0.14531302 -0.21820197 0.37537101
-0.16019881 -0.20975061 0.37537101
-0.029298339 -0.20619264 0.37537098
-0.16080862 -0.19869635 0.37537101
-0.038049743 -0.19619849 0.37537101
0.024680533 -0.19527242 0.37537101
0.071959302 -0.18726709 0.37537101
-0.16530548 -0.17181432 0.37537101
0.029317729 -0.17368031 0.37537101
-0.15787017 -0.16185831 0.37537101
-0.052618876 -0.16935073 0.37537101
-0.047132518 -0.16112536 0.37537101
0.038869329 -0.1640707 0.37537104
0.088096991 -0.15453179 0.37537101
0.1127718 -0.15254839 0.37537101
-0.167006 -0.14134729 0.37361908
-0.14642766 -0.14641809 0.37537098
-0.073255256 -0.14333676 0.37537101
0.091875486 -0.14871627 0.37537101
-0.017670749 -0.13235521 0.37537101
0.063206635 -0.13050139 0.37537101
0.043063737 -0.11751261 0.37537101
0.16444494 -0.10052802 0.37537101
-0.15641229 -0.086097166 0.37537101
0.049449418 -0.089807406 0.37537101
0.11689255 -0.089987427 0.37537104
0.14535528 -0.083232962 0.37537101
-0.10338684 -0.076065496 0.37537101
-0.14456269 -0.040235125 0.37537101
0.096084751 -0.045450121 0.37537101
0.094617285 -0.030256134 0.37537101
0.13838616 -0.03912472 0.37537101
-0.16630557 -0.027657725 0.37537101
-0.051076192 -0.029578365 0.37537101
-0.019357219 -0.021741185 0.37537101
0.015262134 -0.022958592 0.37537104
0.00023376942 -0.014237942 0.37537101
0.059606872 -0.01747844 0.37537104
-0.16440204 -0.0072416291 0.37537101
-0.11469205 -0.0038972199 0.37537101
-0.084528103 -0.0043197945 0.37537104
0.14708728 -0.0043830406 0.37537101
0.11880271 0.0018359162 0.37537101
0.15333755 0.0015726388 0.37537101
0.10894784 0.011152111 0.37537101
0.011745298 0.029062448 0.37537098
-0.055691756 0.03171923 0.37537098
0.0031320453 0.036536556 0.37537104
-0.12881653 0.041160487 0.37537098
0.081097789 0.051303081 0.37537101
-0.040057085 0.075273231 0.37537098
0.0029465333 0.075498685 0.37537101
-0.050650641 0.082030267 0.37537101
0.032115027 0.085378721 0.37537101
0.13559568 0.083020315 0.37537101
0.026274599 0.099191695 0.37537101
0.025904715 0.11206786 0.37537101
0.035405673 0.11377901 0.37537101
0.14564672 0.11063942 0.37537101
-0.10042707 0.14972416 0.37537101
-0.094785377 0.14965491 0.37537101
-0.081636816 0.14470215 0.37537101
-0.13309759 0.16453573 0.37537101
-0.094676159 0.1644333 0.37537101
-0.039924175 0.165696 0.3738642
-0.11817119 0.18331872 0.37537101
-0.12369438 0.19678259 0.37537101
-0.15355834 0.20299628 0.37537101
-0.167006 0.28242946 0.37525344
