# .PCD v0.7 - Point Cloud Data file format
VERSION 0.7
FIELDS x y z
SIZE 4 4 4
TYPE F F F
COUNT 1 1 1
WIDTH 975
HEIGHT 1
VIEWPOINT 0 0 0 1 0 0 0
POINTS 975
DATA ascii
0.11718594 -0.36368099 -0.23301974
0.08177305 -0.3520261 -0.238124
-0.068082787 -0.34408593 -0.238124
0.12764552 -0.34805739 -0.238124
-0.13261858 -0.33737576 -0.238124
-0.069967873 -0.33334798 -0.238124
-0.05649215 -0.33265314 -0.238124
-0.014720134 -0.33562088 -0.238124
0.12281279 -0.33224529 -0.23812401
0.071916521 -0.32243785 -0.238124
0.14775497 -0.32060158 -0.23812401
0.15261486 -0.32796654 -0.238124
0.06676361 -0.31704742 -0.238124
-0.20342898 -0.30788496 -0.238124
0.19300435 -0.30616608 -0.23812398
-0.18959932 -0.29955924 -0.23812398
-0.1782144 -0.2998648 -0.23812401
0.073337026 -0.2975767 -0.23812401
0.10924889 -0.29409438 -0.238124
0.17425483 -0.2986865 -0.238124
-0.233795 -0.28717649 -0.23164548
-0.12247829 -0.28408527 -0.23812398
-0.052021578 -0.28196099 -0.23812398
0.21173656 -0.28775489 -0.238124
-0.17475492 -0.27171078 -0.238124
-0.0076250806 -0.2725867 -0.238124
-0.18179993 -0.26503775 -0.23812398
-0.12148254 -0.26363111 -0.23812401
-0.015470747 -0.2640785 -0.238124
-0.20740466 -0.25902525 -0.238124
-0.003974095 -0.25623658 -0.238124
0.050451569 -0.25756925 -0.238124
0.13739738 -0.25231579 -0.23812401
0.14534299 -0.25427502 -0.23812401
0.0069065839 -0.2460531 -0.238124
0.09391921 -0.24544781 -0.238124
0.025566913 -0.23079827 -0.23812401
-0.12160856 -0.21342963 -0.238124
0.19912921 -0.21740821 -0.238124
0.22530399 -0.21026868 -0.238124
-0.20854247 -0.20093864 -0.238124
-0.15352185 -0.20353924 -0.238124
-0.10725167 -0.20900998 -0.23812401
0.0021240935 -0.20292071 -0.238124
0.20314978 -0.20389324 -0.238124
0.12865427 -0.19732523 -0.238124
0.12290787 -0.18801801 -0.23812398
0.12766512 -0.17891136 -0.23812401
0.16490805 -0.17921214 -0.238124
-0.21688569 -0.16883174 -0.23812401
-0.19777146 -0.16561809 -0.238124
-0.12125905 -0.16370474 -0.23812398
0.013982758 -0.16163029 -0.238124
-0.18408519 -0.14741836 -0.238124
0.23379499 -0.14452109 -0.23306665
-0.22587061 -0.1372897 -0.238124
0.12643999 -0.13840827 -0.23812401
0.19007097 -0.12110536 -0.23812398
-0.22375473 -0.11901477 -0.238124
0.21192026 -0.11140882 -0.23812398
-0.14512852 -0.10648993 -0.23812398
-0.11443697 -0.1084448 -0.238124
0.059808195 -0.10130858 -0.238124
0.083500572 -0.10852183 -0.238124
-0.0797612 -0.090041824 -0.23812398
-0.028148644 -0.093867987 -0.23812401
0.058713131 -0.090935543 -0.238124
0.21617998 -0.093368806 -0.238124
-0.20484881 -0.088355139 -0.23812401
0.17034343 -0.089445174 -0.23812398
-0.20293565 -0.070400111 -0.238124
-0.15500778 -0.071989283 -0.238124
-0.15885542 -0.064952716 -0.238124
-0.12329211 -0.063650087 -0.23812398
-0.0037866028 -0.06696634 -0.238124
0.012398172 -0.064990237 -0.23812398
-0.0019102367 -0.05544699 -0.238124
0.029261667 -0.041876107 -0.238124
0.088582836 -0.044459525 -0.23812398
-0.233795 -0.03860449 -0.23623675
-0.078272402 -0.03259996 -0.23812398
-0.034504738 -0.036826696 -0.238124
-0.020011812 -0.031345546 -0.238124
0.1997868 -0.039623246 -0.23812401
0.0059654191 -0.028857216 -0.238124
-0.19111618 -0.011500712 -0.23812398
-0.066692382 -0.011678949 -0.23812398
0.033953585 -0.012857006 -0.238124
0.056496669 -0.0074481843 -0.238124
-0.19632035 0.001087904 -0.23812401
-0.13619253 0.0016837418 -0.238124
-0.1078124 0.0097761042 -0.23812398
-0.056143895 0.0066264793 -0.238124
0.13414802 0.0085678846 -0.23812398
0.20394835 0.0068894178 -0.238124
0.0080539286 0.014682397 -0.23812401
0.011340924 0.020710574 -0.23812398
-0.20239344 0.031035274 -0.23812401
-0.12707856 0.033167243 -0.23812401
-0.11591741 0.039236173 -0.23812401
-0.094268002 0.03168042 -0.238124
0.1491074 0.034685515 -0.238124
-0.1911633 0.049762867 -0.23812398
-0.097948521 0.042661563 -0.23812398
0.21175714 0.057924293 -0.238124
0.12860611 0.069190994 -0.238124
-0.18218833 0.075910635 -0.238124
0.21140434 0.070295483 -0.23812401
-0.233795 0.085265391 -0.23678274
-0.14255831 0.089781553 -0.238124
-0.1341089 0.080372468 -0.238124
-0.1705682 0.095974401 -0.23812398
-0.076920621 0.092426926 -0.238124
0.031281784 0.092412055 -0.23812398
0.075163968 0.090206474 -0.23812401
0.2294367 0.097120889 -0.238124
-0.1317867 0.10946783 -0.23812398
-0.11922564 0.10397251 -0.23812401
-0.053557426 0.1060545 -0.23812398
0.059118982 0.10509466 -0.238124
0.080315918 0.10108218 -0.238124
0.20896184 0.10989863 -0.238124
-0.088769086 0.12784836 -0.238124
0.075719737 0.12390447 -0.23812398
-0.14612211 0.14999044 -0.23812398
-0.098685071 0.14711088 -0.23812398
-0.088913128 0.14400078 -0.23812398
0.22035645 0.14900601 -0.23812398
-0.233795 0.15647785 -0.23449686
-0.15226142 0.15742914 -0.23812398
-0.11335929 0.15990959 -0.238124
-0.19585864 0.16124912 -0.238124
0.058048859 0.1612477 -0.238124
0.030159935 0.17100029 -0.23812398
-0.031796478 0.18597054 -0.238124
0.00942716 0.1837869 -0.238124
0.010982409 0.18434352 -0.23812401
0.10472003 0.18592921 -0.238124
0.14638045 0.18237917 -0.238124
-0.048261426 0.19071685 -0.238124
-0.018580392 0.19573905 -0.23812401
0.050652139 0.19908093 -0.23812401
0.19288933 0.19630611 -0.238124
-0.075875446 0.20514213 -0.23812401
-0.039264433 0.20575896 -0.23596001
0.21787931 0.20983501 -0.2368921
-0.035336278 0.21120977 -0.238124
-0.0080716982 0.21035573 -0.23812401
0.045072794 0.21929792 -0.23812398
-0.21703951 0.22169395 -0.23812398
-0.010606261 0.22035906 -0.238124
0.0088737532 0.22707035 -0.238124
0.017592289 0.22626469 -0.23812398
0.021935746 0.22682738 -0.238124
0.0311401 0.22682855 -0.23812401
-0.13473704 0.23393056 -0.238124
-0.1294831 0.23811699 -0.23784903
0.10329885 0.231482 -0.23076314
-0.11640108 0.24496534 -0.23189466
-0.23234315 0.25782874 -0.23585109
-0.22652444 0.25848132 -0.23577482
-0.15478893 0.25201058 -0.23653109
-0.16593346 -0.37233999 -0.2213542
-0.085515082 -0.37234002 -0.22404085
0.15330479 -0.37234002 -0.22634509
0.14216675 -0.36371386 -0.22946501
0.233795 -0.25132018 -0.22139731
-0.23379499 -0.14653984 -0.22538245
-0.23379499 -0.12418988 -0.22527808
-0.23379499 -0.10560497 -0.22505924
0.233795 -0.10141227 -0.22508647
-0.233795 0.1136262 -0.22115847
-0.233795 0.21516503 -0.22108494
0.027786855 0.231482 -0.22947328
0.054645445 0.231482 -0.22447467
-0.233795 0.30439967 -0.22581384
-0.16502842 0.30296081 -0.22808498
-0.23069008 -0.37233999 -0.21604969
-0.14639364 -0.37233999 -0.21034253
-0.02320832 -0.37233999 -0.21207833
0.093456194 -0.37233999 -0.21934655
0.233795 -0.30322725 -0.21215129
-0.23379502 -0.17513561 -0.21345088
0.23379502 -0.073332883 -0.2103976
-0.233795 0.017458275 -0.21764734
0.23379502 0.018369958 -0.21896976
-0.23379499 0.088348947 -0.21582404
-0.044845205 0.22282299 -0.21350548
0.0099066384 0.22282299 -0.21265787
0.015151834 0.22617483 -0.213654
0.073384434 0.22389743 -0.21329308
0.081796095 0.22492766 -0.213654
0.12675838 0.22969514 -0.21365401
0.15158191 0.22441623 -0.21148901
0.16302346 0.22981822 -0.21365401
-0.11511111 0.24009469 -0.21011834
-0.12368322 0.28092808 -0.21750721
-0.15070939 0.34381649 -0.21482936
-0.0503328 -0.37233999 -0.20651537
0.091365077 -0.37233999 -0.20539573
0.13118306 -0.37233999 -0.20294647
0.23379499 -0.24443232 -0.20303416
0.23379499 -0.21071272 -0.20393677
-0.23379502 -0.019681811 -0.20483303
0.23379502 0.037261263 -0.20615351
0.233795 0.049303696 -0.20183584
0.233795 0.10570853 -0.20604259
0.233795 0.16751088 -0.2066115
0.233795 0.17056876 -0.20431858
0.233795 0.2163333 -0.20877047
-0.233795 0.22608285 -0.20121552
0.2077982 0.2283375 -0.20307857
-0.031890072 0.232565 -0.20757921
0.23379502 0.23083547 -0.20471317
-0.12760168 0.29572636 -0.20391874
-0.1322186 0.31316209 -0.2085949
-0.19215289 0.3570711 -0.20015937
-0.1635671 0.35452205 -0.20410147
-0.14454468 0.3512598 -0.20492458
0.038773812 -0.37233999 -0.19087522
0.13578194 -0.37233996 -0.19557838
0.233795 -0.27765661 -0.19390348
0.23379499 -0.14032969 -0.19347857
-0.233795 0.10453299 -0.19079939
-0.23379502 0.16651912 -0.19887599
-0.019181108 0.23256502 -0.19580065
0.094073281 0.23256502 -0.19501525
-0.12969549 0.3036336 -0.19049832
-0.23237573 -0.37233999 -0.18809283
-0.12373878 -0.37233999 -0.18295623
0.0065781996 -0.37233999 -0.18202594
0.020259149 -0.37233999 -0.18385112
0.034979619 -0.37234002 -0.18015015
0.041539676 -0.37233999 -0.18270132
-0.233795 -0.32469571 -0.18070209
-0.233795 -0.29967305 -0.18051463
-0.233795 -0.23484007 -0.18661064
-0.23379502 -0.209887 -0.18109158
0.23379502 -0.15900356 -0.18687427
-0.23379499 -0.043315656 -0.18091874
0.233795 0.0045617223 -0.18738762
0.233795 0.040722825 -0.18686381
-0.233795 0.10043572 -0.18792292
-0.23379499 0.17180601 -0.1869112
0.23379499 0.19311737 -0.18461278
-0.233795 0.22477341 -0.18297705
0.03726637 0.23256499 -0.18686207
-0.233795 0.24370444 -0.18987536
0.02488035 -0.37233999 -0.17072789
0.225136 -0.37096655 -0.17054702
0.23266813 -0.36368099 -0.17157745
0.23379499 -0.35824436 -0.17879392
-0.233795 -0.26147902 -0.1752007
-0.233795 -0.25127384 -0.17964213
-0.233795 -0.23023239 -0.17509283
-0.233795 -0.21283258 -0.17487311
0.233795 -0.029817313 -0.17848028
0.23379502 -0.0084954798 -0.1732235
0.233795 0.07735154 -0.17159818
-0.23379502 0.12029257 -0.17352778
0.23379499 0.15385553 -0.17503002
0.14070132 -0.37234002 -0.16753386
0.18104924 -0.37233996 -0.16491981
0.233795 -0.083486989 -0.1629713
-0.233795 0.027759999 -0.1601806
0.233795 0.13514586 -0.16270681
0.23379499 0.1960367 -0.1610617
-0.23379499 0.22409952 -0.1674822
-0.023088768 0.23256502 -0.16613366
-0.11529894 0.24926043 -0.16264881
-0.12608384 0.28999257 -0.169576
-0.23379502 0.29735789 -0.16501342
-0.12812962 0.29771951 -0.16965553
-0.21665277 0.36456177 -0.16205606
-0.21113497 -0.37233999 -0.15811662
0.0632369 -0.37233999 -0.15717579
0.14983183 -0.37233996 -0.152156
0.23379499 -0.18599688 -0.15793341
-0.23379499 -0.027958147 -0.15280986
-0.233795 0.1397204 -0.15044031
-0.23379499 0.25572494 -0.1557022
-0.12839901 0.30623484 -0.15322137
-0.13662493 0.32980365 -0.15990427
-0.031741496 -0.37233999 -0.14779294
0.233795 -0.22078907 -0.1432949
-0.23379499 0.10644667 -0.14207567
-0.23379502 0.11571373 -0.14925309
-0.233795 0.15127549 -0.14911477
-0.23379502 0.17366803 -0.14745679
0.094108321 0.232565 -0.14362882
0.11441682 0.23256499 -0.14229432
-0.11704415 0.25585258 -0.14190841
-0.12691672 0.29900137 -0.14849105
0.018386815 -0.37233999 -0.13200437
0.20700754 -0.37233999 -0.13790198
-0.233795 -0.35255027 -0.13506374
-0.23379502 -0.31312194 -0.13900675
-0.23379502 -0.29991597 -0.13076763
-0.233795 -0.27440703 -0.13561352
-0.23379499 -0.23672599 -0.13043346
-0.23379499 -0.20899302 -0.13032445
0.23379502 -0.13559304 -0.13768896
0.23379502 -0.12736844 -0.13269682
0.233795 -0.092196375 -0.13218722
-0.23379499 0.15996131 -0.13679841
0.23379499 0.16660301 -0.13301216
-0.090359509 0.231482 -0.13659444
-0.05838313 0.23256499 -0.13860001
0.13191503 0.232565 -0.13296542
-0.12380021 -0.37233999 -0.12434926
0.012984104 -0.37234002 -0.12692818
-0.23379502 0.014750913 -0.12011793
-0.23379502 0.06995552 -0.12416675
-0.23163 0.20562372 -0.12892288
0.23379499 0.20427808 -0.12602402
-0.10678131 0.231482 -0.12751254
-0.038484029 0.23256499 -0.12938443
0.17927727 0.232565 -0.12044588
-0.23379499 0.29569963 -0.12296944
-0.13196708 0.32912976 -0.12755337
0.21096894 -0.37233999 -0.11440556
0.23379502 -0.31467164 -0.11576065
0.23379499 -0.28733116 -0.1128628
0.233795 -0.12953429 -0.11952085
-0.233795 -0.067211956 -0.11661423
-0.233795 -0.046535823 -0.11533935
-0.233795 -0.027149253 -0.11776739
-0.233795 -0.010352969 -0.11951512
0.23379499 0.2051695 -0.11224794
-0.08742398 0.22282299 -0.11979692
-0.014204998 0.23256499 -0.11955001
0.12293243 0.232565 -0.11245342
-0.233795 0.29179716 -0.11862153
-0.23379502 0.32253757 -0.11159658
-0.013794929 -0.37233996 -0.10584521
0.16654009 -0.37233996 -0.10382207
0.23379499 -0.32356071 -0.1063733
-0.233795 -0.2930606 -0.10237242
0.23379502 -0.18145335 -0.10365357
0.23379499 -0.16136995 -0.10870042
0.23379499 -0.149165 -0.10232224
0.23379502 -0.054545797 -0.10211291
-0.23379502 -0.0079375654 -0.10521954
-0.23379499 0.082869582 -0.10092901
-0.23379502 0.17959936 -0.10845791
-0.23163 0.20656516 -0.10109934
-0.027422428 0.232565 -0.10772605
0.23251423 0.231482 -0.10543457
-0.23379499 0.35618952 -0.10836862
-0.22326224 -0.37233999 -0.091905557
-0.19235311 -0.37233996 -0.090542525
-0.1688019 -0.37233999 -0.098473713
-0.11691278 -0.37233999 -0.099077992
0.225136 -0.36566076 -0.09656702
-0.23379499 -0.33154827 -0.093506455
-0.233795 -0.31620729 -0.093313217
0.233795 -0.29706818 -0.092791736
-0.23379499 -0.15605977 -0.093408033
0.23379502 -0.041528493 -0.090635888
-0.23379499 -0.028887071 -0.090134971
0.233795 0.017763384 -0.097789079
-0.23379499 0.07784868 -0.092989907
-0.23379502 0.15948948 -0.09144859
-0.23379499 0.18807547 -0.095811971
-0.233795 0.2141238 -0.098383725
-0.017061194 0.232565 -0.09123715
-0.0011085048 0.232565 -0.092850663
0.0063921381 0.23256502 -0.099601284
-0.12175182 0.27363464 -0.097792372
-0.23379502 0.2915844 -0.091921732
0.10461448 -0.37233999 -0.084776372
0.233795 -0.195839 -0.08108642
0.233795 -0.12550712 -0.086653776
0.23379502 -0.027834274 -0.088945828
-0.10403578 0.231482 -0.085540213
0.060125276 0.232565 -0.084930763
-0.12295157 0.27816245 -0.082044408
-0.12936389 0.3023814 -0.082010642
-0.15182219 -0.37234002 -0.079413094
-0.099699542 -0.37233999 -0.073048577
0.0036710724 -0.37233999 -0.078711785
0.18974695 -0.37234002 -0.071292654
-0.233795 -0.30943573 -0.074648663
-0.23379499 -0.14139479 -0.073041089
-0.233795 -0.063154511 -0.073965281
-0.23379502 0.076899871 -0.075862825
-0.088360503 0.22739376 -0.074954964
0.1309672 0.23256499 -0.070592754
-0.19237618 -0.37233999 -0.061195843
0.019895762 -0.37233999 -0.061014879
0.23379502 -0.36357677 -0.063146204
-0.233795 -0.33371818 -0.063012958
0.233795 -0.30411077 -0.0633341
0.233795 -0.13633734 -0.065988183
-0.23379499 -0.12576906 -0.063789837
-0.233795 0.19983919 -0.062704206
-0.03109598 0.232565 -0.067423463
0.1801942 0.23256499 -0.069878474
0.21201554 0.231482 -0.063589372
-0.23379499 0.24165565 -0.063992605
-0.23379499 0.33040112 -0.062548503
-0.15941405 0.36988306 -0.066864319
-0.14890221 0.36771581 -0.060640927
-0.060983751 -0.37233999 -0.052447222
-0.233795 -0.2846854 -0.051875878
0.233795 -0.28339672 -0.058655392
0.23379499 -0.26021397 -0.055014636
0.233795 -0.14329559 -0.052280001
0.233795 0.0045897514 -0.050246872
-0.233795 0.33331418 -0.056103088
-0.23379499 -0.37126562 -0.041417867
-0.16531368 -0.37233999 -0.044857275
-0.14271198 -0.37233999 -0.045785889
-0.11348625 -0.37233999 -0.04020264
0.233795 -0.22983561 -0.047774177
0.233795 -0.21472046 -0.043318406
0.23379499 -0.046807878 -0.041086562
-0.233795 0.05630818 -0.043553509
0.233795 0.088338017 -0.04096825
-0.23379499 0.15220998 -0.046995617
0.23379499 0.16631396 -0.042698409
-0.06671425 0.232565 -0.049082883
0.19635418 0.23256502 -0.041709661
0.22203295 0.231482 -0.048815928
-0.233795 0.29637185 -0.047644109
-0.233795 0.3027364 -0.047525115
-0.15808302 -0.37233999 -0.031828985
-0.04111439 -0.37233999 -0.039534904
0.04413332 -0.37233999 -0.035138294
0.233795 -0.30576676 -0.034927148
-0.233795 -0.21284986 -0.034503587
-0.233795 -0.059024863 -0.037518989
0.23379499 -0.054089174 -0.032791905
0.23379502 0.044827607 -0.034104109
0.23379499 0.11046307 -0.034281999
-0.23379502 0.19473688 -0.039025575
0.23379502 0.19704241 -0.034877408
-0.233795 0.23916188 -0.037934534
-0.035999965 0.232565 -0.031871632
0.21212159 0.231482 -0.0323276
-0.12732543 0.29468423 -0.038428724
-0.23379502 0.31356168 -0.03442321
-0.13702056 0.3313008 -0.038433693
-0.076814853 -0.37233996 -0.024438336
-0.048417509 -0.37233999 -0.02019598
-0.23379499 -0.048917763 -0.020560533
0.23379502 -0.034831293 -0.020849913
-0.233795 0.02731367 -0.027272785
0.233795 0.065851413 -0.025587391
0.233795 0.070840269 -0.026432183
-0.233795 0.094642363 -0.027049433
0.233795 0.11486347 -0.028755233
-0.233795 0.16568577 -0.027317084
-0.233795 0.26294923 -0.02947779
-0.19279209 -0.37233999 -0.010462485
0.020730302 -0.37233996 -0.017536938
0.04975215 -0.37233999 -0.010626657
0.23379502 -0.31505114 -0.014256366
0.233795 -0.066357478 -0.014924979
-0.088360503 0.22447507 -0.017920021
-0.0036546104 0.232565 -0.014092118
-0.23379502 0.3466115 -0.013954535
-0.1954966 -0.37233999 -0.0027020648
-0.18476957 -0.37233999 -0.0091603249
-0.058098525 -0.37233999 -0.0085775927
0.10247147 -0.37233999 -0.0077134073
-0.23379499 -0.31464228 -0.0060332939
0.23379502 -0.30685005 -0.0045863166
0.23379499 -0.2900053 -0.0036657248
-0.23379502 -0.13095421 -0.0093936212
0.233795 0.0010886788 -0.0053450167
0.15763022 0.23256502 -0.0063082036
-0.21180283 0.37220448 -0.0044467151
0.026601158 -0.37234002 0.0066941977
0.233795 -0.35557824 0.0088271797
-0.233795 -0.28526223 0.0089199319
0.233795 -0.24009353 0.0046903938
-0.233795 -0.21937662 0.0041060895
-0.233795 -0.16607305 0.0082481392
0.23379502 -0.16369744 0.0025024489
-0.233795 -0.021540619 0.004766278
-0.233795 0.18525705 0.0077772737
-0.11421462 0.23670807 0.0029766113
-0.046878703 0.23256499 0.0092084855
0.11277054 0.23256499 0.00419119
0.12657058 0.23256499 0.0017972104
-0.233795 0.24536249 0.0011716411
-0.233795 0.28656495 0.0085400492
-0.233795 0.29208094 0.0039175525
-0.23379502 -0.22713053 0.015362091
0.233795 -0.20048033 0.01010529
-0.23379502 -0.018118963 0.019381031
0.23379502 0.0024549067 0.017056063
0.233795 0.05950927 0.010283329
-0.23379502 0.12954846 0.013045199
-0.23379499 0.20098692 0.016650781
0.233795 0.21028134 0.010560746
-0.11666086 0.24594559 0.017587528
-0.233795 0.27973723 0.016183361
-0.23379502 0.3609767 0.014218181
-0.18687628 0.37178445 0.017890263
-0.076200955 -0.37233999 0.020971181
0.21553361 -0.37233999 0.02162037
0.23379499 -0.27506566 0.024949737
-0.23379499 -0.18507287 0.022263585
0.23379502 -0.16673772 0.020070493
0.233795 -0.019862194 0.025786819
-0.23379502 -0.0046620965 0.026291877
0.23379499 0.036079627 0.029805861
-0.233795 0.1280729 0.027401254
0.233795 0.12830146 0.023946151
0.233795 0.19156067 0.026645884
-0.086196102 0.2285111 0.025294863
0.209324 0.22477746 0.024719568
-0.066413358 0.23256499 0.021779403
-0.11710709 0.25609028 0.023054276
-0.23374632 0.3716161 0.022832071
0.009944737 -0.37233999 0.035271861
0.18166073 -0.37233999 0.033490144
-0.233795 -0.31815273 0.031238094
-0.23379499 -0.15363178 0.030635152
0.23379502 -0.1228213 0.033788655
0.23379502 -0.095383346 0.032491386
0.233795 -0.080753766 0.03820046
-0.233795 0.051858932 0.033466555
0.233795 0.14623438 0.03266748
-0.23379499 0.16524023 0.033275343
0.233795 0.17803012 0.039886452
0.233795 0.20476529 0.03744204
-0.23164442 -0.37233996 0.044693224
-0.089309908 -0.37233999 0.045747295
0.16807267 -0.37233996 0.044843487
0.23379502 -0.31073737 0.045008689
0.23379499 -0.25080681 0.043257628
0.233795 -0.17833646 0.047265328
0.23379499 -0.16486049 0.045735888
0.23379502 -0.096875519 0.048531741
0.23379502 0.047824018 0.040815759
-0.23379499 0.12499087 0.041651458
-0.233795 0.2327583 0.048291959
-0.12123515 -0.37233999 0.05006282
0.15703656 -0.37233996 0.059602961
0.233795 -0.33738708 0.053691819
0.233795 -0.31987247 0.054685339
0.233795 -0.10634469 0.058448799
0.23379502 -0.072088175 0.059829731
-0.23379502 -0.010351109 0.058060572
0.23379499 -0.0082323104 0.051212348
-0.233795 0.078329861 0.057979666
0.23379502 0.10779068 0.056955989
0.23379502 0.11904317 0.058701761
-0.233795 0.12860541 0.057530805
-0.10139848 0.231482 0.053503439
0.17838812 0.23256502 0.053114161
0.23226729 0.231482 0.052040033
-0.11497945 0.24805333 0.057734363
-0.12715268 0.29403192 0.057322688
-0.065450579 -0.37233999 0.064580746
0.14600027 -0.37234002 0.068821102
0.233795 -0.29837465 0.066756405
0.23379499 -0.14189962 0.060156934
0.23379499 -0.12434217 0.069149017
-0.233795 -0.10518605 0.062684722
-0.23379502 -0.071954288 0.061677299
-0.233795 -0.041985776 0.064093888
0.23379502 0.005031012 0.06275247
-0.233795 0.11073165 0.069019526
-0.11334284 0.2334151 0.068585023
-0.07585296 0.23256499 0.068687588
-0.11968068 0.26581138 0.061851576
-0.233795 0.31115711 0.064835057
-0.233795 0.32196012 0.062416364
-0.17370713 -0.37233999 0.079003625
0.14631754 -0.37233999 0.074150935
-0.233795 -0.27282956 0.072294049
0.23379502 -0.2038393 0.079844885
-0.23379502 -0.066374063 0.072244674
-0.23379502 -0.0085368603 0.070365824
0.233795 0.041755043 0.074711084
-0.233795 0.19372681 0.076501079
0.23163 0.20709375 0.072132058
0.044804577 0.232565 0.074752286
0.14548272 0.23256502 0.079564825
-0.11767104 0.25822029 0.073113538
-0.1300479 0.31342337 0.079684831
-0.22820604 -0.37233999 0.084446214
-0.016084652 -0.37233996 0.082864933
-0.233795 -0.36083913 0.084864199
0.23379502 -0.12535581 0.08620362
-0.23379499 -0.015708126 0.085223198
0.23379499 0.14921118 0.080388345
0.23358734 0.20983499 0.081843436
0.23379499 0.22818404 0.080753803
-0.085803516 0.23167838 0.081586108
-0.046178319 0.232565 0.081433341
-0.026903985 0.23256502 0.084684588
0.016690765 0.232565 0.087084934
0.028621126 0.23256499 0.080484003
0.13336092 0.232565 0.085420109
0.20647216 0.23182608 0.089026429
-0.23379502 0.36009669 0.086560458
-0.14621754 -0.37233999 0.099708237
-0.019755207 -0.37233999 0.099659398
0.070166066 -0.37233996 0.09372142
0.23379499 -0.31781721 0.091670096
0.23379499 -0.030559763 0.09165258
-0.233795 0.16855708 0.095849179
0.233795 0.19349648 0.09233316
-0.086196102 0.22304001 0.09981326
0.099725276 0.23256502 0.093856171
0.18494686 0.232565 0.097211175
0.199508 0.232565 0.093985632
-0.1315933 0.31207609 0.094469756
-0.026039451 -0.37233999 0.10073733
0.233795 -0.29587245 0.10094878
0.233795 -0.1918301 0.10606813
-0.23379502 -0.051038381 0.10143369
0.233795 0.030050062 0.10343019
-0.23379502 0.1117375 0.10584061
-0.071194679 0.23256502 0.10143581
-0.038032651 0.23256502 0.10870729
0.098016039 0.232565 0.10401025
-0.233795 0.26875043 0.10882628
-0.13085257 0.30800289 0.10273206
-0.18128219 0.36800289 0.10523826
-0.22816344 -0.37233999 0.11100555
-0.12291908 -0.37233999 0.11065613
-0.10466567 -0.37233999 0.11398475
-0.056477562 -0.37233996 0.11322595
0.23379499 -0.28394243 0.1136971
0.23379499 -0.18159302 0.11417149
-0.23379499 0.0072082244 0.1136979
-0.233795 0.035791919 0.11552168
-0.23379502 0.11884744 0.1142326
-0.233795 0.18390575 0.11507227
0.23379499 0.21271636 0.11226656
-0.050749626 0.232565 0.11947539
0.055028427 0.232565 0.11437204
-0.233795 0.32239324 0.11725126
-0.18659903 0.36722529 0.11925728
-0.03817679 -0.37234002 0.12724082
0.225136 -0.36815161 0.12755483
0.233795 -0.25494942 0.1202262
-0.233795 -0.029554345 0.12429614
0.23379502 0.091672204 0.12034377
-0.11530107 0.24081232 0.12027873
-0.1284043 0.29875761 0.12804165
-0.23379502 0.35027021 0.12994549
-0.21429007 -0.37233999 0.1322421
-0.23379502 -0.28893206 0.13299236
0.233795 -0.17146477 0.13979186
0.23379502 -0.14259171 0.13506104
0.233795 -0.093228228 0.13447195
0.233795 -0.021332912 0.13044497
0.23379502 0.030703627 0.13313195
-0.23379502 0.043874972 0.13959545
0.23379499 0.13779816 0.13109189
-0.233795 0.19026971 0.13912752
0.23163 0.20552813 0.13600381
-0.086196102 0.22299744 0.13238731
-0.233795 0.29848766 0.13920547
-0.233795 0.31210911 0.13860595
-0.19999486 -0.37233999 0.14244908
0.23379502 -0.27211383 0.14913625
-0.233795 0.12525062 0.14747463
0.23379499 0.16909167 0.14153557
0.23379499 0.20513043 0.1451069
-0.11240645 0.231482 0.14948553
-0.233795 0.2835277 0.1454863
-0.12792853 0.3028549 0.14234747
-0.11434591 -0.37233999 0.15284593
0.0047546923 -0.37234002 0.15605426
0.074850217 -0.37233999 0.15264414
-0.23379499 -0.2816411 0.15285629
0.233795 -0.2370069 0.15169172
0.233795 -0.21756123 0.15730183
-0.23379499 -0.20643216 0.15571468
0.23379499 -0.14315139 0.15092975
0.233795 -0.11097757 0.15697846
-0.23379499 -0.10203931 0.1569137
0.23379502 -0.010996729 0.15979674
0.233795 0.081672385 0.15136231
0.233795 0.14580515 0.15529494
-0.233795 0.31263059 0.15913671
-0.20998952 -0.37233999 0.16811748
-0.065767318 -0.37233999 0.16017844
-0.035362046 -0.37233999 0.16585582
0.12209196 -0.37234002 0.16595337
0.22317655 -0.37233996 0.16008149
-0.23379502 -0.32015002 0.16318397
0.233795 -0.2780304 0.16347744
0.23379502 -0.26132172 0.16208477
-0.233795 -0.18376391 0.16418655
-0.233795 -0.17594102 0.16056339
-0.23379499 -0.064701147 0.16445744
-0.23379499 0.026373401 0.16309841
-0.233795 0.16675214 0.16965787
-0.233795 0.19186528 0.16921104
-0.084714636 0.23222305 0.16968246
0.11522529 0.232565 0.16279836
0.12746941 0.232565 0.16798632
0.16373928 0.23256502 0.16532923
0.019673005 -0.37234002 0.17372498
0.14416637 -0.37233996 0.1720847
0.17246471 -0.37233999 0.17974101
-0.233795 -0.36870182 0.17761493
0.23379502 -0.32004184 0.17034206
-0.23379502 -0.17293526 0.17276525
0.23379499 -0.1498895 0.17728615
-0.233795 -0.099570155 0.17853431
-0.23379502 -0.027117992 0.17126851
0.23379499 -0.0031351969 0.17109929
-0.233795 0.13293806 0.17645374
0.04384945 0.23256499 0.17295955
0.072337463 0.232565 0.17551909
-0.12703232 0.29357815 0.17740402
-0.22367732 0.36398822 0.17042649
-0.17212965 0.36346465 0.17794079
-0.12453154 -0.37233999 0.18425553
0.011527404 -0.37233999 0.18531236
-0.233795 -0.36111441 0.18503237
0.233795 -0.23948979 0.18107054
0.233795 -0.21508825 0.18059692
-0.233795 -0.20895578 0.18313465
0.23379499 -0.20863661 0.18440402
0.233795 -0.1706937 0.18177439
-0.233795 0.15807563 0.18911211
-0.10428422 0.231482 0.18276963
-0.035510235 0.23256499 0.18356399
-0.023429282 0.23256502 0.18280311
0.12738937 0.232565 0.18343417
0.22977042 0.231482 0.18643923
-0.20636027 -0.37233999 0.19787666
-0.16773497 -0.37233999 0.19449574
0.0779659 -0.37233999 0.19532436
-0.233795 -0.28472564 0.19955604
0.23379502 -0.18314557 0.19183743
0.23379502 -0.16810314 0.19918078
0.23379502 -0.13818745 0.19321218
0.23379499 -0.01664865 0.19668843
-0.23379502 0.052056041 0.19439214
-0.23379499 0.11393595 0.19488686
0.20808831 0.22282299 0.19519296
0.059506036 0.23256499 0.1988993
-0.054880347 -0.37233996 0.20827581
-0.048732594 -0.37233996 0.2040213
-0.031004392 -0.37233999 0.20399781
-0.233795 -0.27859411 0.20447001
0.233795 -0.25813073 0.20133917
0.233795 -0.13294183 0.20853886
-0.233795 -0.1058273 0.20178232
-0.233795 -0.056262806 0.2010363
0.233795 -0.03480123 0.20734455
-0.233795 0.15264665 0.20489141
-0.004042685 0.232565 0.20674269
0.0069542313 0.23256499 0.20392694
0.043361872 0.23256502 0.20615071
0.053392392 0.23256499 0.20327546
0.099085495 0.23242366 0.20960651
-0.23379502 0.29657221 0.20789662
-0.23379499 0.32834953 0.209985
-0.233795 0.34952489 0.20889801
-0.15760668 0.35583377 0.20216686
0.233795 -0.34180671 0.21408807
-0.233795 -0.32006738 0.2183457
0.233795 -0.28144604 0.21575131
-0.233795 -0.25802702 0.21327791
-0.23379502 -0.11570273 0.21912055
-0.23379502 -0.06178017 0.2111399
0.23379499 -0.040444948 0.21688965
-0.23379502 -0.01304279 0.21838547
0.233795 0.049005926 0.21760313
-0.233795 0.068413362 0.21427622
-0.233795 0.10086995 0.21961516
0.233795 0.12623993 0.2103845
0.069119267 0.22282299 0.2135234
-0.10763355 0.231482 0.21449642
-0.12381172 0.28141361 0.21369509
-0.1838996 0.3373419 0.2186023
-0.23065324 0.34501392 0.21394856
-0.092166051 -0.37233999 0.22543474
-0.233795 -0.25054747 0.22609863
-0.233795 -0.21369216 0.2217572
0.23379502 -0.20637007 0.22313872
0.233795 -0.17704955 0.22906929
0.23379502 -0.02365455 0.228715
-0.23379499 -0.014317349 0.22943653
-0.23379499 0.14168623 0.22118215
-0.019915869 0.231482 0.22040345
0.18892199 0.231482 0.22128065
-0.12977004 0.29545781 0.22408697
-0.20177123 0.30127037 0.22846065
-0.22080228 0.3265762 0.22220805
-0.1715463 -0.36368096 0.23524606
0.090899415 -0.36368099 0.23061568
0.20409337 -0.36368099 0.23811209
0.22887023 -0.36368099 0.23036301
-0.18240681 -0.35375148 0.238124
0.23086071 -0.35861802 0.23788372
-0.17969084 -0.34617636 0.238124
-0.065326251 -0.34543866 0.238124
-0.038656689 -0.34527692 0.23812401
-0.2232258 -0.33841437 0.238124
-0.14578712 -0.33186266 0.23812398
-0.10402298 -0.33031872 0.23812401
0.17702371 -0.33167323 0.238124
-0.23379502 -0.32332376 0.23403299
-0.22458169 -0.32548392 0.238124
-0.20314685 -0.31790832 0.23812398
-0.057789624 -0.31830737 0.23812398
-0.233795 -0.30625004 0.23037647
-0.21748753 -0.30112234 0.238124
-0.18564536 -0.30599102 0.23812401
-0.004919596 -0.30956227 0.238124
0.093109131 -0.30525926 0.238124
0.12266612 -0.3005726 0.238124
0.232043 -0.30690861 0.23622325
0.068338625 -0.29730293 0.238124
0.21461158 -0.29625085 0.23812401
-0.20850533 -0.28672796 0.238124
0.0086562857 -0.28991219 0.238124
0.2099773 -0.28402299 0.23812401
-0.067763016 -0.27432278 0.23812401
0.063542582 -0.27492395 0.238124
0.079080537 -0.27804187 0.238124
-0.1900866 -0.26079684 0.23812398
-0.14186199 -0.26901335 0.238124
-0.082439445 -0.26432025 0.23812401
-0.064216278 -0.26526928 0.23812398
0.046843491 -0.26456866 0.238124
0.085607007 -0.26833761 0.238124
-0.1054252 -0.25284156 0.23812398
-0.17999148 -0.24304938 0.23812401
-0.020274207 -0.24272507 0.23812401
0.19679309 -0.24719201 0.23812401
-0.19690856 -0.23387605 0.23812398
0.034273133 -0.23648661 0.23812401
0.017324049 -0.22976075 0.238124
-0.11053936 -0.21504483 0.238124
0.12794134 -0.21372837 0.238124
-0.1248072 -0.20198826 0.23812401
-0.051496901 -0.19716799 0.23812401
0.18226562 -0.19411546 0.238124
0.061520219 -0.18020225 0.238124
0.13436612 -0.18017563 0.238124
0.069381133 -0.17186962 0.238124
0.11113381 -0.17437187 0.238124
0.23346508 -0.17164555 0.23545289
-0.23304859 -0.16818425 0.23812401
0.019254111 -0.16460648 0.23812398
0.20328015 -0.16255686 0.23812398
-0.099913731 -0.15703732 0.238124
-0.063009538 -0.15984726 0.23812401
0.057912052 -0.15813737 0.23812398
0.094373591 -0.15233742 0.238124
0.22985911 -0.15681569 0.23809889
0.039543796 -0.14344317 0.23812401
0.12270263 -0.14508681 0.238124
0.0011671558 -0.13617834 0.238124
0.22891474 -0.13464296 0.23812398
0.17100778 -0.12752236 0.238124
0.21965152 -0.12719864 0.23812401
-0.213065 -0.10375375 0.238124
-0.11491276 -0.10748204 0.238124
-0.043279555 -0.10101321 0.238124
0.0093813017 -0.10973665 0.23812398
0.015425615 -0.10914407 0.238124
0.12680341 -0.1024729 0.238124
0.17200339 -0.105398 0.23812398
-0.11332805 -0.090059102 0.23812401
-0.099391431 -0.093135968 0.238124
-0.029859059 -0.090694435 0.238124
-0.17970684 -0.083473109 0.238124
0.18391877 -0.0893507 0.238124
-0.081826136 -0.079503082 0.23812398
0.06890744 -0.078617781 0.23812401
0.15178341 -0.077638946 0.238124
0.12676346 -0.068816192 0.238124
-0.00031851325 -0.05333548 0.238124
0.0019548014 -0.053609662 0.238124
0.23222914 -0.051551878 0.23711723
0.035320126 -0.045166589 0.23812401
-0.1496471 -0.036921188 0.238124
-0.034163013 -0.037393771 0.23812401
0.17746267 -0.033064537 0.23812398
-0.062565051 -0.024712803 0.23812398
0.11409094 -0.021071605 0.23812398
-0.15899877 -0.01589749 0.23812398
0.11702661 -0.01252716 0.238124
-0.1534037 -0.0061462969 0.23812398
-0.14480492 -0.0070496127 0.238124
0.10523321 -0.0083317235 0.23812398
-0.12494136 0.0023941696 0.238124
0.056827176 0.003887061 0.23812398
-0.071398951 0.019369539 0.238124
0.18794103 0.011065058 0.238124
-0.21095838 0.027185978 0.23812398
-0.18963833 0.025927927 0.238124
-0.18817465 0.03247536 0.23812401
0.12284038 0.031692032 0.238124
-0.19702908 0.0464563 0.23812401
-0.18280038 0.041738097 0.23812401
0.007582739 0.057065602 0.238124
0.10897196 0.056032851 0.238124
0.13295349 0.051213242 0.23812398
-0.070247956 0.066344365 0.23812401
-0.056379452 0.069132291 0.23812401
-0.0056119487 0.064974502 0.238124
0.12319132 0.063153557 0.238124
-0.14184462 0.070670843 0.238124
-0.011212591 0.077800691 0.238124
0.0051857084 0.074217059 0.23812398
0.029659431 0.072067432 0.238124
0.082498632 0.072202377 0.23812401
0.23379502 0.077949993 0.23302187
-0.233795 0.089076407 0.23704246
-0.15444706 0.082679451 0.238124
-0.066285282 0.081344172 0.23812401
0.099438563 0.085741855 0.23812398
-0.17524426 0.092918463 0.238124
0.043446492 0.091958858 0.23812401
0.18608895 0.0931409 0.238124
-0.079405211 0.10951687 0.23812398
0.21433488 0.10518962 0.238124
-0.13133392 0.11004458 0.238124
-0.11463962 0.11875145 0.238124
-0.233795 0.12496979 0.23801157
-0.029577062 0.12259354 0.238124
-0.00053597987 0.12427519 0.23812401
0.10429721 0.12531856 0.23812401
0.14592123 0.12111755 0.238124
-0.22296444 0.13087855 0.238124
-0.10709651 0.13512358 0.238124
0.14547253 0.13961898 0.238124
-0.021707557 0.14808032 0.23812401
0.13399069 0.14958474 0.23812401
0.17154939 0.14170039 0.238124
-0.21214089 0.15905476 0.238124
0.069942787 0.1524827 0.238124
0.10454622 0.15248652 0.23812398
0.16223401 0.15217185 0.23812398
-0.11238192 0.16668984 0.238124
-0.072000213 0.16951364 0.23812401
0.047469757 0.16331938 0.23812401
-0.233795 0.17939012 0.23704697
-0.17124121 0.17535235 0.23812401
-0.11691558 0.17736718 0.23812401
0.092042096 0.17025766 0.238124
0.22103362 0.17084321 0.238124
-0.025606431 0.18689147 0.23812401
0.089099675 0.18732306 0.23812401
0.2275791 0.18793459 0.238124
-0.079544902 0.19009554 0.238124
-0.0046235025 0.19385993 0.23812401
-0.23246509 0.205504 0.23314115
-0.20884725 0.2056614 0.23596001
0.11846381 0.20701453 0.23596001
0.17323479 0.20988584 0.238124
0.20820574 0.20720547 0.23596001
0.21088079 0.20953737 0.23596001
0.22871509 0.20531322 0.238124
-0.21006994 0.21487403 0.23812398
-0.10520969 0.21697547 0.238124
-0.097670853 0.2159428 0.23812398
0.1765945 0.21352911 0.238124
0.21754728 0.22975773 0.238124
0.23197764 0.22717187 0.23731226
-0.19083956 0.23357868 0.238124
-0.11425522 0.23686142 0.23155755
-0.10938761 0.231482 0.23084196
0.0035633002 0.231482 0.23544024
-0.1347402 0.24836209 0.23691154
-0.221365 0.25569379 0.23610058
-0.17166406 0.26153553 0.23537624
-0.13703693 0.29233605 0.23032568
