# .PCD v0.7 - Point Cloud Data file format
VERSION 0.7
FIELDS x y z
SIZE 4 4 4
TYPE F F F
COUNT 1 1 1
WIDTH 94
HEIGHT 1
VIEWPOINT 0 0 0 1 0 0 0
POINTS 94
DATA ascii
-0.17353831 0.36875427 -0.14255494
-0.16709195 0.36715892 -0.14381009
-0.21268761 0.37844306 -0.14159161
-0.20265391 0.3759599 -0.14188397
-0.19464706 0.37397835 -0.14277355
-0.18499853 0.3715905 -0.14253029
-0.17912948 0.37013802 -0.14411567
-0.22234575 0.38083327 -0.14252438
-0.21988024 0.3802231 -0.14307308
-0.17379777 0.36881852 -0.13483657
-0.16676539 0.36707807 -0.13591164
-0.21648552 0.37938294 -0.13504285
-0.20538996 0.37663704 -0.13523875
-0.19487384 0.37403446 -0.13359036
-0.18638416 0.37193343 -0.13517042
-0.17915744 0.3701449 -0.13475241
-0.22253904 0.38088113 -0.13463111
-0.21951021 0.38013154 -0.13717389
-0.17482692 0.36907315 -0.12469986
-0.16767722 0.36730382 -0.12616576
-0.21443073 0.37887445 -0.12469551
-0.20564243 0.37669945 -0.12598561
-0.19474553 0.3740027 -0.12518507
-0.18528304 0.37166092 -0.12377345
-0.17955095 0.37024233 -0.12296557
-0.22346866 0.38111123 -0.12480589
-0.21953678 0.3801381 -0.12374941
-0.17463757 0.36902633 -0.11542781
-0.16661344 0.36704051 -0.11601328
-0.21506605 0.37903169 -0.11448997
-0.2047205 0.37647134 -0.11536697
-0.19570394 0.37423992 -0.11526372
-0.18512368 0.37162146 -0.11330249
-0.17894909 0.37009335 -0.11517847
-0.2233386 0.38107905 -0.11618143
-0.17467467 0.36903548 -0.10478465
-0.16601732 0.36689299 -0.10518405
-0.21462743 0.37892312 -0.10393574
-0.2038381 0.37625292 -0.10414473
-0.19383371 0.37377706 -0.10434778
-0.18282621 0.37105289 -0.10499929
-0.17931232 0.37018329 -0.10014175
-0.22377308 0.38118654 -0.10625353
-0.21940264 0.3801049 -0.10849826
-0.17419812 0.36891758 -0.094998568
-0.16730586 0.36721185 -0.095709682
-0.21395841 0.37875754 -0.095238157
-0.20654163 0.37692207 -0.097436987
-0.19474879 0.3740035 -0.094599545
-0.18557201 0.37173244 -0.095229134
-0.1791857 0.37015191 -0.094905555
-0.22286475 0.38096175 -0.094221711
-0.21976106 0.38019359 -0.096508667
-0.17557096 0.36925733 -0.086100526
-0.16663353 0.36704549 -0.085508034
-0.21457325 0.37890971 -0.085344218
-0.2038568 0.37625757 -0.084768444
-0.19523783 0.37412456 -0.084997565
-0.18518998 0.37163785 -0.084883459
-0.17971711 0.37028345 -0.085407913
-0.22362082 0.38114884 -0.084387004
-0.21924743 0.38006651 -0.081958517
-0.17337279 0.36871332 -0.074182458
-0.16733241 0.36721843 -0.075238086
-0.216066 0.37927914 -0.073526345
-0.20510525 0.37656662 -0.075700007
-0.19507928 0.37408531 -0.074614115
-0.18535712 0.37167922 -0.075394139
-0.17924857 0.37016749 -0.074544936
-0.22378868 0.38119042 -0.073720507
-0.21988939 0.38022539 -0.075235859
-0.17435105 0.36895543 -0.064073786
-0.16675071 0.36707446 -0.065650672
-0.21582122 0.37921858 -0.063101172
-0.20467019 0.37645894 -0.064659722
-0.19585218 0.37427658 -0.064322799
-0.18400973 0.37134579 -0.064543322
-0.17919934 0.3701553 -0.064990386
-0.22467995 0.38141099 -0.067073226
-0.2194826 0.38012469 -0.066485822
-0.17039475 0.36797631 -0.059696306
-0.16570939 0.36681676 -0.059381228
-0.2158615 0.37922853 -0.059278287
-0.1904819 0.37294754 -0.059580322
-0.18794611 0.37231997 -0.059893735
-0.16649598 0.36730126 -0.02057286
-0.17040077 0.36866507 -0.014633954
-0.16657759 0.36732972 -0.015721584
-0.16665836 0.36735794 -0.0047626328
-0.17028789 0.36862567 0.0067875236
-0.16671246 0.36737686 0.0049104765
-0.17010386 0.36856139 0.013140179
-0.16693379 0.3674542 0.014746112
-0.1661173 0.36716896 0.025219819
