# .PCD v0.7 - Point Cloud Data file format
VERSION 0.7
FIELDS x y z
SIZE 4 4 4
TYPE F F F
COUNT 1 1 1
WIDTH 813
HEIGHT 1
VIEWPOINT 0 0 0 1 0 0 0
POINTS 813
DATA ascii
0.20015541 0.25895673 -0.217217
0.20831054 0.26628387 -0.217217
0.21945128 0.26464275 -0.217217
0.22624302 0.26146695 -0.21088676
0.226243 0.27427089 -0.21504256
0.19922122 0.28018403 -0.217217
0.21873403 0.2865968 -0.217217
0.20771246 0.29498184 -0.217217
0.22164677 0.29614675 -0.217217
0.21472736 0.3025175 -0.217217
0.226243 0.3009415 -0.21153642
0.2149253 0.3217428 -0.217217
0.22046381 0.254316 -0.20185722
0.226243 0.28084648 -0.20505905
0.21446894 0.32184801 -0.20854226
0.22227032 0.32184801 -0.20463982
0.226243 0.25432253 -0.1925476
0.22624299 0.26209742 -0.19877401
0.226243 0.31246674 -0.1917001
0.19832309 0.32184801 -0.19979374
0.21524304 0.32184801 -0.19588724
0.2005879 0.254316 -0.17235212
0.21734372 0.254316 -0.1710763
0.19987351 0.32184803 -0.17558481
0.21660444 0.32184801 -0.17114931
0.23736884 0.0040367218 -0.16047277
0.25341195 0.005319139 -0.16081637
0.21238838 0.019276036 -0.16399978
0.23975584 0.011975923 -0.16260003
0.23213014 0.026878554 -0.1646651
0.22413811 0.031833488 -0.16509871
0.2333575 0.034598667 -0.16534072
0.24906301 0.03427802 -0.16531263
0.2530531 0.035846554 -0.16544992
0.22706835 0.047111832 -0.16615427
0.25084996 0.041047409 -0.16590506
0.24254033 0.05367548 -0.16557989
0.25787526 0.050136819 -0.1644271
0.22446916 0.065624312 -0.16453424
0.2363075 0.064788558 -0.16460738
0.21975458 0.076787278 -0.16320144
0.21892364 0.086941123 -0.1604808
0.24024399 0.085239731 -0.16093667
0.20492916 0.32184801 -0.16795388
0.21885307 0.32184801 -0.16168231
0.25612032 -0.021899879 -0.15160424
0.22029309 -0.012934012 -0.15578529
0.24655037 -0.019252092 -0.15283898
0.21347743 -0.0010619457 -0.15910661
0.24883187 -0.0075636581 -0.15736452
0.26210901 0.052564017 -0.15484071
0.26210901 0.06326744 -0.15234368
0.26194248 0.073656783 -0.15830135
0.21251145 0.090644345 -0.15948853
0.24201576 0.095964216 -0.15806314
0.25714201 0.090584375 -0.15875271
0.21929958 0.10481768 -0.15537696
0.22716221 0.10783315 -0.15397078
0.24466416 0.10000158 -0.15698136
0.23735678 0.11375209 -0.15121064
0.24932411 0.11264208 -0.15172826
0.22624302 0.26384148 -0.15577306
0.226243 0.27070677 -0.15437862
0.226243 0.30628467 -0.15421636
0.21555896 0.32184801 -0.15731853
0.21773848 -0.041207895 -0.14205882
0.22948001 -0.043700561 -0.14031346
0.22951353 -0.035577007 -0.14522617
0.21841559 -0.026982628 -0.149234
0.24434435 -0.028874665 -0.14835167
0.26210901 -0.010294836 -0.1409162
0.26210901 0.068811886 -0.14994118
0.25222689 0.11913479 -0.14870054
0.24118246 0.12532128 -0.14581564
0.2584376 0.12175439 -0.14525336
0.24548239 0.13450521 -0.14045636
0.21365076 0.254316 -0.14081641
0.19843288 0.32184803 -0.14506239
0.21557073 0.32184798 -0.14024585
0.22277984 0.32184798 -0.14939547
0.23466739 -0.056552246 -0.13131468
0.24014005 -0.044150028 -0.13999873
0.26210901 -0.020490309 -0.13140161
0.26210901 0.018340606 -0.13934183
0.26210901 0.047497265 -0.13827311
0.26210901 0.062749639 -0.13348743
0.26210901 0.082596473 -0.13336103
0.23636843 0.142873 -0.13459766
0.20941877 0.254316 -0.13075718
0.21291596 0.254316 -0.13665396
0.226243 0.26567104 -0.13629323
0.22624302 0.31183106 -0.136264
0.23663476 -0.066350222 -0.1234481
0.26126677 -0.059448082 -0.1233844
0.26210901 -0.024876188 -0.12586226
0.26210901 -0.0022851974 -0.12616321
0.26210901 0.0092343697 -0.12617588
0.25773093 0.019815316 -0.12177643
0.25406739 0.023527358 -0.12218618
0.26210901 0.02799478 -0.12989396
0.24231535 0.03754697 -0.12219617
0.22179583 0.042145409 -0.12022646
0.24146552 0.044184998 -0.12257639
0.22656697 0.051788278 -0.1205221
0.25633666 0.061517552 -0.12311231
0.26210901 0.099718422 -0.12326326
0.257952 0.14961813 -0.12800319
0.2226643 0.15877551 -0.12203225
0.22624302 0.25655574 -0.12788035
0.22624302 0.26928154 -0.12845552
0.226243 0.27747408 -0.12418455
0.226243 0.2839202 -0.12214651
0.20955245 0.32184798 -0.12799008
0.25663802 -0.079475775 -0.11000603
0.26210901 -0.038189687 -0.11738875
0.20764564 0.00334416 -0.11126451
0.25748023 0.0095246714 -0.11898877
0.18826836 0.015064919 -0.11222308
0.20448606 0.013705829 -0.11379203
0.22678871 0.019001855 -0.11786982
0.18307818 0.024255024 -0.11406687
0.19120142 0.020468412 -0.11402053
0.20840737 0.029427055 -0.11756667
0.19645686 0.036812931 -0.11683119
0.20207176 0.030997068 -0.11697164
0.21238151 0.039769523 -0.11893046
0.20797655 0.05812436 -0.11781915
0.19958204 0.06759654 -0.11580812
0.18099922 0.075363725 -0.11151177
0.19855292 0.074145816 -0.11393071
0.21788269 0.08526735 -0.11325483
0.22929265 0.083457083 -0.11510003
0.23654453 0.084674448 -0.1156382
0.2472226 0.080364898 -0.11806592
0.2545639 0.086014919 -0.11742686
0.23840097 0.09010981 -0.11403113
0.26210901 0.11634764 -0.11247797
0.26210901 0.12416955 -0.11318126
0.21288064 0.1654577 -0.11534974
0.23638098 0.1643585 -0.116449
0.25549236 0.16429459 -0.11651291
0.22624299 0.29644099 -0.11175948
0.226243 0.31664038 -0.1146896
0.21809506 0.32184801 -0.11904019
0.22498094 0.32123008 -0.11581761
0.2159704 -0.081636623 -0.1081623
0.22432187 -0.083340295 -0.10645868
0.24252379 -0.087680742 -0.10045609
0.25596306 -0.083673112 -0.10469613
0.26210901 -0.038751282 -0.1088374
0.25655806 -0.023602664 -0.10360652
0.20381114 -0.015054539 -0.10178798
0.21051879 -0.016771238 -0.1019184
0.23414099 -0.016707001 -0.105281
0.25696677 -0.01833263 -0.107354
0.18521805 0.0015470954 -0.10757741
0.180217 0.033750918 -0.10789744
0.180217 0.066947915 -0.10455304
0.180217 0.089317657 -0.10106257
0.21378964 0.096416697 -0.10796352
0.22566286 0.097766437 -0.10884257
0.19709325 0.10673931 -0.10075921
0.2262421 0.10490213 -0.10558911
0.26210901 0.1177096 -0.10582314
0.26210901 0.12486833 -0.10521724
0.26210901 0.13173646 -0.10103361
0.21674053 0.17413998 -0.10666706
0.22452693 0.17569208 -0.10473592
0.23754999 0.17247167 -0.10833542
0.226243 0.27156579 -0.10773365
0.226243 0.29672009 -0.10898434
0.21686208 -0.092569336 -0.093474209
0.23694417 -0.092483163 -0.093597278
0.2484782 -0.092694968 -0.093294784
0.21736015 -0.033750232 -0.090838328
0.25350088 -0.036870107 -0.093491763
0.19591561 -0.02991554 -0.090661436
0.22778106 -0.025429465 -0.098282441
0.23319989 -0.026295274 -0.098437898
0.180217 0.024231724 -0.094027989
0.180217 0.057834141 -0.09856239
0.180217 0.081112631 -0.090899155
0.180217 0.097317047 -0.093525045
0.18857108 0.10692669 -0.099429995
0.20881799 0.12246244 -0.091397934
0.24862725 0.12349876 -0.096268676
0.2535271 0.12415862 -0.096495472
0.26018196 0.12146992 -0.099313624
0.21715508 0.17942721 -0.099401422
0.21189915 0.254316 -0.097930655
0.22475742 0.254316 -0.094174132
0.22624302 0.2853671 -0.093770266
0.22624302 0.304162 -0.095161639
0.19889389 0.32184801 -0.098333418
0.25008023 -0.10068731 -0.081871286
0.26210901 -0.063309468 -0.088353813
0.20601963 -0.040805094 -0.081936397
0.21220197 -0.040864147 -0.082884103
0.25925523 -0.045726158 -0.085684724
0.180217 -0.032893796 -0.082565308
0.19428901 -0.034238406 -0.086592853
0.20733443 -0.037100241 -0.085855439
0.24284288 -0.039605323 -0.089132987
0.180217 0.02257294 -0.080871858
0.180217 0.086301446 -0.089902878
0.180217 0.10285929 -0.081557974
0.180217 0.12261665 -0.080628648
0.19284843 0.12970203 -0.081903286
0.20722002 0.13145548 -0.082490362
0.24529806 0.13116011 -0.088986851
0.25807738 0.13579854 -0.086429276
0.26037425 0.13395974 -0.08864224
0.2594344 0.14030166 -0.082146935
0.26210901 0.1703563 -0.087490566
0.24687499 0.189723 -0.084696963
0.25439945 0.18720376 -0.088294931
0.22624299 0.26425615 -0.088530667
0.226243 0.27718204 -0.089204356
0.226243 0.3034254 -0.084023602
0.226243 0.31867635 -0.081977352
0.20586619 0.32184801 -0.089816317
0.23538733 -0.10499031 -0.072643906
0.25776184 -0.10074508 -0.07856793
0.26068309 -0.097995602 -0.077577807
0.24387605 -0.053692475 -0.07392779
0.25881901 -0.056127068 -0.073450729
0.22013715 -0.048700571 -0.076291263
0.180217 -0.014398482 -0.073103815
0.180217 0.035811912 -0.076909117
0.180217 0.064600497 -0.076336324
0.180217 0.10504335 -0.07208766
0.18545127 0.13522534 -0.073687412
0.2074843 0.13804933 -0.075939342
0.22599448 0.19341587 -0.078181833
0.24395676 0.19542226 -0.073879391
0.22624299 0.30963665 -0.074827939
0.20226833 0.32184801 -0.079563618
0.22551428 -0.10793491 -0.066329509
0.24528696 -0.10997319 -0.061958592
0.26210901 -0.073344477 -0.063391507
0.25692961 -0.0611206 -0.065940037
0.26049888 -0.063659288 -0.063030995
0.22356355 -0.05957837 -0.061443988
0.180217 0.066581465 -0.06739758
0.180217 0.072859794 -0.063954771
0.180217 0.089045078 -0.06524156
0.180217 0.11698182 -0.068929493
0.19253841 0.14113103 -0.068719953
0.20834428 0.1429549 -0.069288239
0.21278925 0.14380394 -0.068967998
0.24443752 0.15228379 -0.063210756
0.26210901 0.16780627 -0.06484364
0.26210901 0.18710808 -0.062392246
0.23738477 0.19800997 -0.068330467
0.24591623 0.19851097 -0.067256093
0.25517768 0.20138492 -0.061093375
0.226243 0.25442821 -0.063514359
0.226243 0.26710153 -0.061386265
0.22624302 0.28603286 -0.066191234
0.22624302 0.29811916 -0.062033765
0.23671234 -0.06438648 -0.055885095
0.180217 -0.041410293 -0.056811154
0.180217 -0.030141549 -0.054534234
0.180217 0.020588724 -0.05493547
0.180217 0.043129861 -0.052661881
0.180217 0.0956944 -0.051127154
0.22290806 0.15382904 -0.055481423
0.24848861 0.15658025 -0.05655098
0.26210901 0.16483289 -0.052733794
0.22582121 0.20431817 -0.054485653
0.19866991 0.254316 -0.054586381
0.20566472 0.25645715 -0.053173199
0.21225975 0.254316 -0.051308297
0.20697847 0.27330405 -0.053173199
0.20601237 0.28630659 -0.053173199
0.21324751 0.28983554 -0.051468201
0.22150731 0.28640485 -0.051468201
0.19911346 0.29490834 -0.053173199
0.20032692 0.29772335 -0.053173199
0.21489958 0.2956996 -0.053173199
0.20896934 0.30092806 -0.053173199
0.22452995 0.30093539 -0.054002158
0.21334393 0.32184801 -0.054716885
0.226243 0.32173869 -0.053228177
0.21228908 -0.11467358 -0.049396534
0.22847612 -0.1155171 -0.046248421
0.24233329 -0.11498316 -0.048241176
0.25135207 -0.11630458 -0.043309465
0.26204649 -0.070949875 -0.048713509
0.19462259 -0.065027975 -0.043041274
0.21085814 -0.066547692 -0.044206236
0.180217 -0.032692261 -0.046201389
0.180217 -0.001056015 -0.041028026
0.180217 0.047161575 -0.040421646
0.180217 0.07746426 -0.044724151
0.18021698 0.083692349 -0.044152025
0.180217 0.10099775 -0.048878022
0.18303625 0.15407909 -0.044081248
0.26210901 0.16467948 -0.043115821
0.26210901 0.19641849 -0.045244116
0.2318572 0.20682013 -0.045147814
0.25833946 0.2054199 -0.042957954
0.20316224 0.254316 -0.04280952
0.226243 0.27962047 -0.048436865
0.226243 0.29008397 -0.042249475
0.22243626 0.32184801 -0.044011313
0.23861834 -0.11835982 -0.035639077
0.24073428 -0.11871046 -0.034330476
0.25051901 -0.11849901 -0.035119649
0.26210904 -0.096128345 -0.030837968
0.26210901 -0.087205596 -0.034487743
0.22726306 -0.071801007 -0.035647184
0.18084809 -0.067708582 -0.030268032
0.20238839 -0.069578528 -0.032873847
0.180217 -0.059824027 -0.031854633
0.180217 -0.04812891 -0.035437044
0.180217 -0.032479264 -0.03329644
0.180217 -0.023356719 -0.035947122
0.180217 0.036760457 -0.033819471
0.180217 0.057392042 -0.037847139
0.180217 0.090496033 -0.036907017
0.180217 0.11527327 -0.035228767
0.180217 0.14365309 -0.035586711
0.18493398 0.15806082 -0.034534506
0.20145017 0.15911454 -0.037950296
0.22651696 0.16159561 -0.039809197
0.23817442 0.16413692 -0.035546072
0.26210898 0.19351807 -0.03271452
0.22847451 0.2098742 -0.033749405
0.24275252 0.20822123 -0.039918605
0.21872716 0.2103413 -0.032006096
0.21418905 0.254316 -0.032476265
0.22624302 0.2668913 -0.036577325
0.21707153 0.32184801 -0.038226239
0.21501 -0.12079903 -0.025965575
0.2390323 -0.12063634 -0.027142894
0.24537648 -0.12073205 -0.026731387
0.25582868 -0.12105449 -0.023045424
0.21359223 -0.073802561 -0.022093479
0.180217 -0.019506017 -0.022159975
0.180217 0.079450503 -0.020503037
0.180217 0.085404612 -0.024018452
0.180217 0.1236984 -0.027320899
0.180217 0.13699684 -0.025283163
0.19172853 0.16018152 -0.02964309
0.21687637 0.16479431 -0.023617381
0.23897949 0.16579787 -0.029706214
0.24338065 0.21188931 -0.025025666
0.2104042 0.254316 -0.026081068
0.226243 0.25963107 -0.024324303
0.226243 0.27842003 -0.024367364
0.21734688 -0.12156869 -0.017167293
0.22696644 -0.12166615 -0.016053231
0.2354577 -0.12177597 -0.014797846
0.25195298 -0.121737 -0.015243247
0.26210901 -0.10012177 -0.01397294
0.180217 -0.030520126 -0.018589459
0.180217 0.014364671 -0.017729208
0.180217 0.08361613 -0.013618246
0.180217 0.09955436 -0.013839652
0.180217 0.11088452 -0.017834464
0.180217 0.12323461 -0.010924777
0.21535459 0.16613618 -0.016279086
0.26210901 0.17483672 -0.011753907
0.26210901 0.18192923 -0.010957025
0.21415223 0.21315795 -0.010528739
0.21255161 0.254316 -0.015115248
0.22505362 0.254316 -0.014204768
0.22624302 0.27184057 -0.018627124
0.226243 0.29534987 -0.012900835
0.26210901 -0.094536349 -0.0048451116
0.19549859 -0.073830187 -0.0048771473
0.21232332 -0.075596258 -0.0069211414
0.22559714 -0.077293225 -0.0050613424
0.23217991 -0.078416422 -0.00091898744
0.24563445 -0.079685196 -0.0041930443
0.180217 -0.062387697 -0.0043985285
0.180217 0.0053340113 -0.0085320557
0.180217 0.01587815 -0.0080801547
0.180217 0.022320449 -0.0045910291
0.180217 0.036305849 -0.0021666884
0.180217 0.063540041 -0.0026490502
0.180217 0.099206753 -0.0050727241
0.180217 0.10367745 -0.003293328
0.180217 0.11365046 -0.0046600495
0.180217 0.12027235 -0.003912047
0.180217 0.13465916 -0.0013506152
0.1817776 0.16316569 -0.0058715711
0.26210901 0.19890338 -0.0084089115
0.21598956 0.21370284 -0.004302511
0.23633814 0.21355921 -0.0059435964
0.20092593 0.254316 -0.00048621744
0.21009561 0.254316 -0.00022116955
0.20736012 0.32184801 -0.0031496063
0.21706495 -0.12305634 0.0051581487
0.22178161 -0.12328348 0.0025615606
0.24700491 -0.12327471 0.0023351794
0.26210901 -0.11387165 0.004538992
0.25033608 -0.080691598 0.0038960027
0.26200306 -0.084408924 0.0014494222
0.21762758 -0.076860487 0.0044727372
0.22691768 -0.077819996 0.0057785148
0.180217 -0.064768448 0.0077417302
0.180217 -0.058052506 0.0060196072
0.180217 -0.019293007 0.0086483937
0.180217 0.068514571 0.0057431906
0.180217 0.13139471 0.0041565206
0.180217 0.154126 0.0052776132
0.19479069 0.16533811 0.003232856
0.20085925 0.16595706 0.00082036748
0.21979144 0.16808389 0.0048754006
0.26096308 0.2092281 0.0084204562
0.21363111 0.21402587 0.0056080734
0.23680601 0.21421909 0.001596825
0.25472483 0.21326467 0.0040827403
0.226243 0.26657894 0.00016543921
0.22624302 0.28712362 0.0034754914
0.226243 0.29364377 0.0053667543
0.21472353 -0.12261401 0.010214739
0.23884004 -0.12232619 0.013505115
0.26210901 -0.11346608 0.0118786
0.26210901 -0.089244135 0.013762115
0.19673274 -0.073496453 0.015313508
0.23367798 -0.077946164 0.013266519
0.25527868 -0.079868339 0.019838693
0.180217 -0.062950559 0.016277494
0.180217 -0.048132814 0.017074112
0.180217 -0.024664138 0.01259385
0.180217 -0.015348203 0.015529713
0.180217 -0.0047004214 0.015069058
0.180217 0.023066096 0.016857019
0.180217 0.03214141 0.010229703
0.180217 0.044068247 0.015934501
0.180217 0.095777065 0.015841465
0.180217 0.13169017 0.012410069
0.180217 0.1468063 0.014421549
0.18598445 0.16370291 0.010285339
0.20783405 0.16612458 0.011469916
0.2111959 0.166162 0.015481226
0.22838578 0.16800728 0.017103128
0.25712156 0.17126539 0.017832093
0.26210901 0.19528428 0.01558098
0.26173612 0.20570387 0.016058255
0.21896139 0.21317852 0.015291
0.22107881 0.21313013 0.015843928
0.19968142 0.254316 0.013909996
0.22396851 0.25579008 0.013089544
0.22624302 0.26164633 0.014207546
0.24383973 -0.12147225 0.023267061
0.26210901 -0.1105563 0.023174867
0.26210901 -0.10724594 0.024557546
0.26210901 -0.086315125 0.022656217
0.22293445 -0.075087287 0.02645212
0.25388479 -0.078165919 0.028733626
0.18062587 -0.06927827 0.029307412
0.180217 -0.015322432 0.021758286
0.180217 -0.0084406054 0.027393654
0.180217 0.067555353 0.022334244
0.180217 0.093944617 0.021154307
0.180217 0.14101905 0.024397612
0.22522774 0.1666874 0.02474268
0.26210901 0.18304865 0.027823877
0.26210901 0.19125348 0.022800585
0.26210901 0.20190671 0.027972251
0.19852811 0.32184798 0.029212449
0.24909858 -0.12062582 0.032179642
0.2527194 -0.12022832 0.033663072
0.22728905 -0.11973129 0.035518035
0.23918374 -0.11997513 0.034607992
0.24224442 -0.11855584 0.039904848
0.26210901 -0.096424036 0.034182124
0.20284131 -0.070513502 0.034582704
0.22218944 -0.073689595 0.031337641
0.26210901 -0.077157818 0.039411016
0.180217 -0.053068146 0.031174744
0.180217 -0.043793894 0.03406246
0.180217 -0.034316618 0.03725823
0.180217 -0.0034115594 0.03333481
0.180217 0.016522711 0.036047142
0.180217 0.1271103 0.030209647
0.180217 0.1353523 0.034788202
0.180217 0.14375569 0.038047891
0.180217 0.15722552 0.035442978
0.19308819 0.15973169 0.036924165
0.21829608 0.16265473 0.037230771
0.22229323 0.16495214 0.030435346
0.26210901 0.18012045 0.035657294
0.26210901 0.19031277 0.038709693
0.2545003 0.20979613 0.039037909
0.22624299 0.26915592 0.035732955
0.22624302 0.2856825 0.03056154
0.226243 0.30594072 0.035181731
0.2222818 -0.11691386 0.046032794
0.23674755 -0.11847782 0.040196002
0.2523846 -0.11735487 0.044386946
0.26210901 -0.10898408 0.041917115
0.22446507 -0.071346879 0.041093975
0.23431756 -0.071276367 0.045454815
0.18384747 -0.065729208 0.043244001
0.20493054 -0.067154497 0.046286955
0.213082 -0.068334445 0.045977626
0.22198258 -0.069323346 0.046282105
0.180217 -0.034376577 0.047194753
0.180217 0.0082296086 0.048974682
0.180217 0.043844968 0.047752049
0.180217 0.091154188 0.042421225
0.180217 0.1124474 0.042137314
0.180217 0.14400432 0.048211485
0.1867695 0.15544702 0.047162279
0.20794019 0.15739858 0.048745342
0.24342103 0.16365789 0.04416595
0.26210901 0.16538633 0.04992269
0.26210901 0.19421828 0.047944024
0.2185311 0.20883648 0.042619381
0.23226941 0.20901644 0.041947737
0.24736552 0.20916137 0.041406855
0.25097421 0.20887274 0.042484105
0.26210901 0.20180732 0.046311338
0.22624299 0.2731981 0.042900212
0.226243 0.28026032 0.040904671
0.22624302 0.29272527 0.040296353
0.19982153 0.32184801 0.041166358
0.20202963 0.32184801 0.046863079
0.23797259 -0.11528542 0.052110188
0.26210901 -0.07698974 0.05746606
0.21744122 -0.062356316 0.059985001
0.24308379 -0.067611873 0.055701479
0.180217 -0.045451753 0.051184699
0.180217 -0.0022277401 0.055687815
0.180217 0.0022667069 0.054032292
0.180217 0.025321484 0.055339236
0.180217 0.031500202 0.05511599
0.180217 0.057066787 0.050429072
0.18021698 0.085487492 0.054561093
0.180217 0.10714955 0.051328219
0.180217 0.11353864 0.055172399
0.180217 0.14459032 0.056534782
0.18947271 0.1513041 0.056783721
0.20387033 0.15198204 0.059252601
0.26210904 0.18045269 0.058516089
0.26210901 0.19294804 0.051380441
0.20430838 0.254316 0.054340877
0.22624302 0.30343559 0.050595932
0.20855451 0.32184801 0.051099904
0.21968216 -0.11265162 0.061211869
0.24579996 -0.11207405 0.06245045
0.26210904 -0.10217394 0.060109783
0.23113275 -0.060138293 0.067161106
0.25536022 -0.062545061 0.068587668
0.19087417 -0.057889327 0.062290695
0.180217 -0.032959003 0.062036503
0.180217 0.060661145 0.067682482
0.180217 0.12469766 0.067972094
0.180217 0.13860233 0.06903784
0.19055244 0.14578848 0.066666856
0.21248367 0.14978017 0.065368697
0.22700851 0.15216348 0.064381063
0.23893955 0.15333904 0.065596975
0.22879723 0.19963709 0.06983801
0.21944748 0.20227334 0.064184666
0.2247752 0.20141119 0.066033527
0.21344438 0.254316 0.063027248
0.226243 0.25687361 0.06759046
0.22624302 0.26380515 0.066834621
0.22624299 0.30287236 0.069880016
0.25253564 -0.10670881 0.073955961
0.26210901 -0.098908089 0.075431406
0.26210898 -0.077321067 0.077914566
0.26210901 -0.066967353 0.077849552
0.20766985 -0.054395907 0.070651948
0.2161189 -0.05419834 0.072630361
0.22679289 -0.056461293 0.071541332
0.24526201 -0.05494396 0.077416085
0.25925303 -0.058314346 0.075411342
0.1888492 -0.04934404 0.074088573
0.2164513 -0.049997292 0.078696914
0.180217 -0.023273792 0.078705549
0.180217 -0.0060903016 0.075225115
0.180217 0.030033277 0.07434804
0.180217 0.097531259 0.079965457
0.180217 0.10377534 0.073148869
0.180217 0.12868971 0.073173165
0.21155941 0.13953203 0.079818942
0.18361641 0.14171322 0.071094476
0.19654937 0.14084327 0.074933097
0.26210901 0.1667299 0.076721296
0.26210898 0.18243656 0.076520883
0.22529753 0.19562973 0.078431636
0.24410352 0.19621399 0.077178679
0.21737918 0.254316 0.073942281
0.22624297 0.27856478 0.076367818
0.226243 0.29016134 0.07783635
0.20318915 0.32184801 0.072343156
0.21457767 0.32184801 0.071533874
0.22054219 0.32184801 0.075277977
0.22656232 -0.10137151 0.085401565
0.26210901 -0.07181932 0.087659061
0.18778683 -0.039268743 0.08550097
0.180217 -0.0079493616 0.087448016
0.180217 0.024033023 0.087900117
0.180217 0.042790685 0.089074612
0.180217 0.07227774 0.08521992
0.180217 0.089792036 0.083381295
0.180217 0.10413055 0.089408539
0.180217 0.12087443 0.081081003
0.18091851 0.13121277 0.083446585
0.19001642 0.13531312 0.080827765
0.20863652 0.1366889 0.082484014
0.25391173 0.14168757 0.084857807
0.26146546 0.14468621 0.082476437
0.26210901 0.1507674 0.088469058
0.26210901 0.17562391 0.082386233
0.21370798 0.32184803 0.082067698
0.22300754 0.32145542 0.086388014
0.21292758 -0.097974621 0.090751648
0.22224081 -0.0958656 0.09376356
0.23980495 -0.093246028 0.097504601
0.2553336 -0.097235858 0.090692349
0.26210901 -0.078481436 0.095745593
0.26210901 -0.054116838 0.095722474
0.18690681 -0.033318862 0.091307245
0.1996903 -0.034768388 0.091939479
0.23224522 -0.033994175 0.097909078
0.180217 0.0037872139 0.099701509
0.180217 0.023798808 0.093562543
0.180217 0.030658565 0.09591949
0.180217 0.050127793 0.098118395
0.180217 0.07253442 0.096076556
0.18224774 0.1135604 0.098892599
0.19462997 0.12113523 0.095329434
0.21048456 0.12271579 0.096451461
0.22348711 0.12407764 0.097325683
0.24590451 0.12988763 0.095354319
0.24832889 0.18909273 0.090594374
0.25691846 0.18877253 0.090173751
0.21859819 0.32184801 0.09015049
0.25027439 -0.091321602 0.10025288
0.23280144 -0.087959692 0.10505407
0.2447163 -0.086163498 0.10761923
0.26210901 -0.051933665 0.10523774
0.26210901 -0.042138733 0.10984898
0.19907027 -0.015624288 0.10610859
0.21385607 -0.015146642 0.10805991
0.180217 -0.0059961127 0.10737967
0.19442803 -0.0072199092 0.10965563
0.180217 0.066207536 0.10959894
0.180217 0.073231481 0.1052914
0.19072968 0.10553576 0.10570369
0.21598926 0.10596541 0.10878732
0.18320611 0.11061065 0.10109267
0.22237927 0.11801328 0.10141608
0.24081366 0.11687708 0.10480323
0.25558847 0.11312471 0.1095079
0.2348327 0.12212891 0.10028499
0.25283992 0.1246293 0.10106557
0.26210901 0.13495612 0.10921441
0.24215299 0.17765853 0.10692372
0.22520548 0.25431597 0.10205816
0.22624299 0.27381384 0.10570204
0.1992279 0.32184801 0.10357006
0.22345951 0.32184801 0.1067877
0.2327029 -0.083097272 0.11169777
0.24823482 -0.078936532 0.11585873
0.26210901 -0.062187113 0.11444192
0.26210901 -0.025835274 0.11910191
0.26210901 -0.01234809 0.11865012
0.22145686 -0.0064064553 0.11346896
0.18823296 0.007697342 0.11524088
0.21133006 0.0023541045 0.11626728
0.180217 0.017139098 0.11053523
0.20409755 0.01198387 0.11828065
0.180217 0.022572739 0.1151043
0.19222036 0.088032283 0.11412946
0.19916773 0.092370585 0.11298931
0.20274602 0.090472303 0.11432905
0.21645597 0.095770389 0.11360063
0.23199639 0.10430894 0.11159366
0.26210901 0.16384323 0.11002733
0.25466806 0.17094529 0.11485808
0.226243 0.25843468 0.11952688
0.22624302 0.28621927 0.11538272
0.22624302 0.30444354 0.11465752
0.22132981 0.32184801 0.11399756
0.21395478 -0.071777813 0.12301788
0.23862657 -0.072291374 0.12250428
0.25204256 -0.07464996 0.12014556
0.26105213 -0.058761809 0.12912311
0.26210901 -0.014905189 0.12448483
0.23809499 0.0089351619 0.12151656
0.24127141 0.0089389784 0.12189623
0.22276238 0.019657113 0.12256179
0.2532306 0.016130988 0.12524892
0.20229931 0.022679877 0.12093258
0.21250218 0.026603684 0.12278984
0.2240648 0.024477212 0.12394008
0.24064642 0.022406468 0.12543038
0.25457287 0.029550904 0.12791032
0.2147782 0.032789387 0.12359442
0.1848821 0.049372885 0.12091275
0.20666873 0.04167274 0.12343431
0.22628126 0.043592703 0.12586932
0.23496573 0.043860972 0.12689665
0.24667117 0.048683323 0.12811525
0.1856721 0.056191448 0.12040748
0.19440717 0.051565085 0.12182182
0.21906231 0.054010469 0.12445754
0.20404539 0.066063747 0.12147807
0.2124908 0.062951826 0.12291561
0.23232824 0.06776695 0.12466272
0.21249959 0.070423424 0.12158743
0.2507672 0.071391761 0.12588936
0.22296944 0.08095289 0.12001395
0.24655156 0.089685276 0.12026142
0.2575295 0.085023582 0.12304284
0.26210901 0.12035849 0.12589779
0.26210901 0.14250217 0.12638316
0.24525893 0.16502902 0.12077489
0.21957761 0.254316 0.12607056
0.22389793 0.254316 0.12580253
0.22624302 0.26821089 0.12421292
0.226243 0.27256417 0.12368114
0.226243 0.28403223 0.12068278
0.22624299 0.30380937 0.12329668
0.22886418 -0.060840856 0.13330978
0.23712471 -0.055674981 0.13692692
0.25822592 -0.054150909 0.13578911
0.26210901 0.023775889 0.13617598
0.26210901 0.03309451 0.13838172
0.26210901 0.097486973 0.13083622
0.23672931 0.1484929 0.13566013
0.24445426 0.14785361 0.13610774
0.19700789 0.254316 0.13021153
0.22624299 0.26679206 0.13683467
0.226243 0.29527923 0.13512078
0.21767873 0.32184801 0.13282351
0.22225374 -0.049602743 0.14117873
0.23836121 -0.045390464 0.14412819
0.24913192 -0.047962651 0.14232713
0.24424431 -0.038565386 0.14883058
0.25863311 -0.039995231 0.14520541
0.26210901 -0.021258365 0.14884475
0.26210901 0.0046480075 0.14425234
0.26210901 0.02683142 0.14127302
0.26210901 0.046344839 0.14501426
0.26210901 0.082093686 0.14015263
0.24312846 0.13126166 0.14772528
0.26091367 0.13212886 0.14164343
0.24023898 0.14026801 0.14141913
0.22624302 0.27276295 0.14415973
0.226243 0.30237484 0.14365472
0.22624302 0.31801188 0.14174491
0.21441254 0.32184801 0.1459913
0.23242591 -0.031389706 0.15217656
0.22932203 -0.026622502 0.15439945
0.25654739 -0.023355693 0.15503538
0.26210901 0.001498126 0.15281975
0.26210901 0.024638282 0.1516387
0.26210901 0.046785995 0.15618572
0.26210901 0.069189519 0.15081164
0.26210901 0.073761806 0.15332507
0.26169577 0.097042397 0.15342358
0.2154135 0.10600401 0.15982085
0.2424843 0.10616453 0.15974599
0.2610288 0.10543987 0.15500985
0.24588977 0.11120123 0.15739745
0.25301281 0.11509588 0.15558143
0.23406991 0.1222192 0.15225992
0.20417795 0.25431603 0.1556716
0.226243 0.26901877 0.1528237
0.226243 0.28722829 0.15347174
0.20727977 0.32184801 0.15702404
0.24844766 -0.012328219 0.1610648
0.21143785 -0.0058501139 0.16282059
0.24492225 0.0062385472 0.16605961
0.23025292 0.02106479 0.16915324
0.25999123 0.042077757 0.16741329
0.24816366 0.064711794 0.16961113
0.25758412 0.069307745 0.16803758
0.22277944 0.073442198 0.1688471
0.25999117 0.074072078 0.1652135
0.23517935 0.08643505 0.1656134
0.25305164 0.09974505 0.16204709
0.23091564 0.10536797 0.16011742
0.226243 0.25432011 0.16600509
0.22624302 0.30208874 0.16135639
0.20562921 0.32184798 0.16569307
0.22104271 0.045422353 0.17128479
0.21348605 0.058294173 0.17017277
0.23751955 0.053271823 0.17061229
0.24917221 0.05291583 0.17064345
0.226243 0.25662139 0.17375109
0.226243 0.27054328 0.17959116
0.226243 0.2805807 0.17183216
0.20087312 0.32184801 0.17104308
0.226243 0.28370214 0.1843183
0.226243 0.31379971 0.18648216
0.2074146 0.32184801 0.18441872
0.21183102 0.32184801 0.18579265
0.22534269 0.32184801 0.18578336
0.21296465 0.254316 0.19645828
0.22396684 0.32184801 0.19515836
0.226243 0.28625178 0.20391317
0.226243 0.30094317 0.20388868
0.20139927 0.25587651 0.21507818
0.19891953 0.26618659 0.21715599
0.20563409 0.26604426 0.21715599
0.21808957 0.27251786 0.21715599
0.22052589 0.27492416 0.21715599
0.19945745 0.28309685 0.21715599
0.22092541 0.28307897 0.21715599
0.20770021 0.29276446 0.21715599
0.21605678 0.29733038 0.21715599
0.22624302 0.30031812 0.21165553
