# .PCD v0.7 - Point Cloud Data file format
VERSION 0.7
FIELDS x y z
SIZE 4 4 4
TYPE F F F
COUNT 1 1 1
WIDTH 973
HEIGHT 1
VIEWPOINT 0 0 0 1 0 0 0
POINTS 973
DATA ascii
-0.084063746 -0.38993707 -0.154333
-0.11365428 -0.37028468 -0.154333
-0.040201038 -0.37101525 -0.154333
0.075497627 -0.37971163 -0.154333
-0.050622586 -0.3625688 -0.154333
-0.046804514 -0.36231875 -0.154333
0.11149412 -0.36533803 -0.154333
-0.11248693 -0.32010365 -0.154333
0.185139 -0.30598223 -0.1531737
0.048758917 -0.29202312 -0.154333
0.11509009 -0.29710197 -0.154333
0.027667582 -0.28204852 -0.154333
-0.161883 -0.27080038 -0.15335271
0.1750131 -0.27266362 -0.154333
0.1803088 -0.27575678 -0.154333
0.12479822 -0.26687735 -0.154333
0.13636056 -0.26360714 -0.154333
0.07388778 -0.25601557 -0.154333
0.10475796 -0.25016463 -0.154333
-0.095004246 -0.21737644 -0.154333
0.16490495 -0.21487409 -0.154333
0.031544864 -0.20552722 -0.154333
0.16705599 -0.19991286 -0.152952
0.0090882992 -0.18466662 -0.154333
0.11184379 -0.18146735 -0.154333
0.06453941 -0.17988674 -0.154333
0.16705599 -0.162861 -0.15007487
-0.026440274 -0.14048731 -0.154333
0.073577613 -0.14674009 -0.154333
0.12137797 -0.14424127 -0.154333
0.16705599 -0.14845306 -0.15250488
-0.10621355 -0.13186733 -0.154333
-0.020299658 -0.13663462 -0.154333
-0.019410469 -0.12611097 -0.154333
-0.069803722 -0.10711804 -0.154333
0.07604748 -0.10389341 -0.154333
0.015840288 -0.092100538 -0.154333
0.11894626 -0.094994918 -0.154333
-0.14235406 -0.076917894 -0.154333
-0.034441527 -0.079826556 -0.154333
-0.11234626 -0.065261893 -0.154333
0.085931256 -0.054043323 -0.154333
0.072901711 -0.047797479 -0.154333
0.15963179 -0.043119125 -0.154333
-0.044143576 -0.036306676 -0.154333
-0.10143475 -0.029464863 -0.154333
0.01056917 0.0067823166 -0.154333
0.1231647 0.0082932506 -0.154333
0.13584274 0.0017316114 -0.154333
0.15759674 0.0041455454 -0.154333
-0.028660387 0.01648901 -0.154333
-0.06937179 0.026569845 -0.154333
0.0033870563 0.05482116 -0.154333
0.099486306 0.054671057 -0.154333
0.11509387 0.059880447 -0.154333
0.099370204 0.061239552 -0.154333
0.14892448 0.063681796 -0.154333
0.12122078 0.071647167 -0.154333
0.15339755 0.079781868 -0.154333
-0.082740538 0.081288978 -0.154333
0.11610685 0.082440116 -0.154333
-0.092873514 0.098757848 -0.154333
0.023820594 0.1081448 -0.154333
0.067952782 0.10410528 -0.154333
-0.095463835 0.11894479 -0.154333
0.047403879 0.1117711 -0.154333
0.031615213 0.12055927 -0.154333
-0.056548472 0.14850344 -0.154333
0.1046433 0.17935126 -0.154333
-0.15337685 0.18130453 -0.154333
0.038723715 0.18824917 -0.154333
-0.14187211 0.19708759 -0.154333
0.091869563 0.24810383 -0.154333
0.14205208 0.26305866 -0.154333
-0.0392721 0.27684042 -0.154333
0.082334414 0.27187058 -0.154333
-0.14773791 0.28432909 -0.154333
0.0070158839 0.28726774 -0.154333
-0.13375464 0.30125478 -0.154333
0.084599398 0.31420571 -0.154333
0.074207589 0.33275324 -0.154333
0.11712797 0.34000197 -0.154333
0.1226525 0.3488349 -0.154333
-0.065607935 0.36713427 -0.154333
0.13131662 0.36516777 -0.154333
0.10397927 0.37616044 -0.154333
0.14857015 0.37451336 -0.15346535
-0.073006079 0.38706696 -0.154333
0.06262628 0.3810277 -0.154333
-0.0756661 0.39060584 -0.154333
0.14407657 0.39525908 -0.154333
-0.010749282 0.40666407 -0.154333
0.059608497 0.40729126 -0.154333
0.13208562 0.40651017 -0.154333
-0.16748497 0.41508299 -0.154333
-0.04659944 0.41760451 -0.154333
-0.13928038 0.42374399 -0.154333
-0.035402864 0.42954159 -0.154333
0.17779334 -0.38846901 -0.14845085
0.16705599 -0.31107846 -0.14223008
0.185139 -0.19761097 -0.14208777
0.16705599 -0.16973735 -0.14377117
-0.161883 -0.12681024 -0.14728616
-0.161883 -0.10899775 -0.14531571
0.095522135 -0.0110968 -0.14379592
0.15183499 0.024667019 -0.14858431
0.15183499 0.061859824 -0.14658125
0.169919 0.081990659 -0.14634514
0.169919 0.092129454 -0.14543399
0.169919 0.1243857 -0.14831778
0.16991901 0.20682201 -0.14624918
-0.13001923 0.41872299 -0.14616153
-0.044930317 0.41872299 -0.14172137
0.0093942834 0.41872299 -0.14212376
0.11696975 0.41872299 -0.14247067
-0.18186541 0.43496299 -0.14365374
-0.13342829 0.43496299 -0.1439034
0.041838381 0.43496299 -0.14440018
0.16705599 -0.25641456 -0.13529792
0.16705599 -0.16641441 -0.13221328
0.16705599 -0.076955952 -0.13883527
0.17441902 -0.0689492 -0.13735875
0.1527245 -0.029239323 -0.1348156
-0.037520222 -0.0106859 -0.13308045
0.036360782 -0.0106859 -0.13053061
0.10446825 -0.0106859 -0.13983642
-0.037113376 0.0051434101 -0.1353647
0.026275728 0.0051434101 -0.1342932
0.11230284 0.0051434096 -0.13611166
0.15757227 0.045187697 -0.13155361
0.15183499 0.05576073 -0.13405541
0.16315001 0.069205329 -0.13728701
0.16450238 0.11272942 -0.1326526
0.169919 0.173944 -0.13466859
0.16991901 0.18658683 -0.13515589
0.15183499 0.19020596 -0.13236468
-0.177103 0.25732842 -0.13280241
0.15183499 0.32307911 -0.13654755
0.13754934 0.40109387 -0.1368725
-0.093439981 0.41872299 -0.13257599
-0.068999127 0.41872299 -0.13322711
0.13797861 0.41872299 -0.13362609
-0.070355237 0.43496299 -0.13956229
0.054421328 -0.42467701 -0.12201776
0.16705599 -0.33882001 -0.12040201
-0.161883 -0.25693756 -0.126673
0.16705599 -0.22846639 -0.12501287
0.16705599 -0.1891437 -0.12673154
0.16705599 -0.16146164 -0.12688908
-0.057004463 -0.0110968 -0.12666595
0.06551984 0.0051434101 -0.12359935
0.16991898 0.15276274 -0.12747751
0.16476126 0.29237926 -0.129981
-0.177103 0.30809963 -0.12761575
0.16991901 0.36256883 -0.12252627
0.097616754 0.41872299 -0.128584
-0.054690272 0.43496299 -0.12101144
0.13035302 0.43496299 -0.12786189
0.1498218 -0.42467701 -0.11307204
-0.161883 -0.35937843 -0.11104073
0.185139 -0.31347814 -0.11189517
0.16705599 -0.30833104 -0.11604699
0.185139 -0.19734506 -0.11070957
0.16705599 -0.13570796 -0.11258417
0.16705599 -0.12235996 -0.11121532
-0.1239764 -0.0106859 -0.1114543
-0.11900207 0.0051434101 -0.11029324
-0.0078884847 0.0051434105 -0.11010194
0.071738921 0.0051434101 -0.11829563
0.16704044 0.027315171 -0.11327557
0.15183499 0.098873094 -0.11244125
0.15183499 0.10211179 -0.11028004
0.169229 0.14902762 -0.11987872
0.15183499 0.24129122 -0.11303224
0.169919 0.28990063 -0.11537785
0.15183499 0.33097982 -0.11147858
0.169919 0.33328176 -0.11978111
0.13572779 0.40482241 -0.11108509
-0.097700879 0.41872299 -0.1129289
-0.06208422 0.41892847 -0.11205357
0.042684324 0.41872299 -0.1175608
0.17261156 -0.42410055 -0.10414045
-0.161883 -0.34008306 -0.10642765
-0.161883 -0.22812666 -0.10113979
0.13403843 -0.17760232 -0.10136767
0.16705599 -0.064600281 -0.10466965
0.15072304 -0.024458041 -0.10728754
0.17029612 -0.024138793 -0.109115
-0.16188301 -0.012775147 -0.10662188
-0.177103 0.051911984 -0.10473326
0.15183499 0.16413513 -0.10164527
0.15183499 0.19910634 -0.10230248
-0.177103 0.23614419 -0.10025494
0.084057093 0.24980006 -0.10055628
-0.028115196 0.25771338 -0.10151698
0.02270662 0.25264257 -0.10090137
-0.04765965 0.26919848 -0.10028671
0.061751623 0.27024814 -0.10015927
-0.17710301 0.3032054 -0.10125956
-0.17710298 0.31912822 -0.10706545
-0.177103 0.32897753 -0.10710552
-0.177103 0.34379047 -0.10701099
-0.177103 0.36111408 -0.1049152
-0.177103 0.39363331 -0.10898284
-0.14586368 0.41913396 -0.10251512
0.095396154 0.41913402 -0.10185198
0.11168721 0.41872299 -0.10021444
-0.161883 -0.38357612 -0.097187757
0.16705599 -0.37265888 -0.098494202
0.16705599 -0.36302593 -0.096288212
0.16705599 -0.35583818 -0.092529602
0.185139 -0.33964962 -0.092380688
0.16705599 -0.29785776 -0.094493456
-0.023580065 -0.22461423 -0.092974931
0.046716798 -0.22049813 -0.09453591
-0.0081664138 -0.20494595 -0.099546418
-0.070163399 -0.19948174 -0.0984625
0.05734266 -0.19350848 -0.094854839
0.095047459 -0.19330624 -0.093910992
0.12432596 -0.17935142 -0.095299602
-0.050486214 -0.16606991 -0.099967472
0.1856472 -0.14717221 -0.092686847
-0.161883 -0.12879759 -0.091150232
0.14822185 -0.017755527 -0.092116289
0.1651035 -0.011805832 -0.097710803
-0.16354422 0.0051434101 -0.092740178
-0.042785905 0.0051434101 -0.097639956
-0.005451764 0.0051434101 -0.094287097
0.169919 0.10801858 -0.090062052
0.15183499 0.11644161 -0.091227122
-0.17710298 0.17298238 -0.090506881
0.15183499 0.21422993 -0.092803165
-0.033011153 0.239622 -0.099320643
0.035402261 0.23181668 -0.09786813
0.15779054 0.25897413 -0.0973434
0.16445181 0.25468478 -0.096711025
0.15165401 0.26418766 -0.093802974
-0.050275043 0.28689718 -0.097133979
0.019927645 0.28626198 -0.097374886
-0.085382998 0.29342014 -0.092357211
0.027601968 0.29903191 -0.092532068
0.169919 0.31643113 -0.094794668
0.16155922 0.362515 -0.090462878
0.090507425 0.41913399 -0.094333306
0.10859903 0.41872299 -0.097093657
0.13236986 0.41284418 -0.093991384
0.15013134 0.41742337 -0.093571596
-0.076060012 0.43496299 -0.096141405
0.15290251 -0.42467701 -0.088943064
-0.161883 -0.40609443 -0.081228927
0.18449204 -0.38846901 -0.088358715
0.185139 -0.32643345 -0.08636044
0.082996204 -0.24093719 -0.083871827
-0.061077092 -0.19605415 -0.082699485
0.032256447 -0.19230005 -0.089215241
0.11858155 -0.19147445 -0.085362211
0.16705599 -0.19286537 -0.083033063
0.10453758 -0.18228638 -0.081606001
0.192323 -0.16253376 -0.088089623
-0.161883 -0.14632061 -0.087793991
-0.161883 -0.13197358 -0.088834144
0.075381592 -0.12830545 -0.085041143
-0.043891981 0.0051434096 -0.081749365
0.15183499 0.026318146 -0.087595962
-0.177103 0.038877387 -0.089018583
0.16120337 0.042172398 -0.085903898
-0.03306824 0.19777356 -0.080970764
-0.177103 0.22370887 -0.088014968
-0.177103 0.24133338 -0.080287598
-0.177103 0.277675 -0.083053753
-0.031385977 0.31000835 -0.087180853
0.16970037 0.31155604 -0.087524891
0.12940136 0.41872299 -0.08465077
0.13014017 0.41817072 -0.080353141
-0.192323 0.43073171 -0.082812428
-0.098860458 0.43496299 -0.087312162
-0.056456808 -0.42467701 -0.078312144
0.074372426 -0.42467701 -0.076663569
0.16284078 -0.42467701 -0.074659839
0.16705599 -0.24975893 -0.071829528
0.11508507 -0.18922964 -0.077405401
0.12133144 -0.18934438 -0.077917516
-0.065647848 -0.11476048 -0.075336494
0.077853158 -0.11042753 -0.070445456
0.13337794 -0.11823495 -0.078090154
0.17636278 -0.11705884 -0.076407768
0.092085987 -0.0106859 -0.072257623
0.12955032 -0.0110968 -0.077185333
-0.14387029 0.0051434101 -0.075997561
-0.030855739 0.0051434101 -0.072055534
0.038124301 0.0051434101 -0.079482578
0.15183499 0.012060061 -0.079363845
0.027205817 0.1918126 -0.076855958
0.074103653 0.1925558 -0.077368975
0.15867604 0.20978092 -0.078620851
-0.177103 0.25897977 -0.070385076
-0.0722325 0.29050419 -0.073538654
0.15165401 0.29018191 -0.079861097
0.16991898 0.32994446 -0.074617364
-0.177103 0.37054598 -0.076094754
-0.15593721 0.41872299 -0.071250431
-0.11469769 0.41872299 -0.075526059
-0.043167043 0.41872299 -0.072202459
0.079684824 0.41872299 -0.075093046
0.094980001 0.41872299 -0.073751949
-0.18857518 0.43496299 -0.072990432
-0.066708185 0.43496299 -0.073883995
-0.027117768 0.43496299 -0.078843415
0.049003538 0.43496299 -0.073985904
0.076454274 0.43496299 -0.073684394
-0.13446245 -0.42467701 -0.063246123
0.1593298 -0.42467701 -0.068897694
0.16705599 -0.3400721 -0.061252572
0.17737879 -0.26441222 -0.063020855
-0.161883 -0.25440043 -0.069197632
-0.0635878 -0.24134964 -0.065675378
-0.161883 -0.19497347 -0.06423787
0.047434561 -0.10684375 -0.066400096
0.185139 -0.093074515 -0.065274261
0.15261197 -0.0106859 -0.069464922
-0.16648653 0.0051434101 -0.062637664
0.047497079 0.0051434101 -0.067651704
0.10044242 0.0051434101 -0.062010117
0.1189826 0.0051434105 -0.062640473
0.169919 0.08060316 -0.06319356
-0.177103 0.13194983 -0.06468717
0.15183499 0.14431529 -0.068812884
-0.078808002 0.32790244 -0.060932714
-0.019006304 0.33940035 -0.061276641
0.14004815 0.39506716 -0.063613907
-0.12030756 0.41913396 -0.065697744
0.049355507 0.41913399 -0.069458582
-0.161883 -0.3924185 -0.05557977
0.16705599 -0.32803735 -0.05288006
0.1303376 -0.26650283 -0.059854683
0.18326518 -0.23351613 -0.057424869
-0.161883 -0.21134639 -0.057814747
0.025022998 -0.1099429 -0.050186448
-0.161883 -0.092979074 -0.053907633
0.1667418 -0.09538386 -0.050556
0.17090331 -0.095897883 -0.05282836
0.15275273 -0.029306741 -0.05339326
-0.10434084 0.0051434101 -0.0599651
-0.040701166 0.0051434101 -0.052185103
0.16882277 0.113068 -0.051962432
0.15589236 0.147605 -0.055540409
-0.085382998 0.1789591 -0.053022724
0.13909674 0.17109117 -0.05211959
0.15183499 0.17118283 -0.055679925
-0.177103 0.25894558 -0.054776326
-0.177103 0.38210404 -0.054922905
-0.15045696 0.41872299 -0.058838632
-0.080703095 0.41913402 -0.054240271
-0.050395958 0.41872299 -0.058565676
0.051366143 0.41872299 -0.055587649
0.13825512 0.41872299 -0.057156667
-0.17440271 0.43496299 -0.056797877
0.041220032 0.43496299 -0.054439444
0.185139 -0.28587463 -0.048524473
-0.023020172 -0.27264738 -0.048003655
0.090949968 -0.26056153 -0.049347471
0.192323 -0.24837688 -0.048472285
0.185139 -0.18334416 -0.04624673
0.11914583 -0.090977877 -0.042161174
-0.0908871 -0.0106859 -0.049838528
-0.053242207 -0.01089135 -0.041016728
-0.011220952 -0.01089135 -0.046062499
0.14599115 -0.0106859 -0.045876477
0.15451556 -0.0110968 -0.048180789
0.169919 0.058806688 -0.046281464
0.169919 0.078913271 -0.045146689
-0.17710301 0.11416183 -0.047891755
0.15183499 0.14553148 -0.047586124
0.169919 0.16923207 -0.047434196
-0.0722325 0.1996793 -0.049989879
0.169919 0.34768927 -0.046224583
0.15485233 0.36087099 -0.044681333
0.16757798 0.37842581 -0.043706201
-0.16821583 0.41913399 -0.046766955
-0.094967932 0.41872299 -0.044620797
-0.010367449 0.43496299 -0.041811701
0.063372239 -0.42467701 -0.030768603
0.13462883 -0.42467701 -0.03687438
0.16705599 -0.39101905 -0.037243348
0.16705599 -0.32537833 -0.03213881
0.10598563 -0.251506 -0.036591105
0.0032077122 -0.11734034 -0.039934818
0.10060485 -0.11397627 -0.036888301
0.11783685 -0.11087723 -0.037907552
0.14567837 -0.089342877 -0.039045971
0.18166712 -0.051145203 -0.039236389
-0.15841845 -0.0110968 -0.038674794
-0.13285971 -0.0106859 -0.038282216
-0.1165757 -0.0106859 -0.03474097
-0.056309223 -0.0110968 -0.035750277
0.048239246 -0.0106859 -0.039481834
0.071572393 -0.0110968 -0.036122598
0.0827104 -0.0110968 -0.030787144
0.15992275 -1.1111144e-05 -0.031200837
-0.17658141 0.0051434101 -0.035483748
-0.067747146 0.0051434101 -0.037492972
0.16038649 0.11412001 -0.035042446
0.15183499 0.14448577 -0.037400562
-0.065837942 0.16287743 -0.03647007
-0.177103 0.34924859 -0.031546045
0.051592562 0.35457161 -0.035160188
0.095774502 0.35253018 -0.039081428
-0.177103 0.40135074 -0.037832074
-0.066923767 0.41872299 -0.031045739
0.024726354 -0.42467701 -0.021910347
0.185139 -0.13471027 -0.025556277
0.060738064 -0.083845541 -0.020479564
-0.161883 -0.040174112 -0.024693478
-0.13669944 -0.0106859 -0.026719496
-0.074109912 -0.0106859 -0.025129994
0.16375758 -0.0090752775 -0.023056146
-0.177103 0.014691305 -0.025647197
0.15953426 0.11412 -0.022846632
0.15183499 0.15887895 -0.02693183
0.158411 0.2009923 -0.026592147
0.158411 0.24166989 -0.024981821
-0.0722325 0.31507209 -0.027647017
0.16272812 0.36087099 -0.024848098
-0.177103 0.40334788 -0.023985887
-0.1718598 0.41913396 -0.02014479
-0.091507576 0.41872299 -0.026871294
-0.001411923 0.41872299 -0.023716068
0.029184688 0.41872299 -0.022538751
0.03448344 0.41872299 -0.023525514
0.12657355 0.41872299 -0.026708119
-0.085939929 0.43496299 -0.027999014
0.16705599 -0.40067971 -0.019431211
0.185139 -0.39336833 -0.01408631
0.16921893 -0.38846901 -0.015026968
0.185139 -0.22166696 -0.010653602
-0.161883 -0.17520477 -0.012669063
-0.161883 -0.15806904 -0.012450565
-0.161883 -0.044978146 -0.014511665
-0.161883 -0.037089732 -0.0123403
-0.10089029 -0.0110968 -0.011512093
-0.16034794 0.0051434105 -0.018566363
0.15291388 0.0051434101 -0.015962131
0.15183499 0.025225038 -0.011035599
0.169919 0.09977717 -0.01274884
0.13635692 0.15680324 -0.013239476
-0.177103 0.16182841 -0.015622716
-0.0722325 0.25461364 -0.011220999
-0.0722325 0.26095408 -0.017623115
-0.0722325 0.33184117 -0.01405387
-0.052948654 0.36049101 -0.010950249
-0.10980961 0.41913396 -0.019539453
-0.061321348 0.41913399 -0.017762769
-0.12960541 0.43496299 -0.014437433
0.11237597 -0.28587601 -0.0054571363
0.18429227 -0.28793901 -0.0064993114
-0.070163399 -0.26939887 -0.0060245274
-0.161883 -0.20215847 -0.0075110458
-0.161883 -0.14435433 -0.0013633302
0.185139 -0.084462598 -0.0056115147
0.15019354 -0.022510922 -0.004656164
-0.14765465 -0.0106859 -0.0065970533
-0.05259316 -0.0106859 -0.0095035471
0.069329716 -0.0110968 -0.0022966713
0.080531426 -0.0110968 -0.0027511753
-0.10107147 0.0051434101 -0.0021698624
0.15790603 0.075810365 -0.00135666
0.169919 0.078958988 -0.0063710064
0.10883678 0.156287 -0.0015639439
0.12626244 0.156287 -0.008178113
0.15165401 0.2092957 -0.00014973711
-0.0722325 0.23339818 -0.0056103338
0.158411 0.27179855 -0.0033536404
0.094814606 0.36049098 -0.0048905038
-0.1306013 0.41872299 -0.002385281
-0.099143758 0.41913396 -0.0058241598
0.0014847936 0.41872299 -0.0009030737
-0.13417189 0.43496299 -0.0048953742
-0.028833373 0.43496299 -0.0088144103
-0.13558614 -0.42467701 0.0041455328
-0.047745779 -0.42467701 0.0035256073
-0.012948178 -0.42467701 0.0067567676
0.041013774 -0.42467701 0.0057690889
0.10413836 -0.42467701 0.0081590042
0.17769334 -0.386825 0.0054172277
0.18304509 -0.38846901 0.0051697083
-0.064743645 -0.28587601 0.0071206121
0.08725401 -0.28587601 0.0080302451
-0.057012305 -0.14837581 0.0081561431
0.17777041 -0.067305297 0.0063726008
-0.15134683 -0.0110968 0.009150289
0.0053665414 -0.0110968 0.0027449876
0.13733521 -0.0106859 0.0093659647
0.0041425079 0.0051434101 0.0037734136
0.069809839 0.0051434101 0.0070078522
0.15183499 0.07179597 0.0028763877
-0.177103 0.11045614 0.0064118654
0.169919 0.11992315 0.0022280826
0.158411 0.17377107 0.0056898193
0.15165401 0.21282199 0.00027430616
-0.0722325 0.2463558 0.0085833659
-0.0722325 0.25610268 0.0020803995
-0.177103 0.2776719 0.0014213696
0.044079531 0.36049098 0.0050450303
-0.1660032 0.41872299 0.0097966045
-0.12976968 0.41913399 0.0034560263
-0.18384452 0.43496299 0.003935568
-0.13446166 0.43496299 0.007280387
0.097625099 0.43496299 0.0001976788
-0.161883 -0.36367625 0.019887861
-0.161883 -0.34910393 0.019200834
0.038637325 -0.28587601 0.012192771
0.185139 -0.20566706 0.010436745
0.185139 -0.19633934 0.013876185
-0.161883 -0.17200054 0.017146567
-0.161883 -0.090711638 0.010912215
0.011284104 -0.082976326 0.018422049
0.022802278 -0.0106859 0.011430952
0.051377468 -0.0110968 0.010967331
0.081570752 -0.0106859 0.017711071
0.10832985 -0.0106859 0.017293274
-0.082804382 0.0051434101 0.013309374
-0.033163063 0.0051434096 0.013556994
0.15364966 0.041350499 0.012364142
0.074109912 0.15633784 0.013855729
0.1020645 0.156287 0.012545928
0.158411 0.17563742 0.015911926
0.16587782 0.34558401 0.017509254
-0.04635293 0.36048514 0.013673341
-0.094333492 0.41913399 0.015464813
-0.025427572 0.41913396 0.012661073
0.026644643 0.41913396 0.017081268
-0.17149726 0.43496299 0.010907277
0.10518484 0.43496299 0.01149714
0.18245675 -0.38846901 0.023553565
-0.161883 -0.28212109 0.027815439
0.056534734 -0.28368878 0.022005286
-0.057012301 -0.24569075 0.025166372
0.185139 -0.15126136 0.02428825
-0.161883 -0.10020547 0.020013584
0.185139 -0.10493682 0.026182575
0.16485302 -0.057867087 0.026804745
-0.161883 -0.03718213 0.02529707
-0.12870875 -0.0110968 0.024446633
-0.094388232 -0.0110968 0.020054873
-0.073277839 -0.0106859 0.026316866
0.02101681 -0.0106859 0.024315689
0.15183499 0.070133418 0.02040283
0.12194267 0.15834631 0.022004165
0.15165401 0.22221342 0.021703819
0.15165401 0.26564232 0.026995504
0.15165401 0.27087128 0.02687839
0.15397482 0.32150999 0.022869334
-0.070962995 0.41913399 0.029374192
-0.16993865 0.43496299 0.022101723
-0.082728952 0.43496299 0.020047322
-0.0077524632 0.43496299 0.026059166
0.0066166744 -0.42467701 0.038497843
-0.161883 -0.41656947 0.034910217
0.010810815 -0.27893931 0.039116547
0.12313725 -0.27994236 0.037204627
-0.011151023 -0.26802045 0.038981061
0.185139 -0.19499987 0.035152793
0.185139 -0.12689921 0.039302483
0.081500612 -0.11681315 0.038516924
0.16705599 -0.11266009 0.034724899
0.025383677 -0.10510734 0.039720699
0.12431662 -0.10668804 0.039200798
0.15258387 -0.086622074 0.033212416
0.15815072 -0.042202029 0.030126877
0.15056711 -0.0234119 0.031544015
-0.082043722 -0.0106859 0.03039719
0.036546208 -0.01089135 0.03613412
-0.15879643 0.0051434101 0.037442155
-0.12435843 0.0051434101 0.037118621
0.029476764 0.0051434101 0.038820833
0.063593291 0.0051434101 0.038002115
0.13292527 0.0051434101 0.03307119
0.16759492 0.028556168 0.036316313
0.169919 0.12308776 0.039747391
0.15183499 0.13552378 0.034452699
0.158411 0.17821279 0.035341855
0.16991901 0.17696853 0.037568085
0.15165401 0.24560323 0.037906617
0.158411 0.29767609 0.033080582
0.021645347 0.35510552 0.035498448
0.16268975 0.362515 0.03871873
0.13812086 0.39910552 0.031708635
0.062051043 0.41872299 0.036902983
-0.192323 0.43492115 0.035873882
-0.065256819 0.43496299 0.0370114
0.0096075218 -0.42467701 0.046517238
-0.161883 -0.29606923 0.046244822
0.17344144 -0.27335006 0.048699323
0.192323 -0.27765682 0.040167328
-0.0635878 -0.26054552 0.042261004
0.185139 -0.15662605 0.042393137
-0.057012301 -0.12708117 0.048195526
0.048806097 -0.11600275 0.044569574
0.10389137 -0.11715189 0.043520886
0.18281773 -0.059375174 0.048880801
0.16035095 -0.027486436 0.048880801
-0.086821601 -0.0110968 0.045363065
0.089421511 -0.0106859 0.049819984
0.1141562 -0.0110968 0.044161577
-0.17176358 0.0051434101 0.043450028
-0.16625342 0.0051434101 0.046362739
-0.024053149 0.0051434101 0.047531709
-0.0074390005 0.0051434096 0.04983376
-0.17710301 0.26970011 0.040925708
-0.177103 0.30568635 0.04027972
-0.074795574 0.33239809 0.04165135
0.16579486 0.34558398 0.043252099
-0.14842013 0.41913399 0.046925843
0.097333625 0.41913399 0.049386293
0.020037062 0.43496299 0.045617558
-0.16024154 -0.42467701 0.057048675
0.088603459 -0.42467701 0.050438136
0.185139 -0.38022164 0.058694512
0.11181956 -0.27092773 0.05438092
0.062347297 -0.26340652 0.051806584
0.097463198 -0.2644943 0.05277903
-0.0635878 -0.25385231 0.057586726
0.18512571 -0.13013016 0.051593132
0.185139 -0.11992732 0.054519922
0.080741383 -0.10753028 0.052304607
0.15669969 -0.094686307 0.050695803
0.073228352 -0.0110968 0.056410622
0.16098717 -0.0106859 0.053123761
-0.079708055 0.0051434101 0.052522257
0.016527675 0.0051434105 0.050137427
0.15649612 0.0051434101 0.050193205
-0.085382998 0.18213338 0.054220852
0.15528074 0.32128292 0.054740015
-0.041764688 0.34582677 0.054359343
0.14389476 0.34675986 0.052581336
0.16052845 0.34558401 0.054040521
-0.12688291 0.41913402 0.055841662
0.12622742 0.41913399 0.056871071
0.13092591 0.41629368 0.059931472
-0.192323 0.43217248 0.057599835
-0.11330707 0.43496299 0.055008639
0.070436373 0.43496299 0.059539683
0.083145723 -0.42467701 0.06663762
-0.161883 -0.34229064 0.062669262
0.16705599 -0.26171345 0.066618696
0.17514786 -0.21557969 0.068095215
-0.161883 -0.14237277 0.064381421
-0.12392047 -0.0110968 0.069914922
-0.034501269 -0.0110968 0.065214939
0.15665533 -0.0106859 0.069024123
-0.15507491 0.0051434101 0.069359198
-0.12814841 0.0051434101 0.062798508
0.15476725 0.0051434101 0.06452547
0.15183499 0.10908685 0.068372853
0.0074836775 0.17988296 0.066608511
-0.0722325 0.23470601 0.064707451
0.15841101 0.24167876 0.066670246
-0.07880801 0.33019096 0.068926036
-0.18265902 0.41913402 0.062804922
0.081712022 0.41913399 0.06666407
-0.13043815 -0.42467701 0.077549249
0.14266208 -0.42467701 0.073074907
0.185139 -0.26702398 0.078838803
0.088801667 -0.2515592 0.078008316
0.11668316 -0.25103396 0.078370862
0.185139 -0.22132808 0.074507087
-0.161883 -0.20967627 0.074058019
-0.161883 -0.16754562 0.077217259
0.17976484 -0.12128896 0.078790128
0.10778368 -0.11449433 0.076504588
-0.14710921 -0.0110968 0.075729251
-0.055049751 -0.0110968 0.070926704
-0.013843261 -0.0106859 0.075160831
-0.12470247 0.0051434101 0.077798873
-0.06573461 0.0051434101 0.075489983
0.027151931 0.0051434105 0.073526949
0.070417389 0.0051434101 0.074002519
0.15183499 0.12899782 0.079308465
-0.177103 0.16202736 0.074677378
0.15797594 0.20047122 0.070874766
0.16761664 0.20312259 0.072950922
-0.17710298 0.2644082 0.075156599
0.15165401 0.28844213 0.076036662
0.086692318 0.33032238 0.074028566
0.10735835 0.33358926 0.070341043
0.1659653 0.36251497 0.073293075
0.13908783 0.39679551 0.073273122
-0.097297169 0.41872299 0.074278608
0.033160407 0.41913399 0.071539335
-0.161883 -0.42180979 0.087847255
-0.14332333 -0.42467701 0.080644518
0.185139 -0.3569141 0.086096331
-0.06326095 -0.24643213 0.081547484
0.18841103 -0.24474126 0.081261717
-0.066646397 -0.23881541 0.086805224
0.044743992 -0.23511572 0.089359097
0.192323 -0.22384739 0.083580934
-0.061262444 -0.2030149 0.083323404
-0.070163399 -0.1912137 0.087855704
0.185139 -0.19381982 0.086022452
0.16705599 -0.16808391 0.087102979
0.18371686 -0.054519702 0.084739015
-0.161883 -0.047908515 0.080519237
0.15381634 -0.031248491 0.089921214
-0.11689165 -0.0106859 0.087179765
-0.044857837 -0.0106859 0.084783867
0.04531806 -0.0106859 0.080062225
0.060626637 -0.0106859 0.085385039
0.12592743 -0.0106859 0.086984769
-0.023437273 0.0051434101 0.085930511
0.13102515 0.0051434101 0.086027853
-0.177103 0.19182822 0.089895815
-0.027456168 0.19498697 0.081552058
0.15183499 0.19416358 0.081587031
-0.062337138 0.20655486 0.089536987
0.14256899 0.20401338 0.087782681
0.16538242 0.22155902 0.085952044
0.038792621 0.32062894 0.082354695
0.10236034 0.41872299 0.084126666
0.11814073 0.41913399 0.083307609
0.10526963 0.43496299 0.084016904
0.16705599 -0.39892718 0.097415537
-0.16606586 -0.37325367 0.099932753
0.17828791 -0.371613 0.096290819
0.16705599 -0.36069688 0.09100385
-0.0097633488 -0.23390202 0.090196908
-0.061516155 -0.22532323 0.09417519
-0.048811883 -0.21837249 0.096811309
-0.011806054 -0.19149762 0.093724944
0.056141298 -0.19400871 0.097105354
0.069446184 -0.19334963 0.094029322
-0.161883 -0.18192376 0.095557816
0.192323 -0.18735291 0.097747326
0.082934067 -0.17985973 0.092843711
0.050474107 -0.14703752 0.096000269
0.066028431 -0.14232036 0.094211169
0.16705599 -0.13994409 0.09149614
0.175482 -0.06124549 0.091056712
-0.070420966 -0.0110968 0.093827032
0.02359245 -0.0106859 0.090794504
0.061907016 -0.0110968 0.090028256
0.099612735 -0.0110968 0.098668545
0.14733925 -0.0106859 0.095894739
0.031063993 0.0051434101 0.092508808
0.1647957 0.022291176 0.090891384
-0.177103 0.040318049 0.095196836
-0.078808002 0.23437342 0.094057687
0.028082699 0.29867321 0.09517242
0.14698642 0.37792647 0.092764728
-0.177103 0.41786003 0.09692432
-0.11887183 0.41872299 0.095585525
-0.12109306 -0.42467701 0.10787302
-0.072910391 -0.42467701 0.10483289
-0.17398331 -0.40402061 0.10548258
-0.1804782 -0.38413417 0.10946205
-0.0037356727 -0.20537879 0.10096331
0.069355384 -0.20953093 0.10016453
0.084267735 -0.2071723 0.10074557
-0.028966261 -0.1948902 0.10223655
-0.045435101 -0.1812868 0.10328408
0.12517408 -0.18850517 0.10301166
0.026911948 -0.16269392 0.101027
-0.0088679604 -0.0110968 0.10271592
0.11307691 -0.0106859 0.10788512
0.14805113 -0.015372755 0.10142613
0.15125932 -0.0106859 0.10973742
-0.16160375 0.0051434096 0.10726175
-0.048506547 0.0051434101 0.10692534
0.16319937 0.018718386 0.10425515
-0.177103 0.052155461 0.10766874
-0.060448978 0.23147373 0.1002423
-0.024230864 0.26942319 0.10276407
0.13641232 0.26494387 0.10330801
0.08343792 0.27866322 0.101642
0.094752714 0.28213081 0.10122091
0.16991898 0.34963474 0.10716382
0.14104149 0.39212841 0.10490835
-0.044857476 0.41872299 0.10587291
-0.0066657923 0.41872299 0.10519246
0.098539904 0.4189285 0.10304533
0.14641364 0.42576474 0.10588109
0.185139 -0.32713771 0.1174939
0.17392665 -0.31457901 0.11023833
0.15793636 -0.04168994 0.11084885
0.009920653 -0.0110968 0.11096131
-0.069237463 0.0051434101 0.11196542
-0.0070554465 0.0051434096 0.11437907
0.0323231 0.0051434101 0.11079528
0.12020706 0.0051434096 0.11574435
0.16881776 0.14829496 0.11750161
0.14153752 0.39147496 0.11403366
0.13544072 0.40550819 0.11098675
-0.13042763 0.41872299 0.11617815
-0.19149527 0.43496299 0.11667164
-0.16040055 -0.42467698 0.12442235
0.16705599 -0.38574448 0.12721021
0.16705599 -0.19666712 0.12567303
0.16705599 -0.11829481 0.12659572
0.18418108 -0.0689492 0.12900504
-0.071300745 -0.0106859 0.12341287
-0.030193329 -0.0106859 0.1221914
0.084522411 -0.0110968 0.12543193
-0.11360046 0.0051434101 0.12841107
0.0636077 0.0051434101 0.12247071
0.14751875 0.0051434101 0.12852201
-0.177103 0.072532997 0.12867685
0.169919 0.085071974 0.12759227
-0.177103 0.10151943 0.12828384
-0.177103 0.18791276 0.12059386
-0.177103 0.19450814 0.1283028
0.16270402 0.19732007 0.129372
0.15622801 0.22265071 0.127663
0.15183499 0.27296561 0.12423079
-0.15299439 0.41913396 0.12959448
-0.053148981 0.41872299 0.12562194
0.035215855 0.43496299 0.1255722
0.086307466 0.43496299 0.12195863
-0.027461331 -0.42467701 0.1349057
0.17802469 -0.35470718 0.13058899
0.185139 -0.34941196 0.13150084
0.185139 -0.32045826 0.13742062
-0.050301809 -0.0110968 0.1355079
-0.15763667 0.0051434101 0.13372952
-0.14944385 0.0051434101 0.13156264
-0.11842359 0.0051434105 0.13702972
-0.097768888 0.0051434101 0.13941702
-0.078259289 0.0051434101 0.13045341
-0.049799051 0.0051434101 0.13313402
0.095219046 0.0051434101 0.13403337
-0.177103 0.043208003 0.13131876
0.169919 0.09920539 0.13916454
0.169919 0.13674524 0.13275036
-0.177103 0.40815857 0.13471274
0.039432883 0.41913399 0.13292255
0.052245662 0.41913396 0.13250324
0.13351461 0.41010949 0.1391442
-0.10085785 -0.42467701 0.14236489
0.17656705 -0.386825 0.14503518
-0.161883 -0.14816216 0.14745814
-0.15363255 -0.0106859 0.14193735
-0.036342889 -0.0106859 0.1447165
0.10260166 -0.0106859 0.14810437
0.14521851 -0.01130827 0.14480519
-0.17665368 0.0051434101 0.14060834
0.15183499 0.033242989 0.14614902
0.15183499 0.23601288 0.14860684
0.15183499 0.24207574 0.14058945
0.169919 0.27221745 0.1488881
-0.177103 0.31128871 0.14279988
0.169919 0.32334068 0.14332949
0.169919 0.33807242 0.14837168
-0.177103 0.40467265 0.14308858
-0.05649098 0.41872299 0.14014632
-0.029392786 0.41872299 0.14993893
-0.0061017424 0.41872299 0.14677161
-0.052890997 0.43496299 0.14852804
0.051055752 0.43496299 0.14545435
-0.10253002 -0.42310715 0.154333
-0.11564924 -0.41930708 0.154333
-0.094804473 -0.41658923 0.154333
-0.11184572 -0.40425619 0.154333
-0.161883 -0.39395046 0.15103494
0.11725664 -0.39304662 0.154333
-0.099565074 -0.3879399 0.154333
-0.0042338744 -0.38904458 0.154333
-0.094311371 -0.37834418 0.154333
0.056243781 -0.37052691 0.154333
0.054686248 -0.36910382 0.154333
0.14479174 -0.36285132 0.154333
-0.058276195 -0.35080463 0.154333
-0.023892313 -0.35644674 0.154333
-0.034618758 -0.34259468 0.154333
0.15890843 -0.34247211 0.154333
0.17515981 -0.33347619 0.154333
0.07651186 -0.3247577 0.154333
0.10632863 -0.31703168 0.154333
0.12608863 -0.31225082 0.154333
0.0096747335 -0.29489711 0.154333
0.15727726 -0.29704362 0.154333
0.18142265 -0.29019275 0.154333
0.185139 -0.28054321 0.15018809
0.014127951 -0.27205142 0.154333
-0.15366916 -0.26689827 0.154333
-0.11927353 -0.26571962 0.154333
0.075204656 -0.26488179 0.154333
0.14321867 -0.2634424 0.154333
0.13937759 -0.25900212 0.154333
0.084377185 -0.24838947 0.154333
0.14728853 -0.24449149 0.154333
0.10205528 -0.23456338 0.154333
0.13329127 -0.22927734 0.154333
0.16705599 -0.22771464 0.1532705
0.016214423 -0.20502321 0.154333
-0.161883 -0.19117807 0.1535086
-0.021630831 -0.19596431 0.154333
-0.12735772 -0.18459873 0.154333
-0.087710313 -0.18504167 0.154333
0.11324898 -0.18056178 0.154333
0.17526141 -0.18012741 0.154333
-0.0053039156 -0.17607157 0.154333
0.14970027 -0.17082302 0.154333
-0.11287861 -0.15398224 0.154333
0.065733068 -0.15518214 0.154333
-0.14868271 -0.14773425 0.154333
-0.11163683 -0.14024884 0.154333
-0.08581046 -0.14970149 0.154333
0.028699793 -0.14182968 0.154333
0.0055765025 -0.1217629 0.154333
-0.068322383 -0.10385348 0.154333
-0.12156413 -0.099061154 0.154333
0.17770933 -0.099173166 0.154333
-0.093404673 -0.081062518 0.154333
0.13700877 -0.087125808 0.154333
-0.15094618 -0.077856883 0.154333
-0.060617834 -0.075763665 0.154333
0.048508644 -0.076252803 0.154333
-0.058996566 -0.064808734 0.154333
0.0092877019 -0.067359649 0.154333
0.16638647 -0.064323097 0.154333
0.11312632 -0.056597345 0.154333
-0.03867219 -0.049821213 0.154333
0.12391896 -0.049503915 0.154333
-0.13658176 -0.039423931 0.154333
0.056224491 -0.036302619 0.154333
0.14586914 -0.03374758 0.154333
-0.070141643 -0.023760691 0.154333
0.040939871 -0.019654326 0.154333
0.1450271 -0.0110968 0.15383333
-0.14753307 0.0064224256 0.154333
-0.043302055 0.0070814607 0.154333
-0.0063216724 0.0017063825 0.154333
0.014848031 0.0051434101 0.15304217
-0.13612147 0.029867042 0.154333
0.014831699 0.039657179 0.154333
-0.15607478 0.048553206 0.154333
0.079859607 0.042490032 0.154333
0.011066053 0.051869776 0.154333
-0.086346149 0.063713923 0.154333
0.065221354 0.066857442 0.154333
0.12347353 0.064675421 0.154333
-0.13875647 0.089741692 0.154333
0.02671212 0.10658013 0.154333
0.096558079 0.11356329 0.154333
-0.096200712 0.12313028 0.154333
-0.071406938 0.12598759 0.154333
0.07767868 0.14716406 0.154333
0.094058737 0.15656665 0.154333
0.14045224 0.1608775 0.154333
0.12575537 0.17220195 0.154333
-0.023198202 0.18789431 0.154333
0.16395599 0.18679045 0.154333
0.054094408 0.19236861 0.154333
0.073556885 0.20133969 0.154333
0.15462436 0.20125814 0.154333
-0.13480482 0.2188966 0.154333
-0.10344923 0.22390519 0.154333
-0.0081658829 0.2269046 0.154333
0.0877629 0.22011968 0.154333
0.10840119 0.22622313 0.154333
0.099714562 0.2335638 0.154333
-0.034644581 0.24656956 0.154333
-0.0031131133 0.26734993 0.154333
0.040011104 0.27906713 0.154333
0.15496857 0.27120426 0.154333
-0.015836626 0.28506988 0.154333
-0.13768846 0.35312295 0.154333
-0.080057748 0.35742861 0.154333
0.0044353064 0.36166319 0.154333
0.14478272 0.37878683 0.154333
-0.011285085 0.38888898 0.154333
0.047140889 0.38141635 0.154333
0.09548641 0.38674468 0.154333
-0.043733012 0.41872299 0.15096059
