# .PCD v0.7 - Point Cloud Data file format
VERSION 0.7
FIELDS x y z
SIZE 4 4 4
TYPE F F F
COUNT 1 1 1
WIDTH 556
HEIGHT 1
VIEWPOINT 0 0 0 1 0 0 0
POINTS 556
DATA ascii
0.21659309 -0.024959236 -0.1216113
0.21646737 -0.012259942 -0.1206423
0.21645683 0.0039158594 -0.12969202
0.21625915 0.01405365 -0.12340233
0.22035019 0.01280967 -0.12115472
0.21650726 0.021282032 -0.12239176
0.21586759 0.033748884 -0.12539814
0.21388957 -0.053444222 -0.11254205
0.21837261 -0.035066556 -0.11756815
0.22044329 -0.033802211 -0.11216965
0.21748042 -0.02448309 -0.11464522
0.22235695 -0.022507468 -0.11033794
0.21805669 -0.017297672 -0.1149729
0.22205611 -0.018015729 -0.11255063
0.21794546 -0.0080974903 -0.1171781
0.22042176 0.0007210949 -0.11095527
0.21980958 0.013824629 -0.11331049
0.22117107 0.015301843 -0.11239833
0.21789397 0.026126308 -0.11806516
0.22064906 0.035364859 -0.1178835
0.2171779 0.046534084 -0.11571498
0.21717437 0.052503198 -0.11681245
0.21814364 0.070244022 -0.11266227
0.22069025 -0.054390274 -0.10064276
0.2211235 -0.047477607 -0.10343127
0.22022089 -0.034085456 -0.10245191
0.22429751 -0.023609089 -0.10384127
0.22616982 -0.010753586 -0.10116148
0.22192518 -0.0046313424 -0.10543229
0.22363929 0.0026031502 -0.10072832
0.22601846 0.014059741 -0.10398909
0.22446033 0.028185496 -0.10774918
0.22337699 0.033263844 -0.1049719
0.22330901 0.049375378 -0.10595471
0.22179297 0.059269257 -0.10154527
0.21754023 0.065134197 -0.10720758
0.22192788 0.06377694 -0.10421805
0.21672243 0.074511454 -0.10448314
0.21758741 0.087415531 -0.10373434
0.21395528 0.091641113 -0.10173403
0.21815275 -0.074968293 -0.093309112
0.21715045 -0.064055011 -0.094582081
0.22104707 -0.062519908 -0.093548432
0.22362 -0.051782787 -0.092034563
0.22389731 -0.041862454 -0.097175345
0.22452192 -0.02345052 -0.096692696
0.22561204 -0.015984211 -0.096025594
0.22664337 -0.0029863252 -0.097156949
0.22665034 0.0049509252 -0.094013132
0.22763219 0.013753558 -0.098548375
0.22456312 0.025000801 -0.096921057
0.22583346 0.034027141 -0.094499648
0.22297262 0.040655807 -0.099140495
0.22399241 0.051539786 -0.091474034
0.22232413 0.061760254 -0.098470896
0.22367766 0.070444942 -0.094532669
0.21835214 0.081961185 -0.094076447
0.2152797 0.097563684 -0.092117384
0.21596676 0.10071734 -0.094304062
0.2147716 -0.085361034 -0.082984328
0.22668126 -0.036785673 -0.089728698
0.22793925 -0.026082024 -0.08566203
0.22729081 -0.01752382 -0.082835369
0.22775292 -0.0056387554 -0.084158354
0.23089556 0.0064630406 -0.086220026
0.22806859 0.011355865 -0.084556602
0.22723311 0.024267489 -0.087058395
0.23154919 0.024067074 -0.082651876
0.2315684 0.032863092 -0.080783799
0.2275715 0.060513105 -0.085698411
0.22498813 0.074461564 -0.080204539
0.22284174 0.082813576 -0.082328752
0.21949346 0.095453024 -0.08620245
0.22075635 0.0941393 -0.086875185
0.21694531 0.10508107 -0.084219888
0.21640629 0.11289921 -0.080986612
0.2184805 -0.086913943 -0.072049081
0.22065604 -0.081144825 -0.076969884
0.21897447 -0.072942249 -0.079451948
0.22201324 -0.072833799 -0.073191971
0.22577092 -0.063955382 -0.072944917
0.2263612 -0.054681897 -0.074001275
0.22643417 -0.045470387 -0.078709215
0.2286005 -0.021038068 -0.075791791
0.22940925 -0.01898515 -0.072821334
0.23335472 -0.011544302 -0.072184615
0.2335076 -0.00074217585 -0.074038118
0.23393419 0.0049989801 -0.07272625
0.2305795 0.012326814 -0.073517069
0.23163436 0.023879517 -0.075019263
0.22896039 0.03649912 -0.076890707
0.22773001 0.053559791 -0.074792981
0.23073125 0.052707106 -0.076584637
0.22897145 0.060961187 -0.079593606
0.23073444 0.062941276 -0.070090547
0.225288 0.07547833 -0.074341096
0.22400431 0.083111592 -0.074679397
0.22396067 0.095353737 -0.071926907
0.21752593 0.10695881 -0.072454281
0.22161488 0.10405237 -0.072318211
0.21510312 0.1148652 -0.072856769
0.2158812 0.12079317 -0.070022345
0.22307095 -0.071451806 -0.061345495
0.22391257 -0.062714398 -0.067370743
0.2265611 -0.051858816 -0.064875081
0.22721317 -0.046452045 -0.066298425
0.22920042 -0.031487055 -0.067364097
0.23159574 -0.032754581 -0.065190278
0.23115551 -0.026293015 -0.064278007
0.23353958 -0.015160097 -0.061177544
0.23155831 -0.00065823609 -0.06762398
0.2339991 0.0072756009 -0.064229354
0.23552494 0.01124694 -0.064933546
0.23373677 0.032499064 -0.065261796
0.22965066 0.052747913 -0.065891698
0.23407975 0.051175691 -0.060386896
0.22657767 0.073334202 -0.065937847
0.22504145 0.086109243 -0.066465192
0.2233848 0.090562336 -0.064278156
0.21946213 0.1030845 -0.06838645
0.21710581 0.11511704 -0.062492132
0.22005019 0.1136969 -0.066422388
0.21566334 -0.10598634 -0.055723175
0.21828808 -0.097177535 -0.05306292
0.22283758 -0.082797363 -0.054972678
0.22423483 -0.07622692 -0.056997731
0.22542091 -0.066085078 -0.054692473
0.22867623 -0.053141423 -0.050793562
0.23060523 -0.052495528 -0.05990538
0.22824496 -0.049525708 -0.057734743
0.23194191 -0.022529924 -0.057383493
0.23569541 -0.018034711 -0.056797836
0.23467715 -0.0039959741 -0.05322811
0.23449388 0.0069743409 -0.051230442
0.23533589 0.015533393 -0.056309737
0.23540103 0.027039565 -0.053709675
0.23387617 0.03443012 -0.050550088
0.23561302 0.043224867 -0.055949386
0.23276335 0.052524433 -0.057630196
0.22981501 0.061326757 -0.058749646
0.22804077 0.078964077 -0.051083133
0.23187917 0.074067615 -0.053254828
0.2311582 0.080309123 -0.050221913
0.22674143 0.093758531 -0.05274437
0.22169727 0.10525633 -0.052418809
0.21814264 0.11430825 -0.058156081
0.22214437 0.11531633 -0.051536102
0.21949485 0.12351657 -0.051809464
0.2238709 -0.081990197 -0.043547571
0.22694346 -0.077469334 -0.04793679
0.22783613 -0.065871388 -0.045758214
0.23020983 -0.068004429 -0.040368605
0.22953914 -0.050598182 -0.047892857
0.2311632 -0.041317321 -0.047094733
0.2335505 -0.036330413 -0.042402297
0.23712072 -0.02519903 -0.041846003
0.23808087 -0.011185276 -0.043490112
0.2354967 -0.0059520826 -0.040462032
0.23467617 0.0031977484 -0.04951543
0.23717657 0.017193407 -0.043073121
0.23777784 0.024990391 -0.049337082
0.2367415 0.033490643 -0.041373357
0.23668644 0.046506338 -0.046434924
0.23248222 0.053984683 -0.047291648
0.23228681 0.06517233 -0.04953517
0.22971657 0.072697885 -0.047444433
0.23182926 0.071240366 -0.045635387
0.22755413 0.10094047 -0.04188719
0.22218701 0.11268493 -0.045449741
0.21766885 0.12105078 -0.04762876
0.22072721 0.12382583 -0.042189691
0.21690325 -0.1078105 -0.036516566
0.22250171 -0.094991826 -0.034197763
0.22366306 -0.083531871 -0.034642689
0.22474837 -0.078140765 -0.038072549
0.22806372 -0.064240709 -0.038011979
0.22976106 -0.058147371 -0.033929959
0.23323394 -0.057137094 -0.033579372
0.23565632 -0.04392194 -0.032463595
0.23716587 -0.034575399 -0.030772969
0.23467821 -0.024096102 -0.035487067
0.23673069 -0.014375036 -0.033816952
0.23811139 -0.0024007966 -0.037630927
0.2398189 0.0053490754 -0.033658065
0.23644722 0.012530973 -0.035391439
0.23757842 0.032447331 -0.034036502
0.23794252 0.044393778 -0.037629984
0.23714344 0.053175811 -0.03640211
0.23403768 0.062961906 -0.032681752
0.23362754 0.072285272 -0.032737415
0.22967654 0.08078184 -0.034949057
0.22806676 0.093998313 -0.032808259
0.23056486 0.093292527 -0.031312045
0.22480074 0.10685384 -0.037672296
0.22228466 0.11183548 -0.032705925
0.2166554 0.13247374 -0.037482873
0.21664281 -0.11272195 -0.023181895
0.21899211 -0.10628762 -0.02533374
0.2201585 -0.10761367 -0.025454491
0.221294 -0.095211722 -0.021638012
0.22305435 -0.087295465 -0.029928647
0.22853991 -0.066763356 -0.027052995
0.23234513 -0.064663231 -0.025506511
0.23158686 -0.057870429 -0.025601799
0.23339665 -0.0470226 -0.027905488
0.2361051 -0.035168532 -0.029533312
0.23889035 -0.024701739 -0.023000153
0.23713064 -0.0030563474 -0.023768738
0.24019435 -0.0037647141 -0.025644414
0.23730631 0.01691531 -0.024691861
0.2405027 0.015809622 -0.02560709
0.24053077 0.025834817 -0.021117354
0.23809493 0.034111455 -0.02656793
0.23706636 0.046929345 -0.026339943
0.23493348 0.053833041 -0.023042781
0.23547831 0.064227432 -0.02407847
0.23250401 0.07905291 -0.024750534
0.23204975 0.084373556 -0.023389965
0.22693025 0.097018272 -0.02454431
0.2306159 0.093877919 -0.029068509
0.22782168 0.10532591 -0.027511429
0.22396033 0.11999473 -0.020944046
0.2217311 0.12501612 -0.028851215
0.2192587 -0.10240996 -0.016425317
0.22147015 -0.10605487 -0.011430121
0.2259924 -0.092161939 -0.01088612
0.22527127 -0.086631246 -0.015336576
0.2277562 -0.073824413 -0.010830576
0.23332393 -0.062934794 -0.015259578
0.23484899 -0.055142857 -0.016251642
0.23375756 -0.043586172 -0.011897421
0.23704533 -0.034803186 -0.015193976
0.23951076 -0.023395604 -0.013371288
0.24013142 -0.016168743 -0.013584482
0.237312 -0.0073833806 -0.016874883
0.2408849 0.0004393117 -0.016898604
0.24110192 0.014170314 -0.015663045
0.24086052 0.025161423 -0.014483986
0.23959811 0.045264497 -0.012391198
0.23532636 0.076545604 -0.010455435
0.23204124 0.08390303 -0.015825246
0.22719932 0.09827432 -0.014536676
0.22734213 0.10399269 -0.014174229
0.22426376 0.11464582 -0.015416373
0.21592312 0.13488354 -0.015153516
0.22059101 0.13074619 -0.016415548
0.21420226 0.14076819 -0.011012995
0.21720125 -0.10924337 -0.0083913617
0.22148548 -0.10159633 -0.006218493
0.22091502 -0.098531596 -0.0034577688
0.22683933 -0.083881877 -0.0080495449
0.22843485 -0.075899005 -0.0056756251
0.2309901 -0.074492797 -0.003576173
0.23272121 -0.066740878 -0.0089489194
0.23554802 -0.053400058 -0.0012546998
0.23392192 -0.043929186 -2.3446801e-05
0.23691258 -0.033707861 -0.0060817753
0.23714475 -0.027210191 -0.0047965269
0.23718636 -0.015111262 -0.0032331785
0.24044508 -0.01541288 -0.0023230524
0.23775642 -0.0060985615 -0.002371985
0.23801553 0.0034498125 -0.0086560929
0.23812036 0.017860541 -0.0040316451
0.24141634 0.014618763 -0.0035530187
0.23780985 0.027252296 -0.0044749733
0.24105269 0.027779762 -0.0028906164
0.23750632 0.032151975 -0.0081712864
0.23824711 0.044435207 -0.0051394617
0.24005596 0.041878276 -0.0082119741
0.23654953 0.065967835 -0.0059224525
0.23171107 0.078722343 -0.0087431343
0.2303602 0.085844994 -0.0033886167
0.22822721 0.094822824 -0.0090305638
0.22771353 0.10945015 -0.0068629887
0.23023534 0.10031468 -0.0015651298
0.22485743 0.11552349 -0.003952397
0.22169332 0.12374053 -0.0054090424
0.21879719 0.13659075 -0.0072849453
0.22110912 0.1304373 -0.00048166001
0.21738715 0.14022121 -0.0087378575
0.21949419 -0.11197256 0.0070561725
0.21920544 -0.10347801 0.008409556
0.22525159 -0.09471409 0.0095657408
0.22428301 -0.087487184 0.003432632
0.2296139 -0.079697996 0.0071418583
0.23135436 -0.073028438 0.0030177596
0.22917739 -0.068273291 0.0057545016
0.23006447 -0.064199001 0.007548667
0.23334229 -0.056424186 0.0025682175
0.23396701 -0.043286167 0.0060287598
0.23538566 -0.032722007 0.0075943745
0.23919886 -0.028633423 0.0030355873
0.2400472 -0.020322118 0.00053366099
0.24014395 -0.018599588 0.0060038203
0.24092391 -0.0069926367 0.0043452582
0.24138258 0.0054919054 0.0022104641
0.23816559 0.01289587 0.0038247821
0.23803769 0.021104844 0.0054559
0.24118921 0.024657033 0.0022030377
0.2369013 0.041780714 0.0022548018
0.23736095 0.052687738 0.0065386309
0.2367301 0.062148493 0.003875613
0.2348299 0.070977271 0.0021763216
0.22955398 0.089161314 0.0085491566
0.23313509 0.087597176 0.0091495495
0.228848 0.092673674 0.0027381207
0.22756986 0.10990605 0.0072920634
0.22359252 0.11260604 0.0024760496
0.22150861 0.12437089 0.0035725993
0.21571119 0.14108592 0.0066371798
0.21676739 -0.1158388 0.013186373
0.22347063 -0.094485074 0.015274202
0.22661473 -0.084279448 0.012119086
0.23228082 -0.064784326 0.014818154
0.23452538 -0.05646386 0.017726049
0.23672006 -0.04338941 0.01918973
0.23814428 -0.034063347 0.017237708
0.23823166 -0.025045156 0.013510887
0.23838669 -0.017948205 0.013048459
0.24028336 -0.014044563 0.01360491
0.23734328 -0.0035950684 0.019748066
0.240676 -0.0063594282 0.015128953
0.23772007 0.0065943617 0.017956186
0.23776406 0.016117476 0.016976075
0.24089746 0.022013443 0.016809989
0.23790647 0.044614002 0.016090453
0.23824924 0.056729924 0.014749174
0.23657191 0.068663195 0.013806568
0.23390633 0.075193115 0.011157768
0.22948706 0.089242637 0.010422745
0.23032397 0.084746353 0.014244353
0.23202324 0.090992376 0.018153293
0.22481748 0.10697699 0.01654147
0.22292431 0.11393508 0.013835199
0.21653029 0.13272522 0.018251458
0.22557309 -0.090865307 0.026155934
0.22494699 -0.080505565 0.029841278
0.22701305 -0.074712887 0.02162081
0.23094264 -0.071321338 0.024128241
0.23511662 -0.052264515 0.021301502
0.23271345 -0.045095634 0.026568508
0.23707625 -0.025581779 0.024100795
0.23993449 -0.01194331 0.023378855
0.24013981 -0.001557567 0.027754731
0.23750751 0.0047053224 0.021404892
0.24064595 0.007201313 0.02363833
0.2370922 0.015490942 0.027816392
0.23690271 0.025143528 0.027186818
0.24043411 0.022854745 0.024152029
0.23817337 0.035592906 0.024119768
0.23718952 0.046275161 0.025787108
0.2376653 0.054890826 0.028250823
0.23521666 0.064310037 0.021897936
0.23292744 0.074239478 0.026532173
0.22914222 0.088871554 0.020193078
0.23390545 0.080872945 0.022870764
0.22786725 0.098529115 0.028917277
0.23130678 0.09268526 0.023479581
0.227964 0.10662852 0.020274589
0.21784067 0.12817074 0.023354543
0.21901676 0.13419291 0.022124257
0.21419089 -0.11347219 0.032547873
0.22737822 -0.08072418 0.037567802
0.22718334 -0.077160269 0.032529045
0.2290352 -0.06052611 0.036279581
0.23270951 -0.060901031 0.031047963
0.23260853 -0.0548326 0.035944872
0.23208171 -0.041688591 0.039269287
0.23288989 -0.037288338 0.037478041
0.23406163 -0.029049084 0.036216263
0.23589055 -0.0028636719 0.037940349
0.23626377 0.0044341488 0.036594324
0.23643748 0.01571873 0.035254709
0.2401101 0.01396016 0.030664133
0.2361849 0.023369694 0.035991859
0.23582661 0.038358204 0.0311017
0.23399141 0.054977216 0.033214066
0.22992939 0.078365788 0.037155859
0.23084666 0.072780237 0.038089763
0.22882754 0.086892843 0.030537751
0.23180877 0.084861487 0.037446536
0.22948067 0.094167992 0.039805107
0.22490256 0.10519423 0.03585906
0.22284421 0.11176174 0.035248999
0.21787667 0.12767904 0.036901619
0.21549647 0.13377242 0.038838882
0.22148272 -0.09734267 0.04575545
0.22363009 -0.080518603 0.042319879
0.2259112 -0.076561257 0.045271508
0.22654615 -0.065966107 0.04725853
0.23135903 -0.062359214 0.04119613
0.22881337 -0.057024825 0.04426967
0.2332007 -0.053624488 0.040327195
0.23445806 -0.042648539 0.04518687
0.23294495 -0.033533517 0.041591324
0.23785393 -0.0034194808 0.048463117
0.23850998 0.015771564 0.045600377
0.23683079 0.028347082 0.043020301
0.23512606 0.05736541 0.048810352
0.23450193 0.064061001 0.046429425
0.2295855 0.075596645 0.044463951
0.226365 0.088325016 0.049254309
0.23174995 0.081977479 0.043321688
0.22656295 0.091398329 0.042442292
0.22422054 0.10532444 0.0458965
0.21973079 0.11542688 0.04550546
0.21687055 0.12851126 0.042882413
0.21534976 -0.10326269 0.052151076
0.22157162 -0.090202078 0.059441105
0.22124624 -0.08325164 0.053997349
0.22509685 -0.066073425 0.056810871
0.22863454 -0.048977241 0.055980802
0.23334982 -0.044156656 0.051588658
0.23275088 -0.024639754 0.054239783
0.23425227 -0.0058242083 0.050194066
0.23375519 0.0062242919 0.055983078
0.23684265 0.018276688 0.056830212
0.23665166 0.023689125 0.05712714
0.23686859 0.03323555 0.052735582
0.2332927 0.053767323 0.053309131
0.23271136 0.062248696 0.05323112
0.22843559 0.076146737 0.0520784
0.23109668 0.073944017 0.058266401
0.22981454 0.082463652 0.056108624
0.2265728 0.092285924 0.052700579
0.2225612 0.10018924 0.055525411
0.21867923 0.11504897 0.053467866
0.22140865 0.11462473 0.057519231
0.21772674 0.12574336 0.057932012
0.21738569 -0.095181681 0.064889655
0.22262309 -0.080879487 0.068112046
0.22126681 -0.074657165 0.066633843
0.22483148 -0.066242039 0.064159818
0.2273705 -0.055931821 0.065167412
0.22725981 -0.043820933 0.068437189
0.23087502 -0.041074265 0.068686254
0.22851239 -0.034045413 0.069234714
0.2323702 -0.039254721 0.062161282
0.22964531 -0.028831862 0.066672184
0.23361073 -0.023146436 0.066065572
0.23375399 -0.012711016 0.064038195
0.23259513 -0.0076548979 0.066137947
0.23300135 0.007104726 0.066612847
0.23356169 0.027442586 0.064689904
0.23278703 0.036955781 0.065807626
0.23167975 0.043648977 0.065948002
0.23054543 0.073408388 0.062000677
0.2274128 0.0870452 0.064350061
0.22453173 0.097763442 0.06615568
0.21884708 0.10685575 0.066168167
0.22228585 0.10338193 0.06442266
0.2157582 0.11522508 0.069283776
0.21872687 -0.09158425 0.071921229
0.21776697 -0.083461948 0.07238663
0.22119769 -0.08275447 0.072434776
0.22243609 -0.074075662 0.07227318
0.22568247 -0.060690414 0.076612271
0.222316 -0.058185846 0.079332694
0.22624233 -0.044781804 0.072630793
0.23028374 -0.033641025 0.076501474
0.22801167 -0.026863988 0.075631589
0.23166493 -0.020175785 0.076980382
0.22985859 -0.012403246 0.073189706
0.22987859 -0.0023323614 0.075599775
0.23391327 -0.0028828611 0.071724154
0.22992012 0.0099173952 0.076616943
0.2323603 0.0047579976 0.079920694
0.23153718 0.016096404 0.072610974
0.23248202 0.026891211 0.078150108
0.23306476 0.037781365 0.072434038
0.22788414 0.047342621 0.077443242
0.22722134 0.057993881 0.074545309
0.23101515 0.054033887 0.074497581
0.22624613 0.060743369 0.077426158
0.23028822 0.064879201 0.070810229
0.22735955 0.072338834 0.078634463
0.22583638 0.083883345 0.075337403
0.21925646 0.098296806 0.07526651
0.22332594 0.093193166 0.07729321
0.21795356 0.10471349 0.073415846
0.22005001 0.10407498 0.079279602
0.21596017 0.1149968 0.074938163
0.21937494 -0.080743752 0.082769416
0.21912484 -0.07378345 0.086711884
0.21816394 -0.069704674 0.086011879
0.22090584 -0.062508091 0.081498541
0.22300585 -0.05384931 0.086631551
0.22512978 -0.042590637 0.08597555
0.2279838 -0.031424303 0.087417938
0.22732553 -0.023179105 0.083938643
0.22796319 -0.015794156 0.080601096
0.23072803 -0.016116058 0.082590893
0.22781637 -0.0066262442 0.083729222
0.23131239 -0.0066214409 0.08265727
0.23178324 0.0031198636 0.082281068
0.23088679 0.015686776 0.08627449
0.23191386 0.022266496 0.081443779
0.22677422 0.033518784 0.086970672
0.230717 0.031198926 0.084779419
0.22696444 0.040988438 0.083881468
0.22589661 0.055128235 0.08648672
0.226988 0.066416822 0.084423222
0.22379036 0.073640734 0.085673705
0.21903999 0.089142643 0.085555017
0.22064659 0.087258838 0.080775544
0.21724664 0.09843941 0.08368443
0.2188527 0.10538301 0.082680807
0.21656176 -0.064044684 0.096702687
0.22279075 -0.042787127 0.095886424
0.22245425 -0.033797964 0.094830669
0.22331759 -0.027320683 0.09461692
0.22325966 -0.014788162 0.09903267
0.22753426 0.0032510341 0.098581001
0.22856632 0.01660439 0.09497121
0.22603811 0.021343155 0.092057578
0.22415841 0.048560426 0.092147224
0.22185841 0.065457083 0.092297442
0.22222133 0.073291548 0.093978576
0.21875003 0.080489904 0.093757749
0.22012097 0.086541235 0.095803
0.21538973 0.10070419 0.094316423
0.21616066 -0.06294696 0.10536933
0.22024323 -0.04797728 0.10598509
0.22204933 -0.037605662 0.10552903
0.21964189 -0.027918559 0.10683779
0.22219343 -0.024761125 0.10315981
0.22141333 -0.016562456 0.10466677
0.22192633 -0.0053052669 0.1053803
0.22518118 0.0015800894 0.10628909
0.22507076 0.01531623 0.10348734
0.22200021 0.025461329 0.10561314
0.22350472 0.054154821 0.10343281
0.2185792 0.068748772 0.10192896
0.22004697 0.067214683 0.10844265
0.21879297 0.075007379 0.102761
0.21422115 0.082886383 0.10722876
0.21702848 -0.054578189 0.11187182
0.21932778 -0.04178695 0.11204054
0.21679854 -0.033220828 0.11825574
0.22207853 -0.022098497 0.11129694
0.21832095 -0.018560454 0.11386257
0.22214642 -0.016105495 0.11273985
0.22095704 -0.0059832907 0.1149711
0.21967815 0.00736643 0.11366277
0.21812546 0.025381453 0.11746074
0.22085881 0.04615536 0.1145812
0.22132716 0.051502671 0.11138283
0.21747689 0.060191534 0.11928859
0.21428311 0.07822071 0.1100124
0.21655743 -0.033674113 0.12115316
0.216003 -0.025847342 0.12441917
0.21556412 -0.015994888 0.12695023
0.21681106 0.012737156 0.12196048
0.21664356 0.028835837 0.12116484
0.21620095 0.030507483 0.12212446
0.21531731 0.049154706 0.12425354
