# .PCD v0.7 - Point Cloud Data file format
VERSION 0.7
FIELDS x y z
SIZE 4 4 4
TYPE F F F
COUNT 1 1 1
WIDTH 981
HEIGHT 1
VIEWPOINT 0 0 0 1 0 0 0
POINTS 981
DATA ascii
-0.10383888 -0.34027609 -0.24191302
-0.13846275 -0.32632041 -0.24191301
-0.011989251 -0.32788038 -0.24191302
-0.2605463 -0.31712016 -0.24191301
-0.21338871 -0.3189936 -0.24191301
-0.19545285 -0.31767136 -0.24191301
0.040083729 -0.31876799 -0.24191302
-0.25824639 -0.30702233 -0.24191301
-0.1106905 -0.30808818 -0.24191302
-0.10200208 -0.30056545 -0.24191302
-0.054711163 -0.30501333 -0.24191299
-0.18581319 -0.2971046 -0.24191301
0.022479935 -0.29192308 -0.24191302
0.047625221 -0.29250512 -0.24191301
0.17539001 -0.29024613 -0.24041675
-0.2227836 -0.28608394 -0.24191301
-0.19905466 -0.26922753 -0.24191299
-0.12731925 -0.26727256 -0.24191301
-0.089638755 -0.26713657 -0.24191301
0.15897979 -0.26923379 -0.24191301
-0.072649822 -0.24827331 -0.24191301
0.1210279 -0.24912053 -0.24191301
0.17640823 -0.23399441 -0.24191302
-0.11835702 -0.2122352 -0.24191299
0.15404452 -0.2184581 -0.24191301
0.15527722 -0.20350026 -0.24191301
0.20034966 -0.20824912 -0.24191301
-0.15183406 -0.19875333 -0.24191301
-0.14899798 -0.19274439 -0.24191301
0.20565641 -0.18661809 -0.24191301
-0.1147052 -0.1772736 -0.24191302
-0.052584738 -0.17404935 -0.24191301
-0.26956341 -0.16112867 -0.24191301
-0.20396419 -0.16222076 -0.24191301
-0.10578933 -0.16310129 -0.24191302
0.030744091 -0.16893151 -0.24191301
0.049712829 -0.16332623 -0.24191302
0.11589484 -0.16022249 -0.24191301
-0.24283819 -0.15133435 -0.24191302
-0.1316344 -0.15467462 -0.24191299
-0.26186746 -0.13864389 -0.24191299
-0.1777259 -0.13143575 -0.24191299
-0.2505174 -0.12538312 -0.24191301
0.071117952 -0.11817918 -0.24191302
-0.27460003 -0.10665944 -0.24113345
-0.21675688 -0.10359029 -0.24191302
-0.21426415 -0.090926193 -0.24191302
-0.030074388 -0.092300653 -0.24191302
0.036315605 -0.0942792 -0.24191301
0.21326184 -0.065862432 -0.24191301
-0.2244235 -0.050598629 -0.24191301
-0.0018107817 -0.054015324 -0.24191299
-0.19031537 -0.031871088 -0.24191301
-0.19645214 -0.010806695 -0.24191299
-0.054890301 -0.019458096 -0.24191301
0.057651736 -0.011291005 -0.24191301
-0.19218448 -0.0076293051 -0.24191301
-0.18838108 -0.0072833598 -0.24191301
-0.26320601 0.0086879134 -0.24191301
0.062606528 0.0026212633 -0.24191301
0.20552766 0.0044674389 -0.24191299
-0.19684157 0.016071685 -0.24191302
0.0048153773 0.011355236 -0.24191301
0.045323975 0.019520208 -0.24191302
-0.24661279 0.024078175 -0.24191302
-0.24607873 0.046630252 -0.24191299
-0.16588658 0.043133959 -0.24191299
-0.13039389 0.058842875 -0.24191301
0.097149894 0.0868451 -0.24191301
0.14823446 0.08401148 -0.24191299
0.19582683 0.081772491 -0.24191302
0.14511794 0.090819143 -0.24191299
0.16746965 0.095921978 -0.24191299
-0.22453743 0.10966358 -0.24191302
0.1471252 0.11815394 -0.24191302
-0.16841243 0.12143333 -0.24191301
-0.15168075 0.13496664 -0.24191301
0.10277186 0.14307311 -0.24191299
-0.021139048 0.15936473 -0.24191301
0.18493819 0.15875572 -0.24191299
0.15890038 0.16189897 -0.24191302
0.097660221 0.17650042 -0.24191301
-0.015735403 0.184304 -0.24191302
0.14180651 0.19744748 -0.24191299
0.012482658 0.20760173 -0.24191301
-0.1500583 0.21973471 -0.24191301
0.1980233 0.2119254 -0.24191301
-0.13340026 0.22497556 -0.24191302
-0.065669395 0.23944089 -0.24191301
0.12334841 0.23655726 -0.24191299
0.02277039 0.2493173 -0.24191299
0.05356539 0.24618332 -0.24191301
-0.27348763 0.25755638 -0.24191301
-0.17325707 0.25209334 -0.24191299
0.015384689 0.25754255 -0.24191301
0.094667152 0.2786091 -0.24191301
-0.09963309 0.2853474 -0.24191299
-0.18167485 0.29438663 -0.24191301
-0.043936193 0.29265058 -0.24191301
0.00090121571 0.29108256 -0.24191299
0.13436103 0.29248923 -0.24191301
0.17860664 0.29865327 -0.24191301
-0.19956963 0.30026251 -0.24191301
-0.16376266 0.30242109 -0.24191301
-0.13160321 0.309452 -0.24191301
-0.013449823 0.30621657 -0.24191301
0.088346295 0.3077378 -0.24191301
-0.026249565 0.3160173 -0.24191301
0.018703874 0.31580064 -0.24191301
0.076198034 0.31420791 -0.24191301
-0.22856641 0.3231355 -0.24191301
0.12105916 0.32363981 -0.24191302
-0.030301116 0.33483219 -0.24191301
0.15541123 0.33887377 -0.24191301
-0.079118513 -0.34069499 -0.23662683
-0.058099926 -0.34069499 -0.23502542
-0.023962051 -0.34069499 -0.23006073
-0.2746 -0.29496804 -0.23229069
0.19735307 -0.29178768 -0.23669064
0.17539001 -0.1575785 -0.23602086
-0.2746 -0.094631992 -0.23746298
0.22871122 -0.090512887 -0.23758313
-0.2746 -0.077041097 -0.23076983
0.17539001 0.0027714968 -0.23964578
0.17539001 0.18850029 -0.23975641
-0.2746 0.2730594 -0.23240007
0.18886478 0.31478029 -0.2395035
-0.23907202 0.34069502 -0.23845951
-0.12091793 0.34069502 -0.2376745
-0.062375806 0.34069499 -0.23045248
-0.028649874 0.34069499 -0.2383717
-0.25563481 -0.34069499 -0.22331914
-0.097960584 -0.34069499 -0.22277533
-0.018336589 -0.34069499 -0.22214457
0.10637894 -0.34069499 -0.22910444
0.17868872 -0.328549 -0.22654057
0.22018786 -0.20021056 -0.22523732
0.23096535 -0.1026981 -0.22844496
-0.2746 -0.079287872 -0.22333612
-0.2746 -0.036689918 -0.22791994
-0.2746 0.065094918 -0.22505268
0.17539001 0.066344075 -0.226697
0.2285161 0.12779985 -0.22638689
-0.2746 0.16402248 -0.22341903
-0.27460003 0.17883246 -0.22305056
-0.2746 0.22624266 -0.22049963
0.21387655 0.22527844 -0.22716488
-0.2746 0.27389976 -0.22619866
-0.2746 0.28508908 -0.22504504
-0.081003994 0.34069499 -0.22733289
-0.02117563 0.34069499 -0.22919144
-0.097817972 -0.34069499 -0.21967576
0.17538999 -0.30080816 -0.21299006
0.22644846 -0.12225223 -0.21237588
0.17539001 -0.071939848 -0.21948434
0.17539001 0.0025792569 -0.21066171
-0.2746 0.10292697 -0.21526358
0.22531687 0.17319915 -0.21728955
0.20737895 0.27085021 -0.21792318
-0.10913351 0.34069499 -0.21020353
0.096191943 0.34069499 -0.21887583
-0.22726902 -0.34069499 -0.20155211
0.01694127 -0.34069499 -0.20883003
0.052764427 -0.34069499 -0.20780945
0.23432328 -0.13524713 -0.20366873
0.23558772 -0.12871724 -0.20126536
0.17539001 -0.10271905 -0.20153707
0.23830871 -0.072228841 -0.207885
0.17539001 0.041780062 -0.2016445
0.20191951 0.23501098 -0.2053038
0.17539001 0.26396835 -0.20392787
0.17539001 0.27178121 -0.20571867
0.20559587 0.29007629 -0.2075398
-0.1247189 0.34069496 -0.20658267
-0.083043024 0.34069499 -0.20919609
0.11397433 0.34069496 -0.20171757
0.18694684 0.3404603 -0.20019954
-0.092919558 -0.34069496 -0.19690919
0.18112586 -0.328549 -0.19969752
0.2246242 -0.22169578 -0.19373499
0.17539001 -0.10916441 -0.19209918
0.17539001 -0.057558991 -0.19790423
0.17539001 0.026325032 -0.1982474
0.20580429 0.041351855 -0.19590691
0.17539001 0.063381381 -0.19822307
0.20428444 0.089973956 -0.19491564
0.2152977 0.080957904 -0.19850495
0.1929958 0.098616622 -0.19676659
0.22441885 0.10059904 -0.19387002
0.17539403 0.11979966 -0.19054089
0.22485711 0.11631279 -0.19159788
0.17539001 0.13976857 -0.19656955
0.23111787 0.17114455 -0.1958082
0.17539001 0.19051252 -0.19212124
-0.2746 0.33893168 -0.19335943
0.19216639 0.3384999 -0.19855048
-0.24280323 0.34069499 -0.1969825
-0.20618752 -0.34069499 -0.18210627
-0.14675409 -0.34069499 -0.18427353
0.17539001 -0.32129371 -0.18082018
0.17539001 -0.29453877 -0.181482
-0.2746 -0.19628294 -0.18572094
0.17539001 -0.16941649 -0.18395375
0.17539001 -0.070153311 -0.18725017
-0.2746 -0.01239831 -0.1801668
0.21624736 0.1334344 -0.18921702
0.23196447 0.13958405 -0.1845437
0.20703116 0.15099327 -0.18078735
-0.2746 0.20591514 -0.18076295
-0.2746 0.25062537 -0.18715037
-0.20669499 0.34069499 -0.1813118
-0.062724054 0.34069496 -0.18605088
-0.08242543 -0.34069499 -0.1718685
0.0079727527 -0.34069499 -0.17405531
0.059009675 -0.34069499 -0.17701313
0.21870112 -0.27261007 -0.17758611
0.17539001 -0.25735834 -0.17339429
-0.2746 -0.2265563 -0.17271359
-0.2746 -0.2156882 -0.17490458
0.17539001 -0.16107178 -0.17285141
-0.2746 -0.1198613 -0.17449011
0.20576027 0.032617878 -0.17018063
0.1852912 0.045872208 -0.17299008
0.18147129 0.062276453 -0.17460516
0.17539001 0.072487012 -0.17979887
0.20629407 0.1058084 -0.17269684
0.23549177 0.1014222 -0.17312863
0.17539001 0.11122958 -0.17226948
0.23193596 0.15670843 -0.17773481
0.17539001 0.16491961 -0.17926145
0.19889601 0.17221417 -0.17250103
-0.2746 0.24481279 -0.17335199
-0.2746 0.25202107 -0.17695202
0.11118221 0.34069499 -0.17972964
0.19353966 0.34053558 -0.17189206
-0.082596645 -0.34069496 -0.16112506
-0.077277876 -0.34069499 -0.16486557
-0.024788791 -0.34069499 -0.16488649
0.1278581 -0.34069499 -0.16122614
0.21886787 -0.28322673 -0.1674833
0.22053778 -0.27985156 -0.16399303
0.17539001 -0.25905406 -0.16508839
0.17539001 0.0056941882 -0.16971686
0.17947936 0.018601341 -0.16593246
0.25928208 0.0590191 -0.16688503
0.24138877 0.14487071 -0.16074444
0.24120842 0.18683578 -0.1612367
0.17539001 0.22079468 -0.16015443
0.19159032 0.23879999 -0.16658664
-0.048941158 0.34069499 -0.16344669
0.17750412 -0.328549 -0.15562925
0.22732244 -0.25435096 -0.15899308
-0.2746 -0.24300954 -0.15070467
0.17539001 -0.22989851 -0.15577006
0.23915125 -0.19211294 -0.15620463
0.18698657 -0.135984 -0.15203469
0.19527131 -0.13841373 -0.15022577
0.17915475 -0.04985131 -0.1546281
0.19239292 -0.0071330299 -0.15488771
0.26218423 0.015720431 -0.15804255
-0.2746 0.087321483 -0.15795282
-0.2746 0.19365771 -0.15904249
0.21962146 0.2388 -0.15149994
0.2232216 0.26744771 -0.15921044
-0.25801247 0.34069499 -0.15297063
-0.19033197 -0.34069499 -0.14243455
0.17539001 -0.30720979 -0.14286354
-0.2746 -0.27075642 -0.14916416
-0.2746 -0.23444104 -0.14407103
-0.27459997 -0.22736529 -0.14589873
0.17539001 -0.22168361 -0.14229017
-0.2746 -0.18842643 -0.14617519
0.19788232 -0.13808408 -0.14094174
0.2323927 -0.030608121 -0.14033259
-0.2746 0.15029377 -0.1451153
0.17539001 0.15709294 -0.14982124
0.25189576 0.16918793 -0.14330012
0.21947119 0.21518528 -0.14815485
0.17539001 0.22328976 -0.1413413
0.21777767 0.30354601 -0.14701755
0.21361771 0.32522771 -0.14277528
0.13501173 -0.34069499 -0.1318664
0.2338838 -0.24667077 -0.1318303
-0.2746 -0.22204438 -0.13543294
-0.2746 -0.14154509 -0.1366269
0.17539001 -0.14058796 -0.13907258
-0.2746 -0.1304031 -0.13062537
0.25527823 0.11873999 -0.13301814
0.17539001 0.18598254 -0.13694461
0.19349083 0.18087189 -0.13905191
0.17539001 0.22278222 -0.13217545
0.22964509 0.22493295 -0.13938859
0.20046948 0.2348021 -0.13676925
0.22299905 0.24387476 -0.13150433
-0.2746 0.31631643 -0.13850001
-0.2746 0.33877602 -0.13834365
-0.10616531 0.34069496 -0.13338198
0.088296317 -0.34069499 -0.12045017
0.17539001 -0.22749059 -0.12199841
0.23000588 -0.14285028 -0.12368934
0.250072 -0.14571482 -0.1270511
0.17539001 -0.11416227 -0.12324727
0.17539001 -0.084231995 -0.1280134
0.22723752 -0.080981232 -0.12345881
0.26645851 0.05335848 -0.1221841
0.25348863 0.092238188 -0.12706998
0.23597854 0.11488888 -0.12126261
0.071257271 0.34069499 -0.12228438
0.15896505 0.34069499 -0.1286355
-0.15762794 -0.34069499 -0.11642982
-0.020921022 -0.34069499 -0.1131755
0.079547778 -0.34069502 -0.11632015
0.14436713 -0.34069499 -0.11168322
0.17539001 -0.3280811 -0.11441755
0.17539001 -0.10442127 -0.11190943
0.20338622 -0.09168373 -0.11038424
0.20766833 -0.087672532 -0.11531102
-0.2746 -0.01313328 -0.11648962
0.17539001 -0.00018325821 -0.11507802
0.17539001 0.15038247 -0.11964346
0.25107786 0.18139128 -0.11099552
0.19973776 0.26798749 -0.11440055
-0.2746 0.3087894 -0.11967254
0.22072829 0.30862975 -0.11930002
0.2171711 0.32408342 -0.11273486
-0.10658589 0.34069499 -0.11682677
0.043872468 0.34069499 -0.1122908
-0.24974734 -0.34069499 -0.10380469
0.01078549 -0.34069499 -0.10547724
0.17539001 -0.31250972 -0.10054346
-0.2746 -0.30075595 -0.10637988
0.17539001 -0.1081631 -0.10022061
0.2692039 -0.051643655 -0.10961588
-0.2746 -0.016816676 -0.10154271
0.26570606 0.064580269 -0.10613322
-0.2746 0.1957238 -0.10026234
-0.2746 0.26887003 -0.10160163
0.21394786 0.29133475 -0.10084964
0.21533377 0.33466935 -0.1064344
-0.17171574 0.34069499 -0.1018056
0.14790967 0.34069499 -0.10282242
-0.01032554 -0.34069499 -0.091800213
0.13633472 -0.34069496 -0.09222804
0.17539001 -0.30811676 -0.099311039
0.17539001 -0.19855078 -0.091639593
0.20207793 -0.14508817 -0.092755094
0.25577083 -0.14439359 -0.090603426
0.19998199 -0.10044315 -0.09400896
0.23132671 -0.095108412 -0.09828072
0.26721603 -0.059337553 -0.096141338
0.23380488 0.026347889 -0.097135969
-0.2746 0.041455489 -0.094776504
0.22560591 0.14865333 -0.095104322
0.17539001 0.25412977 -0.093301803
0.18459542 -0.32854897 -0.088951603
0.2306817 -0.2929922 -0.088135637
0.17539001 -0.21578535 -0.080569275
0.22539383 -0.14595094 -0.086069316
0.19163015 -0.10281274 -0.083878055
-0.2746 -0.035235617 -0.089468621
-0.2746 -0.00049630553 -0.083197609
0.1954982 0.22637975 -0.087250866
0.17539001 0.24372822 -0.089278318
-0.20387381 0.34069499 -0.089646086
0.043434814 0.34069499 -0.081071064
0.25930706 -0.12987182 -0.075557351
0.23295958 -0.10948014 -0.077114761
0.25586674 -0.084530033 -0.074440017
0.17539001 -0.077427998 -0.075770162
0.17539001 0.14231098 -0.070117757
0.22563018 0.14829095 -0.074441962
-0.2746 0.2135433 -0.075303286
0.23037188 0.31197929 -0.07291425
0.20972416 0.33084702 -0.077917285
-0.15555564 0.34069499 -0.073355056
0.055003963 -0.34069499 -0.069941945
0.13023536 -0.34069499 -0.067930423
0.17539001 -0.24359062 -0.062831506
0.25723335 -0.15600975 -0.060341731
0.20392703 -0.14954646 -0.066107027
0.17539001 -0.12512153 -0.062118787
0.21040452 -0.11023307 -0.066209197
0.17539001 -0.060858339 -0.06477055
0.26485014 0.077345878 -0.067161269
0.22918105 0.095318824 -0.063162364
0.22855154 0.10470757 -0.065348938
0.26270282 0.10938823 -0.063449614
0.21253926 0.23697016 -0.067451879
0.22515175 0.33311844 -0.066958293
-0.060432009 0.34069499 -0.065650009
-0.18655618 -0.34069499 -0.051094033
0.075930052 -0.34069499 -0.05784449
0.17539001 -0.33538288 -0.059727501
-0.2746 -0.28637674 -0.058094025
0.17539001 -0.17837755 -0.053472314
0.20612784 -0.14833052 -0.056712765
0.25895867 -0.14296485 -0.057299215
0.23980238 -0.11771957 -0.050805707
0.2319883 0.0534444 -0.054411251
-0.2746 0.089713804 -0.058886673
0.1789142 0.24076785 -0.05522367
0.22629431 0.33122757 -0.055325225
-0.26936078 0.34069499 -0.055057608
-0.24618988 0.34069499 -0.05842904
-0.0082871616 0.34069499 -0.057435632
0.045527175 0.34069499 -0.052162841
0.064709477 0.34069499 -0.053277709
0.013899406 -0.34069499 -0.048663408
0.049932104 -0.34069499 -0.042120062
0.17539001 -0.30955386 -0.04552497
0.2435948 -0.24817765 -0.046266679
0.17539001 -0.15089303 -0.042421605
0.17539001 -0.1400772 -0.045722708
0.2414445 -0.12015069 -0.042797379
0.26705074 -0.094958842 -0.048764948
-0.2746 -0.026246799 -0.04293979
0.17539001 -0.025445841 -0.04647959
0.17539001 0.054608971 -0.049060382
0.2301404 0.081012264 -0.04685951
0.22571065 0.14709096 -0.04689347
0.17539001 0.15682849 -0.042314209
0.24972513 0.20158036 -0.044378988
0.17539001 0.27628589 -0.042894285
0.17539001 0.31015822 -0.043449953
-0.21134499 -0.34069499 -0.034792587
-0.082121842 -0.34069499 -0.037174329
0.19321027 -0.14954311 -0.039321523
0.26092577 -0.13436423 -0.034809522
0.20154822 -0.11918623 -0.033885211
0.17539001 -0.10248174 -0.032503571
0.27242845 -0.081242681 -0.036989797
0.23643255 -0.012852265 -0.034358263
-0.2746 0.05583569 -0.030494142
-0.2746 0.17507514 -0.039203718
0.22353768 0.17950672 -0.039263416
-0.2746 0.20788997 -0.032563694
0.17539001 0.27701011 -0.037117794
0.015760176 0.34069496 -0.033085722
0.11056504 0.34069499 -0.035181716
0.17539001 0.34056729 -0.032858543
-0.22233883 -0.34069499 -0.022663049
0.20092534 -0.328549 -0.022143319
0.17539001 -0.30853736 -0.028121889
0.17539001 -0.18607977 -0.022887621
0.17539001 -0.12799153 -0.025539383
0.23734012 -0.026388468 -0.025228847
0.2667177 0.049493432 -0.020043388
0.17539001 0.22190344 -0.020985089
0.17539001 0.28115678 -0.021334866
0.23730963 0.31042331 -0.021053575
0.2283441 -0.32315391 -0.016039424
0.17539001 -0.27131093 -0.01741009
0.17539001 -0.22121739 -0.012392819
0.24964724 -0.1237677 -0.014825354
0.26681998 -0.052728891 -0.019212937
0.2315926 0.059348796 -0.015824005
0.17539001 0.25041911 -0.01426799
-0.2746 0.29306406 -0.016676955
-0.11742036 0.34069499 -0.010465866
-0.012293391 0.34069499 -0.018719204
0.066077627 0.34069499 -0.018076543
-0.20258208 -0.34069499 -0.0057024583
0.1072321 -0.34069496 -0.0037388653
0.19167095 -0.328549 -0.0040398613
0.2378733 -0.28670797 -1.36502e-05
0.17539001 -0.27839798 -0.0022176132
0.25033781 -0.22336373 -0.0023662937
0.17539001 -0.19771859 -0.0077506583
0.17539001 -0.17290278 -0.0059196297
0.22920786 -0.15228561 -0.00061409734
-0.2746 -0.14768545 -0.0069184285
0.26817945 0.027692109 -0.0094916858
0.26372784 0.094091453 -0.0099791773
0.2554203 0.21713227 -0.0087792613
0.25042477 0.2382355 -0.0038756344
0.17539001 0.27161208 -0.00012199022
0.23416665 0.31008914 -0.0068718018
-0.10572924 0.34069499 -0.0060643125
-0.22397876 -0.34069502 0.003149204
-0.06089481 -0.34069499 0.0017360598
-0.012842403 -0.34069499 0.0014155339
-0.2746 -0.33463395 0.0060609281
-0.27460003 -0.32900506 0.0088436007
0.23430623 -0.30127802 0.0050662677
0.17539001 -0.2604188 0.0068558604
0.17539001 -0.18459919 0.009978883
0.17539001 -0.15511456 0.0095769688
0.2219846 -0.15041444 0.0052818283
0.26015106 -0.15616135 0.0019536547
0.26259059 -0.13390397 0.0025818178
0.20299169 -0.12177932 0.0081999572
0.26724079 0.041691709 0.0023134165
0.23005269 0.082320377 0.0044091307
-0.2746 0.14440379 0.001708325
0.25702345 0.194107 0.0065032104
-0.2746 0.20361683 0.0014426932
0.24060327 0.29442036 0.0098323384
0.17539001 0.30185938 0.0051909238
-0.025752425 0.34069499 0.0040848106
0.023373373 0.34069499 0.0054687783
0.15912096 -0.34069499 0.01535593
0.17539001 -0.33308476 0.017514305
0.17539001 -0.3187407 0.019902892
-0.2746 -0.25238395 0.011301681
0.17539001 -0.25286612 0.012229718
-0.2746 -0.2205568 0.013129592
0.23320729 -0.15049784 0.01556442
0.17539001 -0.12672202 0.016717076
0.19853684 -0.12342909 0.018884413
0.22451729 -0.12067035 0.019450089
0.24218674 -0.12379092 0.015213836
0.25773847 -0.1206875 0.019276107
-0.2746 -0.079285361 0.012411065
0.17539001 -0.0086086392 0.010926098
0.26941499 0.009256253 0.018211897
-0.2746 0.053985499 0.019077443
0.21270348 0.24887151 0.017676445
0.22750288 0.24909985 0.015359514
-0.19955921 0.34069496 0.019508943
-0.03043934 0.34069502 0.017833102
0.1676926 0.34069499 0.012554875
-0.16954473 -0.34069499 0.028963044
0.17721149 -0.328549 0.020592168
-0.2746 -0.31866291 0.022467636
0.23226666 -0.30530965 0.025802318
0.17539001 -0.29922041 0.026243821
0.24170612 -0.26379013 0.023014121
0.17539001 -0.23756698 0.028898984
-0.2746 -0.18037468 0.020354267
0.17539001 -0.18596692 0.029002694
0.17539001 -0.15163901 0.025304556
0.21268114 -0.15014462 0.022931378
0.23359089 -0.15189627 0.026954141
0.17539001 -0.11548698 0.029820677
0.24736714 -0.099563345 0.023827568
0.17539001 0.039998528 0.024091113
0.17539001 0.05738201 0.027706742
-0.2746 0.112271 0.028079268
0.24619968 0.25237453 0.024554357
0.237257 0.29338646 0.025363537
-0.05945538 0.34069499 0.022728868
-0.0041084141 0.34069499 0.027558081
0.10275265 0.34069499 0.029611222
-0.19070947 -0.34069499 0.035246059
0.027757555 -0.34069496 0.035328917
0.035523977 -0.34069499 0.03687565
0.17539001 -0.1968689 0.033864759
0.25341779 -0.19367985 0.036089674
0.17539001 -0.17190343 0.03030818
0.25874612 -0.15608689 0.030069824
0.21576685 -0.11882913 0.038128592
0.22437783 0.16697267 0.035615757
0.25750232 0.18696535 0.038953725
-0.2746 0.2396245 0.034846254
0.17539001 0.2372328 0.035670925
-0.2746 0.25919318 0.034316592
-0.26075807 0.34069502 0.031123303
-0.026854463 -0.34069499 0.044545308
0.1705012 -0.34069499 0.041864283
0.18985191 -0.094900608 0.0465068
0.22534408 0.15255877 0.047789272
0.25988194 0.15147856 0.043836363
0.25681451 0.19722368 0.046542857
-0.2746 0.2186321 0.043209173
-0.2746 0.22448608 0.044728875
-0.2746 0.2617937 0.047921054
0.22617671 0.32117099 0.048779525
0.17539001 0.33292019 0.04809875
-0.24627782 0.34069499 0.044087559
0.13246031 0.34069499 0.04245238
0.19763148 0.34069499 0.042205643
-0.2746 -0.31885651 0.050458655
-0.2746 -0.27079067 0.051168911
0.17539001 -0.25324607 0.051685058
0.19211388 -0.15040846 0.056587409
0.19944558 -0.093753256 0.050286122
0.26728535 -0.060370758 0.05203725
0.27091268 -0.013074717 0.057884574
0.23443259 0.016986482 0.056905489
0.26560122 0.066143811 0.054774817
0.17539001 0.073510118 0.054626919
-0.2746 0.20929739 0.057260044
0.22389132 0.23953034 0.059920955
0.17539001 0.29485264 0.058889084
0.21759091 0.32379672 0.058757726
0.228214 0.32014158 0.056282338
0.074467428 0.34069499 0.051243525
0.09707661 0.34069502 0.051260918
-0.26588213 -0.34069499 0.065474838
-0.22014849 -0.34069502 0.062025968
0.17539001 -0.23860241 0.064330108
-0.2746 -0.15425219 0.065003619
0.22902353 -0.15009893 0.062752269
0.25989926 -0.13120538 0.061240546
-0.2746 -0.12104657 0.066512473
0.25972933 -0.12938043 0.068095997
0.20961854 -0.090392388 0.061356574
0.19702388 -0.088850953 0.066433936
-0.27459997 -0.047608584 0.068030342
0.2436329 -0.037537724 0.066429645
0.22921187 0.094859555 0.066746086
0.17539001 0.1665155 0.065711103
0.23375791 0.28904855 0.069438905
-0.076510139 0.34069499 0.063364238
0.037501469 0.34069499 0.064233519
0.17539001 -0.31641814 0.078536645
0.17539001 -0.23083469 0.07463932
0.17539001 -0.22705317 0.075343944
-0.2746 -0.11107132 0.074722372
0.17539001 -0.11438241 0.07420332
0.2599366 -0.11948648 0.079380214
0.20666288 -0.10873345 0.071769856
0.17539001 -0.09248741 0.070537381
0.27293971 -0.052946441 0.07112655
-0.2746 -0.043925069 0.075912639
0.22788963 0.11457901 0.078520492
-0.2746 0.15599467 0.070265703
-0.2746 0.16849525 0.07812164
0.25849673 0.17213157 0.07300882
0.17539001 0.18984061 0.072927728
0.17539001 0.19444457 0.077402793
0.17539001 0.23250538 0.073271208
0.17539001 0.28964788 0.070244245
-0.054744814 0.34069499 0.073939741
-0.033851497 0.34069499 0.079772845
0.053920284 0.34069499 0.077775583
-0.25458914 -0.34069499 0.084307119
0.060269102 -0.34069499 0.087132215
0.17764287 -0.328549 0.082333334
0.20667368 -0.328549 0.084418818
0.17539001 -0.31482333 0.087106004
-0.2746 -0.23817359 0.084852368
0.22835702 -0.1476796 0.086201295
0.25827372 -0.12168177 0.088924997
-0.2746 0.062314004 0.082574844
0.2295419 0.16526878 0.089914046
0.17539001 0.19940315 0.081606589
0.17887321 0.22946686 0.082100838
-0.043394536 0.34069502 0.082327843
-0.18563041 -0.34069499 0.091867007
-0.07315962 -0.34069499 0.092631042
-0.2746 -0.18530127 0.093050562
0.20588203 -0.14454463 0.097287327
0.2473903 -0.098043695 0.093414076
0.18761142 -0.074088968 0.094581366
0.17539001 0.14432919 0.092354849
0.24960585 0.20335454 0.090664737
0.18983923 0.30677623 0.091887698
-0.2746 -0.2742379 0.1031596
-0.2746 -0.21752901 0.10880931
0.17539001 -0.2178749 0.10892321
0.17539002 -0.14865477 0.10136437
0.214012 -0.14500557 0.10963133
0.19210106 -0.094413474 0.10020058
0.23058248 -0.093646884 0.10163368
0.22989637 0.084651828 0.10605142
-0.2746 0.12896028 0.10767095
0.25586694 0.1606555 0.10706923
0.17539001 0.32771575 0.10594752
-0.1999407 0.34069496 0.10824633
0.091254637 0.34069496 0.10026045
0.13325647 0.34069499 0.10760649
0.10177603 -0.34069502 0.1177064
0.12419428 -0.34069499 0.11560429
0.20874521 -0.328549 0.11940233
0.23723952 -0.24463643 0.11240101
0.17539001 -0.21296817 0.11814913
0.17539001 -0.18124001 0.11289406
0.17539001 -0.15083197 0.11046707
0.2203645 -0.1431426 0.11038711
0.21276471 -0.090396024 0.1126166
0.17539001 -0.017805167 0.11717463
0.27023709 -0.014856252 0.1168979
0.17539001 0.059337929 0.11715548
-0.2746 0.16684535 0.11334778
-0.22686419 0.34069496 0.11039148
-0.20493141 0.34069499 0.11370157
0.16161124 0.34069499 0.11176172
-0.25865462 -0.34069499 0.12216997
-0.19101068 -0.34069499 0.12409993
0.2029642 -0.32854903 0.12151647
-0.2746 -0.30260423 0.12295148
0.22175705 -0.30655372 0.12540641
0.17539001 -0.27581969 0.12193158
0.17539001 -0.18383189 0.12307271
-0.2746 -0.14597404 0.12336998
0.21103039 -0.14141271 0.12076332
-0.2746 -0.13713585 0.12878041
0.25565749 -0.09444081 0.12079275
-0.2746 -0.082311988 0.12381258
0.26862285 0.021075835 0.12319057
0.23408939 0.042409416 0.12553757
0.26382184 0.090481125 0.12793787
0.17539001 0.10079625 0.12614247
0.17539001 0.12565032 0.12184328
0.17539001 0.32953534 0.12218802
-0.26224819 -0.34069499 0.13557334
0.11553426 -0.34069499 0.13297918
0.17464598 -0.34069502 0.1326879
-0.2746 -0.2651459 0.1303729
0.17539001 -0.18320507 0.13239817
0.22308031 -0.14165343 0.13148186
0.17539001 -0.056055434 0.13497563
-0.2746 0.019803811 0.13480766
-0.2746 0.042894997 0.13270639
0.17539001 0.22181237 0.13914998
-0.19847481 0.34069499 0.13399707
0.090040118 -0.34069502 0.14982785
0.17539001 -0.31654891 0.14977053
-0.2746 -0.27163246 0.14258744
0.23919567 -0.20298526 0.14785989
0.17539001 -0.16549942 0.14894821
0.17539001 -0.077370852 0.1420712
0.25730249 -0.04701671 0.14986171
0.26677305 -0.013185569 0.14220881
0.26312053 0.0017550804 0.1446504
0.26189956 0.019965297 0.14391282
-0.2746 0.031095967 0.14960232
0.23392257 0.22493657 0.14994514
0.17539001 0.25612473 0.14160547
0.22611523 0.26876172 0.1450507
-0.26961166 0.34069502 0.14574575
-0.24054199 -0.34069499 0.15657555
0.146419 -0.34069499 0.15463769
0.21811447 -0.30373996 0.15154156
0.17539001 -0.26824039 0.15655112
-0.2746 -0.14295974 0.15870191
0.17539001 -0.14523284 0.1528908
0.17539001 -0.11078098 0.15299326
0.2494569 -0.017308857 0.15007406
-0.2746 0.02235239 0.15203066
-0.2746 0.10582556 0.15322638
0.20157409 0.15766016 0.15453377
0.17539001 0.18358922 0.15148747
0.21704254 0.20984048 0.15178087
-0.25715226 0.34069502 0.15210363
0.18636839 0.34069496 0.15816712
0.19068541 0.34069499 0.15038671
0.20013195 -0.32854903 0.1653232
0.17539001 -0.15788546 0.16214539
0.17539001 -0.12101069 0.1635534
-0.2746 -0.082954168 0.16700445
0.26266843 0.04736229 0.16525529
0.25896022 0.063822709 0.16758297
0.25809032 0.076803848 0.16195592
0.26045331 0.08026392 0.16741452
-0.2746 0.091667183 0.16733763
0.17539001 0.1488454 0.16372323
0.23619583 0.18323675 0.16891357
0.17539001 0.19156355 0.1641136
0.22595413 0.2436583 0.16800603
0.22469029 0.25418431 0.16443382
0.17539001 0.29492301 0.16115719
0.2172958 0.29095039 0.16120729
-0.2488227 0.34069499 0.16958633
-0.051900357 0.34069499 0.16468629
-0.2746 -0.32880804 0.17980306
-0.2746 -0.28589901 0.17099597
-0.2746 -0.26580399 0.17170466
0.17539001 -0.20482913 0.17787889
0.23286441 -0.20385313 0.17379272
0.23528178 -0.18810016 0.17360479
0.21170978 -0.13423899 0.171913
0.23743984 -0.13244335 0.1792336
0.19962141 -0.018861268 0.17560691
0.2180948 0.036747709 0.17205413
0.25129333 0.043198749 0.17530124
0.17539001 0.074207164 0.17340717
0.18021326 0.10268869 0.17362584
0.1968085 0.10276115 0.1736187
0.17539001 0.15204509 0.17628893
0.18176025 0.235011 0.17485803
0.204386 0.23501101 0.17386612
0.21936733 0.26147431 0.17926118
-0.16410153 0.34069502 0.17476416
0.020586148 0.34069502 0.17837396
0.1660791 0.34069499 0.17080247
-0.24868065 -0.34069502 0.18488091
-0.15557997 -0.34069502 0.18085018
0.17539001 -0.3205283 0.18766582
-0.2746 -0.30237749 0.18714362
0.21676776 -0.26980802 0.18760167
-0.2746 -0.15143102 0.18722935
0.2236152 -0.13098684 0.18517166
0.17539001 -0.1187174 0.18659003
0.17539001 -0.071748704 0.18623567
0.17539001 -0.014526673 0.18379749
0.18774849 0.018906107 0.18813267
0.2077045 0.13655189 0.18889317
0.22528642 0.14166202 0.18453577
0.22944154 0.19463679 0.1883097
-0.2746 0.26699245 0.18472701
-0.20686813 0.34069496 0.18188335
-0.063990094 0.34069499 0.18750414
0.079566449 0.34069499 0.18771063
0.14475331 0.34069496 0.18598461
0.17539001 -0.25223204 0.19142681
0.2249036 -0.21978767 0.19395709
0.22784688 -0.19550689 0.19819434
0.17539001 -0.13461557 0.19165251
0.24098457 -0.084598862 0.19465117
0.21434473 0.031363156 0.19471657
0.17539001 0.050491378 0.19550571
0.2325367 0.057733957 0.19544028
0.21190803 0.076679304 0.19684723
0.20313658 0.086873025 0.19584349
-0.2746 0.2150479 0.1913835
0.20093696 0.3257969 0.19017787
-0.16266049 0.34069499 0.19563632
0.087448075 0.34069499 0.19893616
0.0555549 -0.34069499 0.20956042
-0.2746 -0.31044748 0.20939715
0.17539001 -0.16957054 0.20393974
0.19543082 -0.12720482 0.20059066
0.21669993 -0.12499425 0.20264187
0.23434365 -0.12351348 0.2080844
0.17539001 -0.093863465 0.20441724
0.17539001 -0.073392242 0.20140967
-0.2746 -0.037617013 0.20535834
-0.2746 -0.027729332 0.20977631
-0.2746 0.08221586 0.20783839
0.23316786 0.13664871 0.20471972
-0.2746 0.23125771 0.20238899
-0.2746 0.25702229 0.20577566
-0.2089608 0.34069502 0.20491023
-0.055648573 0.34069499 0.2032125
-0.042957738 0.34069499 0.20022848
0.042598624 0.34069499 0.20155878
0.17539001 -0.24031493 0.2155643
0.17539001 -0.23987253 0.21582082
0.17539001 -0.20619348 0.21579316
0.17539001 -0.14873436 0.21684729
0.23301607 -0.12489945 0.21274036
-0.2746 0.091267079 0.21678817
-0.27459997 0.13364318 0.21244679
0.1974425 0.23501098 0.21590769
0.20472977 0.28295484 0.21746776
0.17539001 0.29712743 0.21165617
0.042559266 0.34069499 0.21459915
0.17539001 -0.13045594 0.22601494
0.17539001 -0.077944279 0.22864035
-0.2746 0.041969895 0.22674382
0.17539001 0.060185775 0.22941157
0.17539001 0.13594712 0.22186837
-0.2746 0.15710859 0.2288314
0.17539001 0.15626378 0.22468787
0.22348933 0.17621532 0.22257897
0.17539002 0.23369975 0.22671309
0.19835915 0.29642782 0.22678375
-0.2241478 -0.34069499 0.2381108
0.17539001 -0.084332012 0.23605436
-0.2746 -0.077871501 0.23818436
-0.2746 -0.06390132 0.23269287
0.17539001 -0.0097301751 0.23999573
0.17539001 0.13264115 0.233519
-0.2746 0.17223932 0.23947801
0.17539001 0.18888581 0.23822817
-0.2746 0.22989334 0.23216577
0.18093365 0.33930537 0.23047423
-0.23099464 0.34069499 0.23973133
-0.13277364 0.34069499 0.23949732
0.082993731 0.34069499 0.23245153
-0.020185385 -0.34069499 0.24072292
0.0070328675 -0.34069499 0.24154373
-0.047216915 -0.32675552 0.24191301
0.02555836 -0.32224903 0.24191301
-0.13825542 -0.31893 0.24191301
-0.026835039 -0.31841332 0.24191301
0.159668 -0.31966206 0.24191299
-0.23767556 -0.30459949 0.24191301
-0.16819063 -0.30041477 0.24191301
-0.26641014 -0.29920143 0.24191301
-0.18186638 -0.29412287 0.24191301
-0.14350341 -0.29805511 0.24191301
0.057454769 -0.2942293 0.24191301
0.06899026 -0.28256357 0.24191301
-0.18567571 -0.27302864 0.24191302
-0.1532595 -0.27722603 0.24191302
-0.11964729 -0.27722144 0.24191301
0.067921169 -0.27684933 0.24191299
0.080600545 -0.26667243 0.24191302
0.11816105 -0.26054534 0.24191301
0.17346874 -0.25264877 0.24191302
-0.051187355 -0.24345332 0.24191299
-0.022978153 -0.24144018 0.24191299
-0.0095859095 -0.24470237 0.24191302
-0.2274432 -0.23684067 0.24191301
-0.25522307 -0.22351138 0.24191301
-0.20051879 -0.22578567 0.24191299
0.15324695 -0.21107721 0.24191301
-0.093909964 -0.20476639 0.24191301
0.012678575 -0.1920592 0.24191301
0.13444361 -0.19807884 0.24191302
-0.12418533 -0.18095371 0.24191301
-0.056745149 -0.18352711 0.24191299
-0.040816575 -0.18781716 0.24191301
0.20697732 -0.1875563 0.24191301
0.21298796 -0.18124685 0.24191301
-0.17137051 -0.1702826 0.24191302
-0.11969613 -0.17417033 0.24191299
-0.21707007 -0.13207807 0.24191302
-0.15450993 -0.12627518 0.24191299
0.10702974 -0.12818682 0.24191302
0.21731652 -0.12840256 0.24191299
-0.26401117 -0.11786734 0.24191301
0.037766352 -0.10520026 0.24191302
0.1121975 -0.097588874 0.24191302
-0.11433883 -0.084705248 0.24191299
0.13276173 -0.083583124 0.24191302
-0.17384556 -0.075508222 0.24191302
0.16597471 -0.076115742 0.24191301
0.18984218 -0.071027428 0.24191301
-0.16253082 -0.06945391 0.24191299
-0.22408727 -0.055096805 0.24191301
-0.2746 -0.046843946 0.24091005
0.013895258 -0.04644756 0.24191299
-0.05139859 -0.030829793 0.24191301
-0.27030176 -0.021749254 0.24191302
0.10030867 -0.021142349 0.24191299
-0.17484035 -0.01229731 0.24191301
-0.11864159 -0.00056350976 0.24191302
-0.090121083 -0.0066833496 0.24191301
0.0034230165 0.0014108121 0.24191301
0.021269564 0.0021270663 0.24191302
-0.23035845 0.012285218 0.24191299
0.04381739 0.017881393 0.24191302
-0.21878436 0.031495966 0.24191302
0.18225594 0.036961503 0.24191301
0.14069042 0.046931706 0.24191299
-0.26506764 0.057594225 0.24191301
0.19912386 0.056290679 0.24191302
-0.18047123 0.063036658 0.24191301
-0.094060086 0.066506043 0.24191302
0.10333608 0.06508743 0.24191299
0.19332772 0.066635311 0.24191299
-0.12206347 0.078241765 0.24191301
-0.015630737 0.07558845 0.24191302
0.20776543 0.071142711 0.24191301
-0.14337826 0.08768867 0.24191301
0.057216518 0.082859389 0.24191299
-0.14102873 0.099922702 0.24191301
0.21215552 0.094194278 0.24191302
0.14509803 0.10169239 0.24191301
-0.12753803 0.11947867 0.24191301
-0.18222523 0.12101474 0.24191301
-0.003378436 0.14884484 0.24191301
0.098036043 0.14367142 0.24191301
-0.10195844 0.1567522 0.24191302
-0.032628696 0.15642926 0.24191302
-0.25466502 0.16118181 0.24191301
-0.027331244 0.16163945 0.24191302
0.092600301 0.17934576 0.24191301
0.11234084 0.17920284 0.24191301
-0.16674817 0.18354262 0.24191302
-0.11286534 0.18726005 0.24191301
-0.24286398 0.20124224 0.24191301
0.086447887 0.20888796 0.24191301
-0.18165006 0.21162169 0.24191301
-0.011061698 0.21874952 0.24191301
0.087776765 0.21585007 0.24191299
-0.0389098 0.227424 0.24191301
-0.025495388 0.22669113 0.24191299
-0.0046294555 0.22051442 0.24191302
0.088824838 0.22912787 0.24191302
-0.25567052 0.24533376 0.24191301
0.11001588 0.24185641 0.24191302
-0.26017207 0.25997221 0.24191299
0.10495824 0.25080892 0.24191301
-0.0035430139 0.26664916 0.24191302
0.16345896 0.26144838 0.24191302
-0.18663073 0.2730701 0.24191301
-0.094712049 0.27098277 0.24191301
-0.17422691 0.28083256 0.24191301
0.16700926 0.28725672 0.24191302
0.078097142 0.29807684 0.24191301
0.082901381 0.29952782 0.24191301
0.10238383 0.30843887 0.24191301
-0.073615626 0.31091577 0.24191301
0.0033388957 0.32180148 0.24191301
-0.16530591 0.33524907 0.24191299
-0.035885245 0.33161056 0.24191302
