# .PCD v0.7 - Point Cloud Data file format
VERSION 0.7
FIELDS x y z
SIZE 4 4 4
TYPE F F F
COUNT 1 1 1
WIDTH 972
HEIGHT 1
VIEWPOINT 0 0 0 1 0 0 0
POINTS 972
DATA ascii
-0.056489326 -0.37317073 -0.23838601
-0.011695348 -0.374607 -0.23414506
-0.0092470422 -0.37460703 -0.23020649
0.06130182 -0.3708744 -0.23838601
0.14117011 -0.374607 -0.23006865
0.15875785 -0.37365916 -0.23838601
-0.21082179 -0.36009109 -0.23838601
0.1665166 -0.35628471 -0.23838601
-0.10101261 -0.34693006 -0.23838601
-0.073791474 -0.34694546 -0.23838601
0.021002747 -0.34902942 -0.23838601
-0.13616131 -0.3304888 -0.23838601
-0.1077015 -0.33525857 -0.23838601
-0.0029196516 -0.33997887 -0.23838601
0.13459888 -0.33120134 -0.23838601
0.1619112 -0.33632481 -0.23838601
-0.058636308 -0.32887176 -0.23838601
-0.21302247 -0.31752527 -0.23838601
-0.16799062 -0.31329104 -0.23838601
-0.15004507 -0.30269286 -0.23838601
-0.2159961 -0.29584265 -0.23838601
-0.20733751 -0.29325128 -0.23838601
-0.19088802 -0.29735351 -0.23838601
-0.1422639 -0.29661798 -0.23838601
0.029408813 -0.29943395 -0.23838601
0.13185742 -0.29425883 -0.23838601
0.2213752 -0.29268554 -0.23838601
-0.229873 -0.28319293 -0.23720741
0.17511244 -0.28505141 -0.23838601
-0.19446295 -0.27305317 -0.23838601
0.22987299 -0.2772066 -0.23356748
-0.0097476244 -0.26238978 -0.23838601
0.0024242476 -0.26935786 -0.23838601
-0.17165767 -0.25038677 -0.23838601
-0.15338819 -0.25715205 -0.23838601
-0.0357612 -0.2508027 -0.23838601
0.1729411 -0.25019798 -0.23838601
0.19415717 -0.25594702 -0.23838601
-0.077994145 -0.24596119 -0.23838601
-0.018148169 -0.23917337 -0.23838601
0.039567605 -0.23753738 -0.23838601
0.082238525 -0.23585753 -0.23838601
-0.19119942 -0.22785372 -0.23838601
-0.17671645 -0.22341231 -0.23838601
0.1080502 -0.22920923 -0.23838601
-0.13258913 -0.21474391 -0.23838601
0.038635045 -0.21076852 -0.23838601
0.059491843 -0.21529168 -0.23838601
0.19022661 -0.21026348 -0.23838601
-0.1875554 -0.20306419 -0.23838601
-0.10002149 -0.20480908 -0.23838601
0.056938767 -0.20532846 -0.23838601
-0.21999177 -0.19415562 -0.23838601
0.21577878 -0.19679178 -0.23838601
0.17798351 -0.1716067 -0.23838601
-0.1698456 -0.15562066 -0.23838601
0.00043177605 -0.14150007 -0.23838601
0.02631107 -0.14886528 -0.23838599
-0.1384158 -0.1258021 -0.23838601
0.14259274 -0.12218563 -0.23838601
0.17807956 -0.12648106 -0.23838601
-0.14187527 -0.11943917 -0.23838601
-0.1068201 -0.10095066 -0.23838601
-0.09393394 -0.10785437 -0.23838601
-0.21156245 -0.092866585 -0.23838601
-0.17979492 -0.091974601 -0.23838601
-0.10997404 -0.092991389 -0.23838601
0.085433379 -0.0961923 -0.23838601
0.10099436 -0.092411458 -0.23838601
0.124227 -0.094066598 -0.23838601
-0.16895051 -0.089023478 -0.23838601
0.080050305 -0.089116991 -0.23838601
0.17959607 -0.075041495 -0.23838601
-0.21682221 -0.066804908 -0.23838601
0.016911514 -0.068458617 -0.23838601
0.089644045 -0.063797161 -0.23838601
0.096506082 -0.06829299 -0.23838601
-0.15029773 -0.054391287 -0.23838601
-0.13385031 -0.054768465 -0.23838601
0.016638964 -0.055977318 -0.23838601
-0.2106657 -0.04768838 -0.23838601
-0.088960908 -0.04403501 -0.23838601
0.16470844 -0.04404467 -0.23838601
-0.21509257 -0.036922172 -0.23838601
-0.044298738 -0.038708318 -0.23838601
0.15094204 -0.035252467 -0.23838601
-0.22732204 -0.022782817 -0.23838601
-0.072127685 -0.02543734 -0.23838601
-0.03289368 -0.028207535 -0.23838601
0.043652564 -0.024454083 -0.23838601
-0.057192508 -0.011411086 -0.23838601
0.17303781 -0.0081926826 -0.23838601
0.1956477 -0.0048002549 -0.23838601
-0.1982922 0.0038905144 -0.23838601
0.20017801 0.0053496864 -0.23838601
-0.14891832 0.012447098 -0.23838601
0.21316031 0.018456493 -0.23838601
-0.16387337 0.026201587 -0.23838601
-0.13301823 0.02481769 -0.23838601
0.0032553822 0.029059561 -0.23838601
0.22246203 0.021469545 -0.23838601
-0.21087115 0.034352005 -0.23838601
-0.16770677 0.035795551 -0.23838601
-0.18399374 0.04573641 -0.23838601
0.056934439 0.044317279 -0.23838601
0.229873 0.045848183 -0.23633862
-0.14079985 0.057539731 -0.23838601
0.19154975 0.054414734 -0.23838601
0.05537872 0.062123459 -0.23838601
0.14717504 0.066830903 -0.23838601
-0.229873 0.072967321 -0.23320624
-0.16761631 0.07110744 -0.23838601
0.1158227 0.078816488 -0.23838601
0.19789702 0.072529778 -0.23838601
-0.13613895 0.08571317 -0.23838601
0.0073046982 0.091008566 -0.23838601
0.063327797 0.092422642 -0.23838601
0.13423696 0.09670081 -0.23838601
-0.12906241 0.10454244 -0.23838601
-0.062442049 0.10915504 -0.23838601
0.13859305 0.10030899 -0.23838601
0.17912903 0.10155944 -0.23838601
-0.15090495 0.1121816 -0.23838601
-0.091269329 0.11886653 -0.23838601
-0.03309714 0.11139105 -0.23838601
0.13585767 0.11662368 -0.23838601
0.17857504 0.11358103 -0.23838601
0.20851409 0.11651158 -0.23838601
-0.1081956 0.12596157 -0.23838601
-0.080468133 0.12310197 -0.23838601
-0.042592566 0.12097885 -0.23838601
0.16644007 0.12125626 -0.23838601
-0.17614263 0.13923168 -0.23838601
-0.15296671 0.13561115 -0.23838601
-0.16146123 0.14567822 -0.23838601
-0.1543369 0.14648038 -0.23838601
-0.095414609 0.14015047 -0.23838601
-0.012039587 0.1446481 -0.23838601
-0.157363 0.15473759 -0.23838601
-0.11954024 0.15432268 -0.23838601
0.069989994 0.15789597 -0.23838601
0.22857122 0.15891694 -0.23838601
-0.18149307 0.16207877 -0.23838601
-0.229873 0.17716709 -0.23304963
0.19683911 0.1787111 -0.23838601
0.20374839 0.17753235 -0.23838601
-0.20454419 0.18466023 -0.23838601
-0.19005704 0.18716636 -0.23838601
-0.019931071 0.18199648 -0.23838601
0.10716164 0.18930881 -0.23838601
0.0086900294 0.19534448 -0.23838601
0.17951699 0.19544211 -0.23838601
0.2221117 0.19041368 -0.23838601
-0.229873 0.2067086 -0.23759769
-0.1511803 0.2089994 -0.23838601
0.021762062 0.20935115 -0.23838601
0.020481564 0.21475151 -0.23838601
-0.052496318 0.22330397 -0.23838601
-0.1555469 0.23850022 -0.23838601
0.033524148 0.23197308 -0.23838601
0.1771933 0.23707739 -0.23838601
0.19714664 0.23838601 -0.23165348
-0.22758979 0.25709635 -0.23838601
-0.13883829 0.25270566 -0.23838601
-0.22120684 0.26661849 -0.23838601
-0.13720049 0.26369992 -0.23252508
-0.21050932 0.27138495 -0.23838601
-0.18933889 0.27067861 -0.23838601
-0.22856146 0.31719872 -0.23838601
-0.20336714 0.374607 -0.23159882
0.002739951 -0.374607 -0.22297004
0.027367592 -0.374607 -0.22310549
0.229873 -0.29360896 -0.22469832
-0.229873 -0.0095526874 -0.22631386
0.229873 0.0087322704 -0.22366819
-0.229873 0.050866202 -0.22114867
-0.229873 0.15244415 -0.22489566
0.1169899 0.23746613 -0.22135901
0.16968128 0.23838601 -0.22686228
-0.229873 0.33758262 -0.22105907
-0.22987302 0.34868559 -0.22349587
-0.17392498 0.36163378 -0.22371905
-0.22016096 -0.374607 -0.21722169
-0.1106254 -0.37460703 -0.21044046
0.091149762 -0.374607 -0.21173373
0.14762864 -0.374607 -0.21157503
0.229873 -0.34215215 -0.21998799
0.229873 -0.26691264 -0.21263391
0.229873 -0.24520652 -0.21141614
0.229873 -0.19599783 -0.21031955
0.229873 -0.12613769 -0.21451579
0.229873 -0.0073617101 -0.21838212
-0.229873 0.13786346 -0.21287006
-0.22140689 -0.374607 -0.20639063
-0.06814152 -0.374607 -0.20037925
0.13342127 -0.374607 -0.20004499
-0.229873 -0.23567194 -0.20529287
0.229873 -0.2120584 -0.20055076
-0.229873 -0.11716931 -0.20309207
-0.229873 -0.053646728 -0.20651388
-0.229873 -0.04889673 -0.2098206
-0.229873 -0.026474848 -0.20873307
0.229873 0.049431097 -0.20932426
-0.229873 0.1663978 -0.20473385
-0.229873 0.18847594 -0.20629114
0.08005853 0.229873 -0.2023993
-0.12715766 0.23838601 -0.20101871
-0.1499323 0.29765272 -0.20904385
-0.17070763 0.3530539 -0.20612779
-0.18562825 -0.374607 -0.1900626
0.073736042 -0.374607 -0.19188564
0.18516868 -0.374607 -0.19003552
0.229873 -0.35461664 -0.19925608
-0.229873 -0.20220962 -0.19500262
-0.229873 -0.1369696 -0.19560453
-0.229873 -0.077791519 -0.19700629
0.229873 0.16627933 -0.19607775
0.027992509 -0.374607 -0.1894736
0.070519477 -0.37460703 -0.18944964
0.097679414 -0.37460697 -0.18552391
0.13404481 -0.374607 -0.1859844
0.229873 -0.2819263 -0.18109818
0.229873 -0.18323335 -0.18076749
-0.229873 -0.17476937 -0.18608421
0.229873 -0.13498504 -0.18462619
-0.229873 -0.12057924 -0.18534386
-0.229873 0.055635117 -0.18522316
0.229873 0.079102188 -0.1806162
0.229873 0.17928696 -0.1888776
-0.14238961 0.2775394 -0.1837095
-0.229873 0.31456009 -0.18348566
-0.16347219 0.33376062 -0.18581124
-0.22684112 0.374607 -0.18309075
-0.19330311 0.374607 -0.18158689
-0.14962415 -0.374607 -0.17003499
-0.0070843101 -0.37460697 -0.17659432
0.16184939 -0.37460697 -0.17751217
0.17035054 -0.374607 -0.17092735
0.229873 -0.16896406 -0.17548031
0.229873 -0.018656764 -0.17594491
-0.229873 0.099976756 -0.17445914
-0.229873 0.11390144 -0.17710026
0.14091693 0.229873 -0.17268682
0.229873 0.22029279 -0.17368706
-0.11400764 0.23838601 -0.17648886
-0.13661601 0.29494163 -0.1730358
-0.229873 0.35074547 -0.17353161
-0.14378759 -0.37460703 -0.16403958
0.057628598 -0.37460703 -0.16665126
0.17941651 -0.374607 -0.16426378
0.229873 -0.37061512 -0.16089715
-0.229873 -0.31790766 -0.16984455
0.229873 -0.28888217 -0.16006103
0.229873 -0.25802484 -0.16293466
-0.229873 -0.23987223 -0.16526763
-0.229873 -0.18227068 -0.16039076
-0.229873 -0.12915471 -0.16325255
-0.229873 -0.11987358 -0.16595715
0.229873 -0.11423156 -0.16668764
0.229873 -0.078573115 -0.16134812
0.22987302 -0.048614036 -0.16250798
-0.229873 0.17836785 -0.16354617
-0.001889959 0.229873 -0.16357629
0.13240439 0.229873 -0.16892803
0.18422249 0.229873 -0.16192047
-0.13902128 0.31705177 -0.16253017
-0.229873 0.35941985 -0.16912103
-0.1829998 0.374607 -0.1664395
-0.17091624 -0.374607 -0.15091813
-0.16898851 -0.37460703 -0.15852259
-0.14539568 -0.37460697 -0.15908863
-0.13618746 -0.37460697 -0.15536556
-0.0054760575 -0.37460703 -0.1543247
0.07870689 -0.37460697 -0.15220615
0.14837226 -0.374607 -0.15219133
0.229873 -0.36021233 -0.15467048
0.229873 -0.31017208 -0.15389355
0.229873 -0.18882456 -0.15433459
-0.229873 -0.017671421 -0.15599963
-0.229873 0.0083886981 -0.15106535
-0.229873 0.014218066 -0.15721154
0.229873 0.059116799 -0.15915488
0.229873 0.1890787 -0.15206483
-0.229873 0.22897187 -0.15642819
-0.22987299 0.29602584 -0.15834443
-0.1324361 0.30680034 -0.15160225
-0.14907947 0.33754426 -0.15355839
-0.229873 0.34929168 -0.15452826
0.229873 -0.17161542 -0.14253694
0.229873 -0.023102924 -0.14796712
-0.229873 0.0080083311 -0.1470356
-0.229873 0.035043471 -0.14908502
0.229873 0.10931396 -0.14500554
0.00049711065 0.229873 -0.14281128
-0.093651801 0.23265436 -0.14407519
-0.229873 0.30989614 -0.14415033
-0.22987299 0.32667774 -0.14431489
-0.14784013 0.34056935 -0.14230698
-0.229873 0.37411526 -0.14795634
-0.18043292 -0.374607 -0.13734017
-0.14563896 -0.374607 -0.13184293
0.16020612 -0.37460703 -0.13237688
0.19844586 -0.37460697 -0.13980235
0.21800739 -0.374607 -0.13833559
0.229873 -0.2931084 -0.13738558
0.229873 -0.1871631 -0.13771321
0.229873 -0.17188866 -0.13366611
-0.229873 -0.15946582 -0.13785681
-0.229873 -0.020550795 -0.13683954
0.229873 -0.0091641545 -0.1383324
-0.229873 0.076023251 -0.1330065
-0.229873 0.14451855 -0.13574624
0.229873 0.16941981 -0.13141082
-0.0059573124 0.229873 -0.13993251
-0.13214958 0.25023186 -0.13355857
0.00088051334 -0.374607 -0.12620908
0.064841703 -0.374607 -0.12965623
0.229873 -0.20377195 -0.12270695
-0.229873 -0.13352053 -0.1258785
-0.229873 -0.047427401 -0.12320231
-0.229873 -0.00073236227 -0.12791383
0.229873 0.023814145 -0.12769349
0.229873 0.073391177 -0.12728834
0.10816292 0.229873 -0.1256437
0.13102984 -0.374607 -0.11712015
0.14019415 -0.37460697 -0.11287302
0.22510141 -0.374607 -0.11447112
-0.229873 -0.22518528 -0.11141868
0.229873 -0.18873005 -0.11209261
-0.229873 -0.13492593 -0.11641347
0.229873 -0.042118296 -0.11903426
0.229873 0.20260198 -0.11592977
-0.12762439 0.28666139 -0.11536856
-0.13520664 0.30688071 -0.11245833
-0.20058629 0.374607 -0.11456528
-0.050801322 -0.374607 -0.1019827
-0.025260992 -0.374607 -0.10294574
0.040164851 -0.374607 -0.10793103
0.20767042 -0.37460697 -0.10292989
-0.229873 -0.34407014 -0.10213877
-0.229873 -0.28798598 -0.10299336
-0.229873 -0.14840093 -0.10815098
0.229873 -0.06135251 -0.10158712
0.229873 0.010918617 -0.10579857
-0.229873 0.037537217 -0.10159857
-0.229873 0.1436583 -0.10546123
0.229873 0.14622104 -0.10642445
-0.229873 0.21523327 -0.10681098
-0.058785763 0.229873 -0.10542799
0.073067524 0.229873 -0.10406709
-0.13195758 -0.374607 -0.091243699
-0.036851533 -0.374607 -0.099113449
0.094078399 -0.37460703 -0.099414706
0.229873 -0.28839844 -0.093452349
-0.229873 -0.19941899 -0.095954634
0.229873 -0.12819086 -0.096351184
-0.229873 -0.057102669 -0.090195596
0.229873 -0.012534376 -0.099162675
-0.229873 0.050468385 -0.098982595
0.229873 0.073234871 -0.093667001
0.229873 0.21368918 -0.093470216
0.11417659 0.229873 -0.093109906
0.15947486 0.229873 -0.091864809
-0.093651801 0.23254558 -0.091843471
-0.14961475 0.29680604 -0.094305091
-0.1429829 0.31545639 -0.098513633
-0.16771552 0.345074 -0.090189695
-0.229873 0.3588016 -0.094146296
-0.19941443 0.374607 -0.09024021
-0.17055157 -0.374607 -0.083867557
0.04149241 -0.374607 -0.084696904
0.084801741 -0.37460703 -0.085738122
0.1555897 -0.37460703 -0.082500473
-0.229873 -0.064699955 -0.085597195
0.229873 -0.060053729 -0.085703112
0.229873 0.067104593 -0.089225642
-0.229873 0.17007056 -0.086911537
0.012255305 0.229873 -0.0814633
0.16828741 0.229873 -0.08897233
0.229873 0.22354665 -0.081412807
0.212845 0.23068443 -0.081682876
-0.229873 0.29387626 -0.082339555
-0.229873 0.30050915 -0.081966922
-0.1717235 0.35576233 -0.089078143
-0.22918712 -0.37460703 -0.074630149
0.048715807 -0.374607 -0.077717155
0.14683843 -0.37460697 -0.079839811
0.17647499 -0.37460703 -0.077907801
0.229873 -0.26056293 -0.076178178
0.229873 -0.18061371 -0.073570848
0.229873 -0.15093029 -0.072480634
0.229873 -0.14639905 -0.079813138
-0.229873 -0.059567064 -0.070506901
-0.229873 0.023498982 -0.0750928
0.229873 0.16463736 -0.072100379
-0.011540791 0.229873 -0.071394056
0.20890829 0.22987302 -0.071314052
-0.229873 0.23336062 -0.072843924
-0.19885835 0.374607 -0.072995484
-0.229873 -0.37403515 -0.060008772
0.038176849 -0.374607 -0.066214502
0.229873 -0.36899799 -0.061338224
0.229873 -0.0868029 -0.06510739
-0.229873 -0.041460738 -0.0672796
-0.229873 0.0092144683 -0.061004601
0.229873 0.05142317 -0.06057493
-0.229873 0.11072586 -0.063984737
0.229873 0.16406177 -0.06806729
-0.229873 0.19491902 -0.068974771
-0.12505999 0.23838601 -0.063294038
-0.11726896 0.23838601 -0.065145783
-0.229873 0.33875459 -0.06472113
-0.21620674 0.374607 -0.068922229
-0.18098636 0.374607 -0.060372226
-0.22006878 -0.374607 -0.053906038
-0.21352828 -0.374607 -0.055478122
-0.0061082318 -0.374607 -0.05547636
0.17184459 -0.374607 -0.058205113
-0.229873 -0.36883312 -0.054487079
0.229873 -0.35097188 -0.059596553
0.229873 -0.3250196 -0.058964454
-0.229873 -0.25860962 -0.058043454
0.229873 -0.25951347 -0.052217998
-0.229873 -0.19172619 -0.057594106
0.229873 -0.13874502 -0.055282816
0.229873 0.095075585 -0.050216131
-0.229873 0.17933598 -0.059528247
0.229873 0.21479587 -0.055759199
-0.019549981 0.229873 -0.056072362
0.12238597 0.229873 -0.053658031
-0.229873 0.33048305 -0.055515617
-0.229873 0.3741464 -0.057461701
0.025816927 -0.374607 -0.044778958
0.13035305 -0.374607 -0.04756593
0.229873 -0.21089423 -0.045077227
0.229873 -0.15660189 -0.040570132
-0.229873 -0.084539443 -0.044712078
-0.229873 0.167054 -0.041617248
0.229873 0.21592422 -0.04819347
0.229873 0.22217828 -0.046634004
-0.229873 0.29372674 -0.042416438
-0.229873 -0.37290901 -0.031973757
0.10211365 -0.374607 -0.033066422
0.229873 -0.28416047 -0.030050255
0.229873 -0.27685151 -0.030458983
-0.229873 -0.25489005 -0.033503368
0.229873 -0.23186132 -0.033308972
0.229873 -0.19721374 -0.038177282
-0.229873 -0.11755219 -0.030734591
-0.229873 -0.10534631 -0.033311956
-0.229873 -0.021448797 -0.033129416
-0.229873 -0.0021919981 -0.038950596
0.229873 0.086024247 -0.034467045
-0.229873 0.10767251 -0.035996307
0.229873 0.10257335 -0.038296092
-0.229873 0.15159495 -0.030391149
-0.13273595 0.25179577 -0.030265737
-0.1445206 0.31968522 -0.030762427
-0.20064019 0.374607 -0.036632333
-0.21756133 -0.374607 -0.025672115
-0.095746174 -0.374607 -0.024654537
-0.229873 -0.34350637 -0.024104573
-0.229873 -0.31800139 -0.0263208
-0.229873 0.07795915 -0.026293198
0.229873 0.20434426 -0.020464621
0.049127337 0.229873 -0.024870224
0.18129805 0.229873 -0.026793867
-0.096812807 0.23838601 -0.025754891
0.21342936 0.23838601 -0.028901882
-0.229873 0.27298588 -0.02441638
-0.13698123 0.30062771 -0.022687931
-0.17317212 0.3596254 -0.021260962
-0.10636946 -0.37460703 -0.011766721
-0.054808199 -0.374607 -0.018365022
0.093386628 -0.37460697 -0.012602575
0.2008937 -0.37460703 -0.01600378
0.22708404 -0.374607 -0.011210953
-0.229873 -0.32484275 -0.019402362
0.229873 -0.29323381 -0.010485262
0.229873 -0.26526836 -0.017390996
0.229873 -0.1360319 -0.019587707
0.229873 0.018367579 -0.014301207
0.229873 0.17964244 -0.010303728
0.14344966 0.229873 -0.01958419
0.16250926 0.229873 -0.016739763
-0.1381754 0.26630077 -0.015046921
-0.17554614 -0.37460703 -0.008675158
-0.11952034 -0.374607 -0.0091894232
-0.090228692 -0.374607 -0.00034726411
0.229873 -0.11936445 -0.00076320395
0.229873 -0.0013439488 -0.00058845431
-0.229873 0.021394921 -0.0055998657
0.229873 0.17183632 -0.0047825016
-0.229873 0.1913738 -0.0031570867
0.229873 0.19446588 -0.0025515854
-0.062685013 0.229873 -0.0096351951
-0.0018004999 0.229873 -0.00091825053
0.17607591 0.229873 -0.0057300404
0.22911103 0.23838601 -8.7875873e-05
-0.229873 0.33537367 -0.0054100663
0.14544119 -0.374607 0.0049065724
0.229873 -0.33493644 0.005449973
0.229873 -0.17305504 0.0059465729
0.229873 -0.1196454 0.0031915866
0.229873 0.12240819 0.0037377067
0.16926128 0.229873 0.0049168244
0.1734958 0.229873 0.0016337708
-0.13703972 0.26327217 0.00844476
-0.15874912 0.32116479 0.0038008676
-0.229873 -0.23542246 0.015640065
-0.229873 -0.14407966 0.013856817
-0.229873 -0.0026883185 0.011961743
0.064686805 0.229873 0.014350444
0.075066566 0.229873 0.018779252
-0.13406582 0.25534177 0.017861711
-0.17001678 0.35121173 0.017949536
-0.20724249 0.37460697 0.015489653
-0.10041627 -0.374607 0.029006608
-0.229873 -0.35111719 0.029366538
-0.229873 -0.3025485 0.020583153
0.229873 -0.30209276 0.026951231
0.229873 -0.29940635 0.026089847
0.229873 -0.24519034 0.021259345
-0.229873 -0.23166208 0.021758011
0.229873 -0.21863285 0.021342084
-0.229873 -0.19194858 0.024956517
0.229873 -0.11117699 0.028414331
-0.229873 0.10148805 0.020693012
0.053373434 0.229873 0.027234942
0.079707824 0.229873 0.029552527
-0.229873 0.25529757 0.02931989
-0.13672009 0.26241976 0.023344398
-0.17547375 0.36576334 0.021813095
0.1537983 -0.37460703 0.032259233
0.19075076 -0.374607 0.03664314
-0.229873 -0.2857061 0.037773922
0.229873 -0.24252872 0.034925163
-0.229873 -0.12194388 0.030013848
-0.229873 0.047220752 0.039068501
-0.229873 0.16310987 0.034773808
0.229873 0.20720023 0.035613
0.09910515 0.229873 0.038005553
0.13792127 0.229873 0.039519548
0.22566663 0.23436962 0.033760324
-0.15367001 0.30762202 0.035194859
-0.229873 0.36346906 0.035562292
-0.17685065 0.36943516 0.039895557
-0.1914475 0.374607 0.039532281
-0.2150386 -0.374607 0.045547243
-0.0097255036 -0.374607 0.048119657
0.229873 -0.35350379 0.043536872
0.229873 -0.31130451 0.041772738
-0.229873 -0.12786876 0.043601431
0.229873 0.067755409 0.041893378
0.229873 0.12589629 0.048712313
0.229873 0.1369562 0.044169046
-0.093651801 0.23180991 0.049150608
-0.16264933 0.33156633 0.043941602
-0.20484275 0.37460697 0.048204392
-0.01352381 -0.37460703 0.053466149
0.20361674 -0.374607 0.059805937
0.229873 -0.14250033 0.055754419
-0.229873 0.037634246 0.057526849
-0.229873 0.089056373 0.05541154
0.229873 0.089922145 0.059807196
-0.229873 0.11014505 0.051233564
0.229873 0.11962549 0.05377974
-0.229873 0.18733402 0.05546936
0.21303715 0.23838601 0.050282963
-0.15600137 -0.37460697 0.061099283
-0.012814648 -0.37460703 0.060447738
0.13755049 -0.37460697 0.060282476
-0.229873 -0.33570069 0.063860022
0.229873 -0.18342096 0.06811256
-0.229873 -0.014689922 0.064139992
-0.229873 0.091187157 0.062773205
0.229873 0.20630847 0.064577788
-0.229873 0.22358379 0.067025393
0.212845 0.23219897 0.062815011
0.229873 0.23832989 0.064386196
-0.15923886 0.32247028 0.063162796
-0.18015668 0.374607 0.069255494
-0.20642576 -0.374607 0.072018534
-0.18372136 -0.374607 0.070877939
-0.019870244 -0.37460703 0.079924822
0.229873 -0.33461127 0.070153005
0.229873 -0.24243216 0.075516194
-0.229873 -0.23727401 0.074046679
0.229873 -0.1858595 0.074436523
0.229873 -0.15380725 0.070894703
-0.229873 -0.043481302 0.078556575
-0.070738211 0.229873 0.078256771
-0.062869951 0.229873 0.07136555
0.040706292 0.229873 0.07324262
0.1487121 0.229873 0.073437348
-0.11346146 0.23838601 0.071204424
-0.094054319 0.23838601 0.078116223
-0.15400031 0.30850059 0.073200308
-0.229873 0.3209804 0.076375209
-0.023408473 -0.374607 0.082075089
0.229873 0.12236736 0.082678698
-0.229873 0.13165545 0.082571365
-0.229873 0.18574658 0.085131198
-0.087469906 0.229873 0.087232277
-0.229873 0.24252769 0.088969901
-0.15862975 0.32084584 0.089138664
-0.18715033 0.374607 0.089500546
-0.229873 -0.328978 0.093510807
0.229873 -0.21046828 0.09279418
-0.229873 -0.16673055 0.090234153
0.229873 0.03298492 0.099709354
0.22987302 0.057538468 0.090692446
-0.229873 0.12778646 0.095917404
0.229873 0.20251617 0.094613872
0.14850228 0.229873 0.098479174
-0.11160363 0.23838601 0.092742473
-0.229873 0.35049748 0.095026731
-0.20727059 0.374607 0.092290774
-0.14470641 -0.374607 0.10516132
-0.092850581 -0.374607 0.10642083
0.035106808 -0.374607 0.10257614
0.052203193 -0.374607 0.10779736
-0.229873 -0.35434988 0.10992967
0.229873 -0.13196295 0.10914592
-0.229873 -0.1088078 0.10915026
-0.229873 -0.0026453808 0.10104007
0.229873 0.071922138 0.10411808
0.229873 0.1335808 0.10433154
0.229873 0.14025962 0.10568899
-0.229873 0.17958334 0.10522892
0.212845 0.23389795 0.10574825
-0.229873 0.3216204 0.10301705
-0.10597925 -0.37460703 0.11532116
-0.0080078691 -0.374607 0.11495814
0.0055889003 -0.374607 0.11841617
0.051046815 -0.374607 0.11762789
0.083953299 -0.37460703 0.11882674
0.229873 -0.21490936 0.11404809
-0.229873 -0.17552125 0.11674254
0.229873 -0.14782935 0.11318302
-0.229873 -0.12097289 0.11789697
0.229873 -0.03992575 0.11783466
-0.22987302 0.081886768 0.11228228
0.229873 0.21199533 0.11803383
-0.04539961 0.229873 0.11910759
-0.03842875 0.22987302 0.11691098
0.15670161 0.229873 0.11536349
-0.229873 0.3741667 0.11445212
-0.229873 -0.37083635 0.1205167
-0.21327706 -0.37460697 0.12512995
0.0088945366 -0.374607 0.12930292
0.17253673 -0.374607 0.1209626
0.229873 -0.37394682 0.12849873
0.229873 -0.2572273 0.12415564
0.229873 -0.22363907 0.12067291
0.229873 -0.16534434 0.12672725
-0.229873 -0.13006267 0.12707816
0.229873 -0.10137905 0.12182035
0.229873 -0.036786187 0.12476881
-0.229873 0.060707688 0.12250096
0.087989897 0.229873 0.12480853
-0.16400468 0.33517918 0.12130229
-0.15696011 -0.374607 0.13550328
-0.064762428 -0.374607 0.13266699
0.05398225 -0.374607 0.13218763
0.21864036 -0.374607 0.13594407
0.229873 -0.37289989 0.13871665
0.229873 -0.35365945 0.1356241
0.229873 -0.24127249 0.13357085
0.229873 -0.22409037 0.13806847
-0.229873 -0.14016157 0.13985619
0.229873 0.1446815 0.13478297
-0.229873 0.15525821 0.13694893
-0.082982905 0.229873 0.13040751
-0.024746474 0.229873 0.13626333
0.22819614 0.23838601 0.13872451
-0.229873 0.32659727 0.13203903
-0.19435728 0.374607 0.13145682
-0.17607069 -0.374607 0.14407986
-0.13613951 -0.374607 0.14981413
0.014920598 -0.374607 0.14743912
-0.229873 -0.36086535 0.1491026
0.229873 -0.25192934 0.14145227
0.229873 -0.20992735 0.14366814
-0.229873 -0.14642131 0.14542899
0.229873 -0.096808068 0.1442662
-0.229873 -0.088668272 0.14644644
-0.229873 -0.054579213 0.14950258
-0.229873 0.051712021 0.14764169
-0.229873 0.079120114 0.14510208
-0.229873 0.093119219 0.14223197
-0.229873 0.11660863 0.14941728
0.065267004 0.229873 0.14989799
0.18322597 0.229873 0.14276113
-0.13672099 0.26242131 0.14737999
-0.21103264 -0.374607 0.15830313
-0.080131687 -0.374607 0.15891626
-0.074815914 -0.37460703 0.15370883
-0.042320468 -0.374607 0.15878817
0.021769054 -0.37460697 0.15153481
0.21731186 -0.374607 0.15555979
-0.229873 -0.068086892 0.15502602
-0.229873 0.15820733 0.15047009
0.017639542 0.229873 0.15418269
0.212845 0.23399848 0.15185526
-0.16632488 -0.374607 0.16788633
0.13001183 -0.374607 0.1620653
0.18513045 -0.374607 0.16831508
0.21547934 -0.37460703 0.16119243
-0.229873 -0.35951316 0.16085751
0.229873 -0.33202961 0.16422448
-0.229873 -0.31340328 0.16181217
-0.229873 -0.12873709 0.16208179
0.229873 -0.12338338 0.16770053
-0.229873 -0.057170734 0.16766648
-0.11320856 0.23838601 0.16245359
-0.229873 0.28199512 0.16590187
-0.18060976 0.374607 0.1614255
-0.1816906 -0.374607 0.17536384
-0.14633518 -0.374607 0.17465347
0.078433558 -0.374607 0.17922992
0.229873 -0.34679511 0.17846707
-0.229873 -0.31864762 0.17983977
-0.229873 -0.15919384 0.17136627
0.229873 -0.11403623 0.17943257
0.229873 0.047124855 0.17662506
-0.12115449 0.23838601 0.17003852
-0.229873 0.26843894 0.17129675
-0.229873 0.27401364 0.17634042
-0.22252817 -0.374607 0.18467508
-0.14304955 -0.37460703 0.18756029
-0.036130846 -0.374607 0.1884712
0.039886173 -0.374607 0.18489733
0.19677319 -0.374607 0.18672886
-0.229873 -0.36871919 0.18493105
-0.229873 -0.28605336 0.18681596
0.229873 -0.12368025 0.18319809
0.229873 -0.10642757 0.18494155
-0.229873 -0.079405576 0.18475196
-0.229873 -0.036474407 0.18135875
-0.229873 -0.012548253 0.18317837
-0.229873 0.0053889751 0.18069372
-0.229873 0.035094172 0.18301442
0.22987299 0.058606286 0.18198508
-0.229873 0.15733212 0.18812969
0.0087279705 0.229873 0.18670398
0.14792797 0.229873 0.18049408
0.19904871 0.229873 0.18339448
-0.229873 0.35830256 0.18823801
-0.22150314 -0.374607 0.19106105
-0.21604687 -0.374607 0.19164903
-0.20997502 -0.374607 0.19947827
-0.13578719 -0.374607 0.19027144
-0.021630794 -0.374607 0.19143777
0.086056314 -0.37460703 0.19841507
0.13983905 -0.37460697 0.19731691
0.1973961 -0.374607 0.19027954
0.2141006 -0.374607 0.19208543
0.229873 -0.17750731 0.19028565
0.229873 0.11811527 0.19727787
0.229873 0.16060126 0.19106732
-0.08065784 0.229873 0.19136319
-0.041197721 0.229873 0.19440475
-0.011377782 0.229873 0.19654557
-0.19929069 0.37460697 0.19374481
0.0038456609 -0.374607 0.20458117
0.229873 -0.35579494 0.20833078
0.229873 -0.18851976 0.20305049
0.229873 0.016266335 0.20702113
-0.229873 0.025824577 0.20505841
-0.229873 0.18575515 0.20230097
0.051178794 0.229873 0.20390713
0.229873 0.22607748 0.20562267
-0.14746122 0.2910623 0.20677796
-0.04269053 -0.374607 0.21637306
-0.033075247 -0.374607 0.21114123
0.229873 -0.29800147 0.21419175
0.229873 -0.13141251 0.21544322
-0.229873 -0.12870309 0.21239586
0.22987299 -0.047651477 0.2106687
0.229873 -0.021369783 0.21631727
0.229873 0.1035738 0.21452916
-0.229873 0.16074356 0.21205419
-0.229873 0.18531528 0.21606152
0.035143048 0.229873 0.21249779
0.12820049 0.229873 0.2115835
-0.10829099 0.23838601 0.21834502
-0.229873 0.24313706 0.210924
-0.14591108 0.28692847 0.21204056
-0.15832786 0.3200404 0.21709964
-0.21666424 -0.37460697 0.22767475
0.16649346 -0.374607 0.2277998
0.20126641 -0.374607 0.22229828
-0.229873 -0.24127512 0.22132818
-0.229873 -0.13239934 0.22197239
-0.229873 0.086874232 0.22914928
0.229873 0.14733528 0.22326964
-0.229873 0.16263422 0.22149163
-0.229873 0.18937269 0.22529905
-0.085638896 0.23140222 0.221359
0.17910652 0.23593664 0.221359
-0.21253711 0.374607 0.22852096
-0.094465002 -0.374607 0.23419908
0.1731348 -0.374607 0.2377308
-0.012678847 -0.36206672 0.23838601
-0.0063576028 -0.36319041 0.23838601
-0.22498646 -0.35568535 0.23838601
-0.097627833 -0.35502675 0.23838601
0.0078531802 -0.35456192 0.23838601
0.056842163 -0.35801262 0.23838601
0.1032051 -0.35835409 0.23838601
0.1437483 -0.34213465 0.23838601
-0.21590401 -0.33727852 0.23838601
-0.13516425 -0.3327097 0.23838601
-0.12317041 -0.33837003 0.23838601
-0.097268499 -0.33664787 0.23838601
0.053603664 -0.3358466 0.23838601
0.060754083 -0.33546397 0.23838601
0.091217294 -0.33280548 0.23838601
0.10387897 -0.32231072 0.23838601
-0.15852162 -0.31717008 0.23838601
-0.13560513 -0.31373292 0.23838601
-0.10556874 -0.31750897 0.23838601
-0.073770948 -0.31750488 0.23838601
0.010275573 -0.31309569 0.23838602
-0.22544275 -0.30332929 0.2377691
0.11724493 -0.30801472 0.23838601
0.15369581 -0.30250263 0.23838601
-0.17706247 -0.2930693 0.23838601
0.19591066 -0.29944345 0.23838601
-0.062741235 -0.2817598 0.23838601
-0.0039448738 -0.2871263 0.23838601
0.02304285 -0.28531522 0.23838601
0.035222769 -0.28824997 0.23838601
0.10189654 -0.28117743 0.23838601
-0.14256321 -0.2712321 0.23838601
0.010439575 -0.27515528 0.23838601
0.11879977 -0.27180043 0.23838601
0.19772455 -0.27140626 0.23838601
-0.19796415 -0.26657179 0.23838601
-0.043552909 -0.26327756 0.23838601
-0.038559828 -0.2523227 0.23838601
0.026332088 -0.25596476 0.23838601
-0.05086945 -0.24207106 0.23838601
-0.041264243 -0.24861559 0.23838601
0.064178064 -0.24089104 0.23838601
0.13576321 -0.2489372 0.23838601
-0.022320502 -0.23090032 0.23838601
-0.00021743029 -0.23321539 0.23838601
0.014207747 -0.23707485 0.23838601
0.20818442 -0.23398462 0.23838601
-0.10666706 -0.22130038 0.23838601
-0.058366075 -0.22479786 0.23838601
0.055042572 -0.21606942 0.23838601
0.15091588 -0.21426877 0.23838601
0.077648357 -0.20756191 0.23838601
0.22525069 -0.2056216 0.23838601
-0.20183906 -0.1967659 0.23838601
0.16993871 -0.19272599 0.23838601
0.21260004 -0.19061659 0.23838601
-0.14417054 -0.18693075 0.23838601
-0.084118649 -0.18171036 0.23838601
0.12365572 -0.1860304 0.23838601
-0.18644606 -0.17414646 0.23838601
0.22633082 -0.17530851 0.23838601
0.15943485 -0.16222212 0.23838601
0.10643669 -0.15440345 0.23838601
-0.039884023 -0.14431316 0.23838601
-0.0052632764 -0.14023262 0.23838601
-0.094798341 -0.13603932 0.23838601
-0.08318685 -0.13059275 0.23838601
-0.21952531 -0.12506139 0.23838601
0.14417699 -0.12507804 0.23838601
0.17755274 -0.12397785 0.23838601
-0.22984055 -0.11873296 0.23838601
-0.13926652 -0.11767674 0.23838601
0.16487268 -0.11503871 0.23838601
0.16883291 -0.1074293 0.23838601
-0.22086149 -0.099112421 0.23838601
0.0071453303 -0.090026565 0.23838601
0.027735252 -0.095845625 0.23838601
0.1176551 -0.097603753 0.23838601
0.15332967 -0.093047932 0.23838601
-0.17798539 -0.08767657 0.23838601
0.0079516247 -0.083573535 0.23838601
-0.15199332 -0.077467591 0.23838601
-0.086261801 -0.079173431 0.23838601
-0.0052757561 -0.07412298 0.23838601
0.049252853 -0.075799599 0.23838601
0.15567634 -0.076215751 0.23838601
-0.031338513 -0.068617433 0.23838601
0.229873 -0.068606243 0.23822622
-0.22376858 -0.053975426 0.23838601
-0.13509606 -0.057058461 0.23838601
0.19832388 -0.048544724 0.23838601
-0.1212666 -0.03977605 0.23838601
-0.049483068 -0.035402335 0.23838601
0.11008452 -0.034342818 0.23838601
0.17511113 -0.038984835 0.23838601
-0.22797391 -0.021262839 0.23838601
-0.21328823 -0.021842666 0.23838601
-0.16113743 -0.016297504 0.23838601
-0.080293313 -0.011401363 0.23838601
0.086301036 -0.013490595 0.23838601
-0.20645329 -0.00041201618 0.23838601
0.0019716844 -0.0082802325 0.23838601
0.087397046 -0.0052018352 0.23838601
-0.20541945 0.0026225713 0.23838601
-0.022759862 0.0022774637 0.23838601
-0.041507199 0.010776099 0.23838601
0.22207454 0.012797613 0.23838601
-0.1397472 0.021782108 0.23838601
-0.005015865 0.02526802 0.23838601
0.099058926 0.029006578 0.23838601
0.06353499 0.037918404 0.23838601
0.229873 0.036437985 0.23661207
-0.22792394 0.047333658 0.23838601
-0.073259592 0.040756941 0.23838601
0.019351058 0.041761227 0.23838601
0.098792039 0.043371622 0.23838601
0.19150302 0.048343513 0.23838601
0.027056178 0.052207548 0.23838601
0.229873 0.050381068 0.23764335
-0.08268933 0.065918744 0.23838601
0.16165514 0.069330104 0.23838601
-0.13576503 0.076892123 0.23838601
0.16143313 0.070382759 0.23838601
0.1768593 0.079239778 0.23838601
0.21910173 0.077179447 0.23838601
-0.13044958 0.089501567 0.23838601
0.079247102 0.080148026 0.23838601
0.090077482 0.087498985 0.23838601
-0.025890101 0.093641385 0.23838601
0.10004627 0.092749827 0.23838601
-0.11859477 0.11293131 0.23838601
0.1861037 0.11084668 0.23838601
0.20459175 0.11218661 0.23838601
-0.12224291 0.12567529 0.23838601
0.075676046 0.12863238 0.23838601
0.10088988 0.1214368 0.23838601
0.19642201 0.12226426 0.23838601
0.20094709 0.12831153 0.23838601
-0.034020916 0.13095061 0.23838601
0.092747703 0.13129395 0.23838601
0.062931947 0.14558569 0.23838601
0.12217495 0.14478508 0.23838601
-0.12409885 0.15259701 0.23838601
-0.12616245 0.16576605 0.23838601
-0.0064589866 0.16860226 0.23838601
0.14794753 0.17748798 0.23838601
0.069624573 0.18694705 0.23838601
0.15113486 0.18667223 0.23838601
-0.13738516 0.19572945 0.23838601
0.11793046 0.1965698 0.23838601
-0.19339575 0.20123048 0.23838601
-0.14608723 0.20752785 0.23838601
-0.229873 0.21422783 0.23704329
-0.13043247 0.21255097 0.23838601
-0.070623308 0.21455555 0.23838601
-0.0061021857 0.21383423 0.23838601
-0.17021392 0.22051115 0.23838601
-0.074949101 0.22896008 0.23838601
0.14588243 0.22784533 0.23838601
0.18026952 0.2259337 0.23838601
0.015596283 0.23838601 0.23303895
0.02479139 0.23042339 0.23838601
0.14697869 0.23838601 0.23332897
0.22612973 0.23838601 0.23496047
-0.2255584 0.24274564 0.23838601
-0.21274722 0.2677038 0.23838601
-0.18764299 0.3288534 0.23838601
-0.19627726 0.34726012 0.23838601
