# .PCD v0.7 - Point Cloud Data file format
VERSION 0.7
FIELDS x y z
SIZE 4 4 4
TYPE F F F
COUNT 1 1 1
WIDTH 931
HEIGHT 1
VIEWPOINT 0 0 0 1 0 0 0
POINTS 931
DATA ascii
-0.1815832 0.24542837 -0.37583375
-0.14748022 0.24393371 -0.37376553
-0.12168728 0.24358 -0.37687466
-0.080029204 0.24939036 -0.37737
-0.050511017 0.24358 -0.37045145
-0.049396642 0.24358001 -0.37690598
0.033679664 0.24357998 -0.37647352
0.087934807 0.24358001 -0.37692645
-0.14830093 0.25909612 -0.37737
-0.13349861 0.25944397 -0.37737
-0.099477582 0.25940365 -0.37737
-0.066917494 0.25457495 -0.37737
-0.044352107 0.25748587 -0.37737
-0.02036253 0.254536 -0.37737
0.091993079 0.25184858 -0.37737
0.11912696 0.25492615 -0.37737
0.16012724 0.25816736 -0.37737
-0.17645217 0.26454499 -0.37625211
-0.16991672 0.26454499 -0.3761161
-0.1446072 0.26454499 -0.3758598
-0.07206317 0.26320669 -0.37737
0.024495721 0.26454499 -0.37477127
0.074682862 0.26255274 -0.37737
0.11488874 0.26069522 -0.37737
0.12966256 0.26454499 -0.37729722
0.16479632 0.26454499 -0.37086815
-0.13859445 0.24358 -0.36207086
-0.07870172 0.24357998 -0.36144802
-0.042480092 0.24358001 -0.3608709
0.0036959648 0.24358 -0.36662573
0.024914533 0.24358 -0.3661499
0.095654011 0.24358 -0.3693465
0.10826673 0.24358 -0.36216486
0.14687784 0.24358 -0.36094531
-0.15473032 0.26454499 -0.36258787
-0.1249693 0.26454499 -0.36214
0.04550536 0.26454499 -0.36355793
0.054730888 0.26454499 -0.36520535
0.086574599 0.26454499 -0.36094153
-0.1820312 0.24358 -0.35125741
-0.1421178 0.24358 -0.35333252
-0.1269372 0.24358 -0.35186791
-0.025197767 0.24357998 -0.35888112
0.072417036 0.24358 -0.35308266
-0.15122303 0.26454499 -0.35110468
-0.14606042 0.26454499 -0.35100302
-0.047687776 0.26454499 -0.35037649
-0.020245042 0.26454499 -0.35385132
0.026593957 0.26454496 -0.35572278
0.10604374 0.26454499 -0.35524511
0.15775442 0.26454499 -0.35799247
-0.18008459 0.24358 -0.34007257
-0.082641006 0.24358 -0.34066123
-0.055195764 0.24358001 -0.34125319
0.037312657 0.24358001 -0.34268126
0.040239364 0.24358 -0.34250423
0.058329418 0.24358 -0.34575158
0.17088622 0.24358 -0.34836462
-0.1214321 0.26454499 -0.34012836
-0.10219328 0.26454499 -0.34158063
-0.06852971 0.26454499 -0.34082842
0.054918256 0.26454499 -0.34423548
0.076157697 0.26454499 -0.34795374
0.10072878 0.26454499 -0.34309024
0.12006278 0.26454499 -0.34192345
0.13661711 0.26454499 -0.34156853
-0.12065869 0.24358 -0.33924353
-0.043962196 0.24358001 -0.33549941
-0.0078157689 0.24357998 -0.33784729
0.052357953 0.24358001 -0.33470985
0.11974181 0.24358 -0.33857608
-0.14224197 0.26454499 -0.33281583
-0.040747061 0.26454499 -0.33745882
-0.015075672 0.26454499 -0.33968008
0.013554879 0.26454499 -0.33687305
-0.11877834 0.24357998 -0.3290872
-0.090137772 0.24357998 -0.32417047
0.05751748 0.24358001 -0.32334787
0.078800038 0.24358 -0.32399255
0.10548729 0.24357998 -0.32657367
-0.17701913 0.26454499 -0.32664722
-0.041992828 0.26454499 -0.32205835
-0.018767567 0.26454499 -0.32292598
0.036036342 0.26454499 -0.32262021
0.060746059 0.26454499 -0.32605916
0.13410586 0.26454499 -0.3262074
-0.19274816 0.24358 -0.31166488
-0.15006948 0.24358 -0.31688017
-0.11864688 0.24358 -0.31218183
-0.013101473 0.24358 -0.31662071
0.11248229 0.24358 -0.31523818
-0.16836686 0.26454499 -0.31171042
-0.067251846 0.26454499 -0.31913021
0.044114042 0.26454499 -0.31916916
0.05391413 0.26454499 -0.31360483
-0.15255098 0.24358 -0.30037647
-0.068972364 0.24358 -0.30272567
-0.017110869 0.24358001 -0.30915278
-0.0072296709 0.24358001 -0.30201209
0.0033728331 0.24357998 -0.30316645
0.033166733 0.24358 -0.30716667
0.18558648 0.24357998 -0.30122975
-0.19392601 0.25106299 -0.30122614
0.18693802 0.25483546 -0.30407524
-0.13265423 0.26454499 -0.30855465
-0.11129571 0.26454499 -0.30857998
-0.094462164 0.26454499 -0.30554092
0.068954647 0.26454499 -0.30176514
0.13653085 0.26454499 -0.30030638
-0.12998569 0.24358 -0.29820925
-0.069270037 0.24357998 -0.29604381
-0.037377905 0.24358 -0.29589319
-0.09201932 0.26454499 -0.29008394
-0.061090589 0.26454499 -0.29574087
-0.019841932 0.26454499 -0.29354292
0.026510606 0.26454499 -0.29130691
0.093820825 0.26454499 -0.29544616
0.14399259 0.26454499 -0.29779524
0.17224096 0.26454499 -0.29745078
-0.19392601 0.24524984 -0.2831012
-0.14056225 0.24358 -0.28115588
0.014110722 0.24357998 -0.28375393
0.078731358 0.24358 -0.2874558
0.12903483 0.24358 -0.28407496
0.186938 0.24539149 -0.28795758
-0.19392601 0.25852811 -0.28047562
-0.18728177 0.26454499 -0.28048217
-0.13881509 0.26454499 -0.28624427
-0.096103199 0.26454499 -0.28925264
0.010211082 0.26454499 -0.28700352
0.086049944 0.26454499 -0.28027183
0.18175703 0.26454499 -0.28619188
-0.095423639 0.24358001 -0.27613005
-0.048376031 0.24357998 -0.27095324
-0.02299875 0.24358 -0.27499932
0.13334449 0.24357998 -0.27041888
-0.13468289 0.26454499 -0.27252439
-0.1295663 0.26454499 -0.27328175
-0.038269512 0.26454499 -0.27324176
-0.0078476518 0.26454499 -0.2796824
0.11037004 0.26454499 -0.27422214
0.13635513 0.26454499 -0.27758247
-0.19229989 0.24358 -0.26648676
-0.16143334 0.24358001 -0.26330155
-0.15823936 0.24358 -0.26783773
-0.13998862 0.24358001 -0.26883149
-0.094082505 0.24358 -0.26397091
0.11440417 0.24358 -0.26508129
-0.18221296 0.26454499 -0.2660127
-0.16329771 0.26454499 -0.2667436
-0.15206558 0.26454499 -0.26784915
-0.11183581 0.26454499 -0.26627854
-0.047656063 0.26454499 -0.26145035
-0.013121149 0.26454499 -0.26298082
-0.005532302 0.26454499 -0.26921767
0.066548437 0.26454499 -0.26551408
0.095686346 0.26454499 -0.26915485
0.1398437 0.26454499 -0.2642782
0.14132816 0.26454499 -0.26382178
0.018378027 0.24358 -0.25852326
0.024429571 0.24358001 -0.2513456
0.186938 0.24429569 -0.25541741
0.186938 0.2556842 -0.25517097
-0.19392601 0.26210168 -0.25721571
-0.16431333 0.26454499 -0.25688228
0.069207005 0.26454499 -0.25433028
-0.048304833 0.24357998 -0.24017265
0.067578614 0.24358 -0.24431652
0.16500029 0.24358 -0.24493039
0.186938 0.25681227 -0.24625438
-0.15544051 0.26454499 -0.24170373
-0.14312088 0.26454499 -0.24780887
-0.11475676 0.26454499 -0.24068479
0.010398597 0.26454499 -0.24171302
0.079679571 0.26454499 -0.24509254
0.10651666 0.26454499 -0.24357247
0.1320419 0.26454499 -0.24932951
-0.12845492 0.24358 -0.23066074
-0.06168456 0.24358 -0.23508181
-0.023598403 0.24358001 -0.23718715
0.094433323 0.24358 -0.2331918
0.14738877 0.24358 -0.23183987
0.16718197 0.24357998 -0.23733045
-0.14243373 0.26454499 -0.23412849
-0.058690142 0.26454499 -0.23504782
-0.01172502 0.26454499 -0.23271525
0.092420064 0.26454499 -0.23000276
0.18033032 0.26454499 -0.23910767
-0.18382779 0.24358001 -0.22837943
-0.090018965 0.24358 -0.22014868
-0.063139677 0.24358001 -0.22468455
-0.013249537 0.24358001 -0.22176117
0.031740453 0.24357998 -0.22769868
0.050048489 0.24358001 -0.2252329
0.14016901 0.24357998 -0.22831798
0.15310697 0.24358 -0.2298705
0.17949 0.24358 -0.22239952
-0.19392601 0.25471708 -0.22567578
-0.15532339 0.26454499 -0.22242796
-0.11430623 0.26454499 -0.223795
-0.10754147 0.26454499 -0.22704756
-0.080463067 0.26454499 -0.22942279
-0.036863685 0.26454499 -0.22148934
-0.024679633 0.26454499 -0.22385444
0.01547033 0.26454499 -0.2213403
0.13668649 0.26454499 -0.22860101
0.16811055 0.26454499 -0.22426035
0.186938 0.26452637 -0.22552946
-0.15953362 0.24358 -0.21705677
-0.08761856 0.24358 -0.21349287
-0.010367602 0.24358001 -0.21004939
0.0043612979 0.24357998 -0.21886718
0.086598821 0.24358 -0.21196836
0.14427033 0.24358 -0.21665116
0.17331156 0.24358001 -0.21605182
-0.19392601 0.25424936 -0.21856523
0.186938 0.25679392 -0.21693844
-0.095519349 0.26454499 -0.21100152
-0.085773692 0.26454499 -0.21937722
0.11944214 0.26454499 -0.21870081
-0.19329627 0.24358 -0.20823322
-0.098673739 0.24358001 -0.20422967
-0.042619389 0.24358 -0.20748991
0.10148206 0.24358 -0.20754221
0.11624077 0.24358001 -0.20800865
0.14574184 0.24358 -0.20652676
-0.17002806 0.26454499 -0.20480889
-0.15043564 0.26454499 -0.20123927
-0.10614379 0.26454499 -0.20504174
-0.078161657 0.26454499 -0.20878074
-0.059534948 0.26454499 -0.20954196
0.03884355 0.26454499 -0.20403159
-0.058593724 0.24357998 -0.1963567
-0.0060160086 0.24358 -0.19278532
0.15174559 0.24358 -0.19926341
0.1718933 0.24357998 -0.19697532
-0.17263512 0.26454496 -0.19179705
-0.057868805 0.26454499 -0.19434819
-0.036639251 0.26454499 -0.19605362
-0.019141417 0.26454499 -0.19826323
0.018316528 0.26454499 -0.1930597
0.020837821 0.26454499 -0.19250292
0.092904203 0.26454499 -0.19195801
0.13760096 0.26454499 -0.19137532
-0.1682874 0.24358001 -0.18986613
-0.13709377 0.24357998 -0.18639243
-0.12021136 0.24358001 -0.18789515
-0.051047474 0.24357998 -0.18065874
0.040817078 0.24357998 -0.18871571
0.064512119 0.24358 -0.18711662
0.080566928 0.24357998 -0.18090791
0.17075098 0.24358 -0.18540362
-0.16175722 0.26454499 -0.18078876
0.087612048 0.26454499 -0.18094854
0.14502405 0.26454499 -0.18546012
0.17825818 0.26454499 -0.18597591
-0.18966311 0.24358 -0.17847382
-0.16960572 0.24357998 -0.17453387
-0.14027077 0.24358001 -0.17344752
-0.13414104 0.24357998 -0.17968345
-0.072922312 0.24358 -0.17132495
-0.050840132 0.24358001 -0.17497243
-0.021510955 0.24357998 -0.17599761
0.019255038 0.24358001 -0.17939568
0.15888749 0.24358 -0.17868036
0.18226439 0.24358001 -0.17329434
-0.080364987 0.26454499 -0.17998856
-0.036803417 0.26454499 -0.17276818
-0.0073144548 0.26454499 -0.17144795
0.0048820376 0.26454499 -0.17699081
0.020511307 0.26454499 -0.17515185
0.050916962 0.26454499 -0.17612611
0.10430907 0.26454499 -0.17828849
-0.16704336 0.24358001 -0.16762513
-0.15955277 0.24358001 -0.16875631
-0.036739476 0.24358 -0.16828614
0.024284665 0.24358001 -0.16431291
0.17431149 0.24358 -0.16434127
0.186938 0.2564674 -0.1600792
-0.17289114 0.26454499 -0.16192918
-0.15677971 0.26454499 -0.16092288
-0.12508219 0.26454499 -0.16973609
-0.091271803 0.26454499 -0.16716602
0.039507881 0.26454499 -0.16209482
0.053139437 0.26454499 -0.16634318
0.07115937 0.26454499 -0.16508384
0.12436897 0.26454499 -0.16627502
0.16720648 0.26454499 -0.16645962
-0.1831494 0.24358 -0.15356857
-0.027771635 0.24358001 -0.15271309
0.186938 0.25437018 -0.15321203
-0.035903007 0.26454499 -0.15946144
-0.02226343 0.26454499 -0.15899235
0.088744931 0.26454499 -0.15141964
0.14188275 0.26454496 -0.15461749
0.17486247 0.26454499 -0.15315956
-0.18176043 0.24358 -0.14868779
-0.1321348 0.24357998 -0.14176065
-0.11193338 0.24357998 -0.14558448
-0.087740533 0.24358001 -0.14471786
-0.017862458 0.24358001 -0.14015514
0.077657737 0.24357998 -0.14417411
-0.19392601 0.25331759 -0.14689513
0.186938 0.25229543 -0.14035659
-0.15650824 0.26454499 -0.14767492
-0.10706844 0.26454499 -0.1451534
-0.048036605 0.26454499 -0.14635813
0.088729873 0.26454499 -0.14363682
0.10417587 0.26454499 -0.1466247
-0.17354287 0.24358 -0.13888031
0.004044909 0.24357998 -0.13566816
0.016425535 0.24358 -0.13114166
0.065934107 0.24358 -0.13522553
0.1859872 0.24480769 -0.13488345
0.186938 0.25748423 -0.13101961
-0.096049137 0.26454499 -0.13398924
-0.044009119 0.26454499 -0.13446349
0.15040654 0.26454499 -0.13211501
0.18308878 0.26454499 -0.13752429
-0.15784615 0.24358 -0.12657444
-0.13294077 0.24358 -0.12987518
-0.022346128 0.24358 -0.12292194
0.093928054 0.24357998 -0.12387957
0.11470789 0.24358 -0.12340584
0.12444355 0.24358 -0.12638807
-0.18612728 0.26454499 -0.12129693
-0.17160201 0.26454502 -0.12170793
-0.163417 0.26454499 -0.12069873
-0.12063546 0.26454499 -0.12912497
-0.11320667 0.26454499 -0.12975603
-0.10721 0.26454499 -0.12145181
-0.087005757 0.26454499 -0.1226187
-0.038272947 0.26454499 -0.12088582
-0.013926484 0.26454499 -0.1213907
-0.0025240611 0.26454499 -0.12463623
0.031789951 0.26454499 -0.12760131
-0.14496857 0.24358 -0.11474153
-0.054607503 0.24358 -0.11154257
-0.0038089715 0.24358001 -0.11579073
0.036058605 0.24357998 -0.1121774
0.064968973 0.24358 -0.11583117
0.07592234 0.24357998 -0.11779209
0.13692056 0.24358001 -0.11772721
-0.19368386 0.26454499 -0.1196087
-0.063111469 0.26454499 -0.11692502
0.079850078 0.26454499 -0.1192895
0.080651939 0.26454499 -0.11627579
0.16636623 0.26454499 -0.11217567
-0.15570787 0.24358001 -0.10596747
-0.14285874 0.24357998 -0.10071417
-0.10051328 0.24358001 -0.10277998
-0.092033274 0.24358 -0.10910532
-0.03224925 0.24357998 -0.10846666
0.013036378 0.24357998 -0.1022366
0.071206063 0.24358 -0.102064
-0.17272827 0.26454499 -0.10660265
-0.15844993 0.26454502 -0.10355194
-0.13058017 0.26454496 -0.102064
-0.089713499 0.26454499 -0.10140181
-0.05070287 0.26454499 -0.10683587
-0.02890531 0.26454499 -0.1011298
-0.012270808 0.26454499 -0.10900313
0.018137917 0.26454499 -0.10413572
0.035419285 0.26454499 -0.1003665
0.16451743 0.26454499 -0.10687979
0.0096655488 0.24358001 -0.098689497
0.18530247 0.24358 -0.093509123
-0.12071818 0.26454499 -0.095246546
-0.077182129 0.26454499 -0.094865054
-0.027736455 0.26454499 -0.093586415
-0.00050817989 0.26454499 -0.091777183
0.0139689 0.26454499 -0.096621841
0.041044798 0.26454499 -0.094923437
0.057360087 0.26454499 -0.096539676
0.062552959 0.26454499 -0.091676615
0.092084371 0.26454499 -0.096823514
-0.045699447 0.24357998 -0.085352577
0.040770896 0.24358 -0.089713216
0.086201444 0.24358 -0.082490742
0.17815387 0.24357998 -0.088477775
-0.14736289 0.26454499 -0.089242861
-0.12966444 0.26454499 -0.083834685
0.17666489 0.26454499 -0.080162227
0.186938 0.26391655 -0.085644908
-0.18978822 0.24358001 -0.073505521
-0.11679684 0.24358 -0.07461752
-0.10974476 0.24358 -0.076583959
-0.057243057 0.24358 -0.075912036
-0.024498027 0.24357998 -0.078534164
0.1070113 0.24357998 -0.073829971
0.13830961 0.24358001 -0.074377559
-0.18171935 0.26454499 -0.078712523
-0.15485287 0.26454499 -0.079820484
-0.11940718 0.26454499 -0.079703674
0.080934472 0.26454499 -0.074326202
-0.1621424 0.24357998 -0.067427784
-0.11157895 0.24358001 -0.06401924
-0.10084678 0.24357998 -0.066891178
-0.074075714 0.24358 -0.061551135
-0.012546241 0.24358 -0.060078174
0.047519866 0.24358 -0.0618985
0.094364531 0.24357998 -0.061155468
0.186938 0.25184631 -0.063794106
-0.16632861 0.26454499 -0.066004649
-0.18305659 0.24357998 -0.051294588
-0.15145746 0.24358001 -0.056045458
-0.10463836 0.24358001 -0.051848158
-0.093905941 0.24357998 -0.058784753
-0.082565151 0.24357998 -0.050840616
0.012173407 0.24358 -0.059640825
0.02402772 0.24358 -0.05798975
0.087807938 0.24358 -0.054923691
0.11374597 0.24357998 -0.054573264
-0.18403135 0.26454499 -0.055492193
-0.16272168 0.26454499 -0.050461918
-0.1527718 0.26454499 -0.059776127
-0.12598731 0.26454499 -0.056083515
0.0051069409 0.26454499 -0.055142552
0.05508966 0.26454499 -0.056807339
0.17648987 0.26454499 -0.055865437
-0.19392601 0.24652585 -0.044980474
0.027098406 0.24357998 -0.042934276
0.03845783 0.24357998 -0.048286974
0.081716649 0.24358 -0.043636531
-0.15844737 0.26454499 -0.047171235
-0.057143182 0.26454499 -0.045260556
0.073626213 0.26454499 -0.047744155
0.14118993 0.26454499 -0.043221921
0.16788021 0.26454499 -0.045397863
-0.1225889 0.24358 -0.035301931
-0.08465489 0.24358001 -0.037814081
-0.023899972 0.24358 -0.034577429
0.034368794 0.24358001 -0.031901859
0.13707145 0.24358001 -0.031108379
-0.19392601 0.25690416 -0.030970607
-0.18161112 0.26454499 -0.035048187
-0.16356474 0.26454499 -0.03045778
-0.14582831 0.26454499 -0.036738183
-0.016809933 0.26454499 -0.032377183
-0.0097136274 0.26454499 -0.03917259
0.042898111 0.26454499 -0.037634946
0.09774065 0.26454499 -0.038824715
0.18693799 0.26157171 -0.03007859
-0.1868327 0.24358 -0.02960135
-0.15089585 0.24357998 -0.025013834
-0.063481048 0.24358001 -0.023672312
-0.0079673938 0.24358 -0.021552723
0.019965142 0.24358 -0.022824824
0.059302554 0.24357998 -0.026422352
0.075720996 0.24358001 -0.020122573
0.13576093 0.24358 -0.025107503
-0.11975899 0.26454499 -0.021257594
-0.070490658 0.26454499 -0.027588338
-0.049628593 0.26454499 -0.020818293
0.024034776 0.26454499 -0.023140486
0.095566735 0.26454499 -0.021847636
0.12666452 0.26454499 -0.029151313
-0.13037843 0.24358001 -0.01667586
-0.12778297 0.24358001 -0.011970013
-0.054480873 0.24358 -0.012907982
-0.036116399 0.24358 -0.016455203
0.062576711 0.24357998 -0.012003157
0.114258 0.24358001 -0.019950122
0.15412427 0.24358 -0.011149049
-0.18739191 0.26454502 -0.01379548
-0.047810674 0.26454499 -0.019360542
-0.025120808 0.26454499 -0.014273034
0.044301197 0.26454499 -0.015838614
0.086920999 0.26454499 -0.017135359
0.13446493 0.26454499 -0.012707472
-0.13623831 0.24358001 -0.0058324039
-0.12256132 0.24358 -0.0082589835
-0.052226841 0.24358 -0.0092824213
-0.041560553 0.24358001 -0.0014712214
0.032277182 0.24358001 -0.0074226595
0.14085115 0.24358 -0.0054287314
-0.012217017 0.26454499 -0.0041230801
0.018351957 0.26454499 -0.0095079243
0.090378292 0.26454499 -0.0031424165
-0.1842823 0.24358 0.0096231401
-0.10567654 0.24357998 0.00073775649
-0.034609251 0.24358001 0.0022081602
-0.025631331 0.24358 0.0019860566
0.052578934 0.24357998 0.0077671967
0.094922774 0.24358001 0.00036104769
0.11031795 0.24358 0.0022505224
0.12614575 0.24358 0.003849864
0.186938 0.25075844 0.0094135515
-0.12743986 0.26454499 0.00096989423
-0.11481155 0.26454499 0.00023756921
-0.082610846 0.26454499 0.007458061
-0.03160914 0.26454499 0.00846605
-0.016523998 0.26454499 0.0018876055
0.048233263 0.26454499 0.008361429
-0.12811255 0.24357998 0.017801769
-0.015650773 0.24357998 0.01688136
0.014397994 0.24357998 0.016521424
0.089764468 0.24358001 0.015748292
0.15647328 0.24358 0.010136515
-0.19392601 0.25360644 0.016867457
-0.19053817 0.26454499 0.016168207
-0.13413292 0.26454499 0.011617295
-0.085731059 0.26454499 0.014596939
0.083696008 0.26454499 0.015544407
0.095804363 0.26454499 0.017037362
0.15409923 0.26454499 0.016130894
0.16539341 0.26454499 0.016031116
-0.19392601 0.24385533 0.027321283
-0.17023808 0.24358001 0.026670128
-0.11280674 0.24358001 0.020702384
-0.029959064 0.24358 0.021607
0.026681285 0.24357998 0.029759675
0.055657357 0.24358001 0.021128476
0.079774365 0.24357998 0.024905786
0.098512515 0.24358 0.024220027
0.14410779 0.24358001 0.024127215
-0.12807488 0.26454499 0.029400527
-0.094467714 0.26454499 0.02052898
-0.077495866 0.26454499 0.027085936
0.02899453 0.26454499 0.027950577
0.048093241 0.26454499 0.023237761
0.14310923 0.26454499 0.027091712
0.15682615 0.26454499 0.025687123
-0.18147162 0.24358 0.038190618
-0.039330915 0.24357998 0.03045778
0.0069953944 0.24358 0.032727387
0.067424305 0.24357998 0.032145359
0.186938 0.24461214 0.034148529
-0.13000594 0.26454499 0.039136425
-0.082669675 0.26454499 0.035146713
-0.070289411 0.26454499 0.033486363
-0.0093077347 0.26454499 0.038755029
0.10834333 0.26454499 0.034414008
-0.17110686 0.24358 0.049257398
-0.10191279 0.24357998 0.047777221
-0.077319242 0.24357998 0.049804609
-0.057239555 0.24357998 0.041766554
0.012948617 0.24358 0.040006429
0.020747077 0.24358 0.048559587
0.046385832 0.24358 0.045126326
0.067782909 0.24357998 0.04440676
-0.17958046 0.26454499 0.048580647
-0.089713529 0.26454499 0.046775632
0.094529063 0.26454499 0.043306552
-0.16651109 0.24357998 0.056544177
-0.075545751 0.24358 0.057523824
-0.029677503 0.24358 0.053451151
0.022259708 0.24358 0.053574488
0.094923303 0.24357998 0.059939086
0.12198284 0.24357998 0.058944136
0.1304445 0.24358001 0.054358065
0.14138243 0.24358 0.053531855
-0.17514989 0.26454499 0.057662442
-0.1238387 0.26454499 0.05606465
-0.084961742 0.26454499 0.059879452
-0.057541873 0.26454499 0.051909178
0.0027066702 0.26454499 0.059446551
0.027003493 0.26454499 0.059455913
0.056831274 0.26454499 0.051893156
0.13301075 0.26454499 0.056137592
0.14117426 0.26454499 0.058458589
0.15742163 0.26454499 0.055894166
0.18542874 0.26454499 0.050691009
-0.19214126 0.24357998 0.069964141
-0.071872368 0.24358001 0.065177158
-0.059817649 0.24358 0.060006417
0.068588547 0.24358 0.066567153
0.090686679 0.24358001 0.068871498
0.11871076 0.24358 0.067798913
0.12364511 0.24357998 0.064076506
0.186938 0.25340432 0.061027832
-0.15771306 0.26454499 0.067273729
0.023222223 0.26454499 0.069299817
0.057436872 0.26454499 0.062974855
0.072087243 0.26454499 0.061447058
-0.16087027 0.24358 0.078365296
-0.14044093 0.24358 0.079382658
-0.0073056892 0.24358 0.076308548
0.14257276 0.24357998 0.077111043
0.16031462 0.24358001 0.07877335
0.186938 0.25097817 0.076930478
0.11694109 0.26454499 0.077927753
-0.018993363 0.24358 0.080845654
0.1134931 0.24357998 0.089322299
0.15290993 0.24358 0.084638029
0.16372235 0.24358001 0.087927349
-0.077613831 0.26454499 0.080436707
-0.043187201 0.26454499 0.089189507
-0.010424063 0.26454499 0.082587481
-0.0064279214 0.26454499 0.082306035
0.069639064 0.26454499 0.083908975
0.11979447 0.26454499 0.080113992
0.18634474 0.26454499 0.085588098
-0.047020398 0.24358001 0.092070609
-0.024520077 0.24358001 0.098689497
0.1462521 0.24357998 0.095690049
-0.17083822 0.26454499 0.098415524
0.035450719 0.26454499 0.090085238
-0.19392601 0.24485862 0.10306636
-0.11084579 0.24357998 0.10446433
0.039783351 0.24358 0.10540193
0.083699465 0.24358001 0.10961035
-0.13957262 0.26454499 0.10505551
-0.012952818 0.26454499 0.10334697
0.02291375 0.26454499 0.1006825
0.047940191 0.26454499 0.10178648
0.14737332 0.26454499 0.10897017
0.16688871 0.26454502 0.10437851
-0.19392601 0.24924508 0.11473837
-0.16778763 0.24358 0.11590426
-0.077443637 0.24358001 0.11124671
-0.069376126 0.24358 0.11279547
-0.028045975 0.24358001 0.11841923
0.024595652 0.24358001 0.11245032
0.186938 0.2516343 0.11783456
-0.15680195 0.26454499 0.11709931
-0.14456439 0.26454499 0.11544752
-0.055652618 0.26454499 0.1147582
0.1855209 0.26454499 0.11992259
-0.18928775 0.24358 0.12968583
-0.15155388 0.24357998 0.12146861
-0.13606702 0.24358 0.12075776
-0.12969726 0.24357998 0.12583919
0.092566445 0.24357998 0.12443118
0.17056245 0.24357998 0.12802112
-0.17316405 0.26454499 0.12965238
0.090796009 0.26454499 0.12186351
0.10328369 0.26454499 0.12181821
0.11686043 0.26454499 0.12279819
0.13047171 0.26454499 0.12936454
-0.15975049 0.24358 0.13797982
-0.13390648 0.24357998 0.13010734
-0.12385419 0.24358001 0.13666227
-0.10405062 0.24358001 0.13450533
-0.096489601 0.24358 0.13592109
-0.18081419 0.26454499 0.13337588
-0.11298966 0.26454499 0.13088429
0.083241716 0.26454499 0.13753045
0.15077139 0.26454499 0.13081139
-0.089889191 0.24357998 0.1494955
-0.070869416 0.24357998 0.14243501
0.098188877 0.24358001 0.14694372
0.12460528 0.24358001 0.14168125
-0.18361561 0.26454499 0.14649844
-0.12203072 0.26454499 0.14541882
-0.11521655 0.26454499 0.14119537
-0.082505628 0.26454499 0.14042524
0.056556705 0.26454502 0.14654817
0.11375684 0.26454502 0.14919357
0.17374931 0.26454499 0.14371797
-0.17141131 0.24358 0.15427992
-0.15569934 0.24358 0.15886998
-0.17362899 0.26454499 0.15068558
-0.16431239 0.26454499 0.15678388
-0.13844734 0.26454499 0.15459891
-0.12727806 0.26454499 0.15375066
-0.022493239 0.26454499 0.15603225
-0.013824444 0.26454499 0.15955921
0.054037198 0.26454499 0.15557837
0.11428362 0.26454499 0.15444575
0.14285176 0.26454499 0.15316644
-0.11361938 0.24358 0.16064197
-0.037866518 0.24357998 0.16175967
0.0079303645 0.24358 0.1644206
0.06703072 0.24357998 0.16238016
0.13649076 0.24357998 0.16398007
0.17819694 0.24357998 0.16846639
-0.10607675 0.26454499 0.16211092
0.085375309 0.26454499 0.16969424
0.11575573 0.26454502 0.16440442
0.13527925 0.26454499 0.16200988
0.14909168 0.26454499 0.16848403
0.16188252 0.26454499 0.16959485
-0.16789445 0.24358 0.17024821
-0.15369579 0.24357998 0.17178097
-0.11786334 0.24358 0.17697018
-0.061238527 0.24358 0.17770436
-0.030257802 0.24358001 0.17363645
-0.020803358 0.24357998 0.17541611
0.031336509 0.24357998 0.17953616
0.047229998 0.24357998 0.17064548
0.1241051 0.24358 0.1768578
-0.060849249 0.26454499 0.17576981
-0.057532858 0.26454499 0.1711563
0.0422282 0.26454499 0.17159238
0.067618422 0.26454499 0.17812537
0.093387857 0.26454499 0.17306995
-0.1505948 0.24358 0.18033586
-0.13374843 0.24358001 0.18342896
0.00930769 0.24358001 0.1881052
0.083080739 0.24357998 0.18590379
0.15050936 0.24358001 0.1896209
-0.13924396 0.26454499 0.18958677
-0.10605356 0.26454499 0.18627325
-0.048600368 0.26454499 0.18285728
-0.010834873 0.26454499 0.1817169
0.01484137 0.26454499 0.18078919
-0.08508642 0.24358001 0.19244987
-0.071790449 0.24358 0.19148631
0.016442236 0.24358001 0.19336437
0.044895612 0.24358001 0.1984567
0.07133083 0.24357998 0.19978212
0.13407895 0.24358 0.19203787
0.16543674 0.24358 0.19718933
-0.034601308 0.26454499 0.19173247
-0.023189001 0.26454499 0.19877559
0.024721805 0.26454499 0.19300711
0.11442983 0.26454499 0.19146949
0.12569492 0.26454496 0.19448632
0.14424449 0.26454499 0.19841065
-0.15926966 0.24358 0.20370108
-0.14326511 0.24358 0.20743971
-0.08363457 0.24358 0.20480865
-0.049861372 0.24358 0.20873694
0.020482227 0.24358 0.20701414
0.059260044 0.24357998 0.20921129
0.070871681 0.24357998 0.20809889
-0.19392601 0.25770199 0.20116737
-0.18082774 0.26454499 0.20009254
-0.14950986 0.26454502 0.2028814
-0.11825175 0.26454499 0.20445134
-0.10431472 0.26454499 0.20932984
-0.086354986 0.26454499 0.20618059
-0.012893714 0.26454499 0.20034242
0.03878957 0.26454499 0.20564887
0.078040704 0.26454499 0.20271468
0.15064175 0.26454499 0.20739388
-0.17518449 0.24358 0.21508485
-0.13457677 0.24357998 0.21083108
-0.0030239262 0.24358001 0.2129598
0.0075753666 0.24358001 0.210292
0.077220723 0.24358001 0.21475661
0.1304227 0.24357998 0.2100146
0.15517147 0.24358 0.21759754
0.18586539 0.24357998 0.21793348
0.18693799 0.25542465 0.21144545
-0.12760606 0.26454499 0.21126741
0.066776603 0.26454499 0.21119167
0.088186622 0.26454499 0.21052861
-0.092499569 0.24358 0.22684622
0.11134877 0.24358 0.22508943
0.16910434 0.24357998 0.22202224
0.17002295 0.24358001 0.22876813
-0.13453519 0.26454499 0.22474229
-0.10881525 0.26454499 0.22802466
0.045314487 0.26454499 0.22769439
0.071157746 0.26454499 0.22225815
0.080512941 0.26454499 0.22637129
0.096464679 0.26454499 0.22750759
0.1272013 0.26454499 0.22525871
-0.1674899 0.24358 0.23741025
0.006072755 0.24358001 0.23596242
0.013887137 0.24358 0.23337078
0.036724996 0.24358 0.23988277
0.14679131 0.24358001 0.23804933
-0.16795394 0.26454499 0.23103225
-0.15483373 0.26454499 0.23268723
-0.13932456 0.26454499 0.23509037
-0.12673816 0.26454499 0.23298638
0.016149446 0.26454499 0.23338376
0.11441462 0.26454499 0.23369993
0.16786955 0.26454499 0.23447868
-0.17132095 0.24358 0.24504109
-0.1355162 0.24358 0.24164148
-0.083401576 0.24358 0.24756563
0.10198744 0.24357998 0.24969
0.11012644 0.24357998 0.24601984
0.12126376 0.24358001 0.24332426
0.18549231 0.24358001 0.2437869
-0.17632414 0.26454499 0.24741481
-0.13662151 0.26454499 0.24592227
-0.058725964 0.26454499 0.24161166
-0.018362332 0.26454499 0.24693987
-0.0037714187 0.26454499 0.24703687
0.044710044 0.26454499 0.24050568
0.07735581 0.26454499 0.2432963
0.1250369 0.26454499 0.24487363
0.186938 0.26208115 0.24307412
-0.13431373 0.24358 0.25410831
-0.088136613 0.24358 0.25303549
-0.07406269 0.24357998 0.25874537
-0.069204763 0.24357998 0.25655276
0.011863291 0.24357998 0.25150877
0.054710779 0.24358 0.25340766
0.11586634 0.24358 0.25830799
0.12152705 0.24357998 0.25156775
0.13705763 0.24358001 0.25559223
0.17337039 0.24358 0.25553989
-0.19392601 0.25766492 0.25657886
0.14598221 0.26454499 0.2515263
0.047743507 0.24358001 0.26103681
0.086010978 0.24358001 0.26051927
0.11890927 0.24358001 0.26540926
0.13968314 0.24358 0.2637676
0.15780972 0.24358001 0.26727751
-0.130128 0.26454499 0.26942301
-0.070273481 0.26454499 0.26704007
-0.066239782 0.26454499 0.26967829
-0.03177302 0.26454499 0.26864314
-0.011421327 0.26454499 0.26247859
0.0038352981 0.26454499 0.26547492
0.014931828 0.26454499 0.26407731
0.15567948 0.26454499 0.26620081
0.16930863 0.26454499 0.26227298
-0.17375036 0.24358 0.2754578
-0.13760814 0.24357998 0.27910626
-0.10316417 0.24358001 0.27464604
-0.04950241 0.24358 0.27540237
-0.02540727 0.24358 0.27469629
-0.011732645 0.24358001 0.27995372
-0.17845228 0.26454499 0.2726728
-0.12405326 0.26454499 0.2728408
-0.11677591 0.26454499 0.2788685
0.019677609 0.26454499 0.2754423
0.055160329 0.26454499 0.27152225
-0.19298452 0.24358 0.28528172
-0.17115809 0.24357998 0.28030288
0.18199284 0.24358001 0.28038114
-0.15169771 0.26454499 0.28705579
-0.035440672 0.26454499 0.28498691
-0.018164692 0.26454499 0.28131425
0.051029243 0.26454499 0.28538975
0.072636649 0.26454499 0.28178257
0.11690874 0.26454499 0.2815913
0.12296469 0.26454499 0.28400075
-0.008267777 0.24357998 0.2926963
0.056661148 0.24358 0.29835382
0.083405294 0.24357998 0.2973057
0.11670735 0.24358 0.29854697
0.16813257 0.24357998 0.29729882
-0.060717434 0.26454499 0.29886892
0.053126059 0.26454499 0.29554403
0.079780862 0.26454499 0.2958023
0.13659345 0.26454499 0.29194355
0.1608084 0.26454499 0.29667357
-0.097624898 0.24358 0.30796665
0.017302968 0.24358 0.30731702
0.03408923 0.24358001 0.30670208
0.041128587 0.24358 0.30304995
-0.14066538 0.26454499 0.3015576
-0.041695058 0.26454499 0.30709752
0.13552432 0.26454499 0.30183619
0.18403733 0.26454499 0.30661315
-0.1090648 0.24358 0.31529507
-0.043331567 0.24358 0.31336182
0.025904067 0.24358001 0.31246918
0.10590613 0.24358 0.3169803
0.12576787 0.24357998 0.3157149
-0.011259995 0.26454499 0.31686157
0.045519724 0.26454499 0.31721812
0.06408295 0.26454499 0.31169435
0.149133 0.26454499 0.31729323
-0.19392601 0.24886458 0.32024667
-0.15855709 0.24358 0.32403928
-0.13917243 0.24358 0.32598501
-0.08014629 0.24358 0.32837832
-0.04948888 0.24358 0.32971954
-0.030104887 0.24358001 0.32398021
0.033915982 0.24357998 0.3261075
0.042460691 0.24358 0.32421559
0.12632367 0.24358 0.32936138
0.15555067 0.24358001 0.32567596
-0.18777134 0.26454499 0.32997757
-0.1269787 0.26454499 0.32705757
-0.037105709 0.26454502 0.3240093
0.11160259 0.26454499 0.3234719
-0.17306702 0.24358 0.3370719
0.022175163 0.24358001 0.33751172
0.13000302 0.24357998 0.33413535
-0.17250836 0.26454499 0.33437532
0.12093193 0.26454499 0.33127898
0.186938 0.26288676 0.33140978
-0.12391127 0.24358 0.34954885
-0.02274967 0.24357998 0.34604001
-0.015340105 0.24358001 0.34283802
-0.19392601 0.25646159 0.34348086
-0.071153179 0.26454499 0.34704858
-0.047812086 0.26454499 0.34839112
-0.01931346 0.26454499 0.34643638
0.096715838 0.26454499 0.34838599
0.10475128 0.26454499 0.3437776
0.17497274 0.26454499 0.34701639
-0.19392601 0.24876335 0.35665306
0.021006025 0.24358001 0.35415381
0.073128544 0.24358001 0.35425973
0.085260749 0.24357998 0.3571457
0.186938 0.25468397 0.35146862
-0.046556242 0.26454499 0.35998732
-0.024001895 0.26454499 0.35554165
-0.01160541 0.26454499 0.35865408
0.0063955486 0.26454499 0.35463524
0.032890901 0.26454499 0.35106891
0.1496027 0.26454499 0.35285652
0.15585698 0.26454499 0.35105693
-0.064673282 0.24358 0.3617534
-0.046834908 0.24357998 0.36858258
-0.039211754 0.24358 0.36298716
0.027715441 0.24358 0.36309278
0.046651673 0.24357998 0.36985844
0.11342543 0.24358 0.36626518
0.12500523 0.24358 0.36216486
0.18436125 0.24357998 0.36041388
0.18693799 0.25247899 0.36539146
-0.023605362 0.26454499 0.36617479
0.0036058575 0.26454499 0.36820078
0.086398929 0.26454499 0.36090988
0.095725626 0.26454499 0.36093736
0.14403163 0.26454499 0.36434776
-0.15202478 0.24358 0.37330025
-0.070134521 0.24360856 0.37737
-0.034021564 0.24358001 0.37284729
-0.024152927 0.24643967 0.37737
0.09277942 0.24358 0.37357157
0.12954375 0.24552318 0.37737
0.1348947 0.24620835 0.37581205
-0.18253955 0.25691938 0.37737
-0.12957186 0.25790203 0.37737
-0.090582229 0.25965506 0.37737
-0.074782051 0.25168836 0.37737
-0.042543314 0.25666329 0.37737
0.045966461 0.25186381 0.37737
0.10851569 0.25399983 0.37737
-0.15122409 0.26454499 0.3714388
-0.090429574 0.26454502 0.37630042
-0.065577492 0.26454499 0.37090462
-0.05638871 0.26454499 0.3704282
0.008273527 0.26454499 0.37647536
0.021406261 0.26454499 0.37551355
0.044443343 0.26454499 0.37679398
0.13132517 0.26180807 0.37737
0.18681034 0.26454499 0.37589532
