# .PCD v0.7 - Point Cloud Data file format
VERSION 0.7
FIELDS x y z
SIZE 4 4 4
TYPE F F F
COUNT 1 1 1
WIDTH 657
HEIGHT 1
VIEWPOINT 0 0 0 1 0 0 0
POINTS 657
DATA ascii
0.195227 -0.13557166 -0.18250433
0.195227 -0.11927494 -0.18434867
0.195227 -0.081880815 -0.18431398
0.195227 -0.068083689 -0.18282674
0.195227 -0.17225546 -0.17392352
0.195227 -0.15900277 -0.17434585
0.195227 -0.13243937 -0.17952523
0.195227 -0.11159641 -0.172526
0.195227 -0.1024935 -0.17451622
0.195227 -0.066796497 -0.17919993
0.195227 -0.057421234 -0.17787462
0.195227 -0.1973927 -0.16233686
0.195227 -0.16170241 -0.16013005
0.19522698 -0.14312142 -0.16564511
0.195227 -0.11573157 -0.1644958
0.195227 -0.10344899 -0.16600724
0.195227 -0.09805873 -0.16884235
0.195227 -0.075632289 -0.16770583
0.195227 -0.063983895 -0.1632776
0.195227 -0.041573174 -0.16131562
0.195227 -0.033044599 -0.16665336
0.195227 -0.027322406 -0.16456757
0.195227 -0.19908503 -0.15351844
0.195227 -0.18340524 -0.15686037
0.195227 -0.17879108 -0.15454723
0.195227 -0.15364999 -0.15696827
0.195227 -0.14880249 -0.15853423
0.195227 -0.11385396 -0.15448007
0.195227 -0.10702883 -0.15160918
0.195227 -0.084666893 -0.15226412
0.19522698 -0.064178012 -0.15478028
0.19522698 -0.057569075 -0.15650329
0.195227 -0.049661234 -0.1579724
0.195227 -0.027001977 -0.15556769
0.195227 -0.011180954 -0.15180212
0.195227 -0.23040242 -0.14082877
0.19522701 -0.17089494 -0.14222461
0.195227 -0.16420385 -0.1432993
0.195227 -0.15579966 -0.14706258
0.195227 -0.14229238 -0.14194128
0.195227 -0.12498073 -0.1427239
0.19522698 -0.10355543 -0.14370437
0.195227 -0.085517399 -0.14181139
0.195227 -0.065996662 -0.1429415
0.195227 -0.0097532831 -0.14073405
0.195227 0.0015843678 -0.14245306
0.195227 -0.24082279 -0.13282314
0.195227 -0.23946562 -0.13574576
0.195227 -0.22532272 -0.13593778
0.19522698 -0.2067064 -0.13519399
0.195227 -0.19058666 -0.13296753
0.19522698 -0.18405239 -0.13766129
0.195227 -0.17868142 -0.13845192
0.195227 -0.15223297 -0.13709891
0.195227 -0.14942326 -0.13762999
0.195227 -0.13691159 -0.13880695
0.195227 -0.12144443 -0.1353904
0.195227 -0.10586768 -0.13735703
0.195227 -0.090555623 -0.13258757
0.195227 -0.086268999 -0.13336492
0.195227 -0.076681778 -0.13133577
0.195227 -0.06287694 -0.1303671
0.195227 -0.031129977 -0.13942356
0.195227 0.017774936 -0.13244009
0.195227 -0.21080917 -0.126963
0.19522698 -0.19371824 -0.12527259
0.195227 -0.17126104 -0.12680216
0.195227 -0.15371689 -0.12731768
0.19522698 -0.1486892 -0.12759073
0.195227 -0.13483715 -0.12608564
0.195227 -0.12039543 -0.12484002
0.195227 -0.11385354 -0.12394077
0.195227 -0.1044694 -0.12604202
0.195227 -0.090472631 -0.12515397
0.195227 -0.086405501 -0.1249409
0.195227 -0.077245116 -0.12207054
0.195227 -0.054923616 -0.12390423
0.195227 -0.048041381 -0.12342447
0.195227 -0.032980364 -0.12373191
0.19522698 -0.026091203 -0.12680805
0.195227 -0.00062544271 -0.12635759
0.195227 0.0066475812 -0.12102392
0.195227 0.023615882 -0.12244672
0.19522701 -0.24626915 -0.11365048
0.195227 -0.23939636 -0.11732346
0.195227 -0.20141679 -0.1158604
0.195227 -0.19999957 -0.11799544
0.195227 -0.18498315 -0.11349633
0.195227 -0.17552999 -0.11437694
0.195227 -0.14715964 -0.11131978
0.195227 -0.12453319 -0.11558844
0.195227 -0.1146659 -0.11955342
0.195227 -0.10407589 -0.11467815
0.195227 -0.099882983 -0.11867671
0.195227 -0.085568778 -0.117894
0.195227 -0.068743184 -0.11176085
0.195227 -0.053414982 -0.11028063
0.195227 0.0085656773 -0.11904792
0.19522698 0.017639179 -0.11476242
0.195227 0.027258463 -0.11222106
0.195227 -0.25472459 -0.10132088
0.195227 -0.24802577 -0.1075554
0.195227 -0.2338001 -0.10942364
0.195227 -0.2279731 -0.10654642
0.195227 -0.20572738 -0.10134593
0.195227 -0.1965128 -0.10414159
0.195227 -0.18376952 -0.10873117
0.195227 -0.16462795 -0.10906826
0.195227 -0.15003692 -0.10547247
0.195227 -0.14489485 -0.10477141
0.19522698 -0.12451019 -0.10552315
0.19522698 -0.11457199 -0.10235155
0.195227 -0.075935625 -0.10605997
0.19522698 -0.061226841 -0.10666601
0.195227 -0.054712079 -0.10561466
0.19522698 -0.033564996 -0.10420453
0.195227 -0.0054106554 -0.10926582
0.195227 0.014644654 -0.10592984
0.195227 0.024286406 -0.10990059
0.19522698 -0.25385085 -0.091727637
0.195227 -0.24889863 -0.09409757
0.195227 -0.2396221 -0.097312741
0.195227 -0.22660375 -0.096389219
0.195227 -0.19254676 -0.097598858
0.19522698 -0.18507697 -0.094150864
0.19522698 -0.17788017 -0.095786177
0.195227 -0.16050293 -0.092785448
0.195227 -0.13083184 -0.092250906
0.195227 -0.12254551 -0.094309807
0.195227 -0.1102642 -0.098389745
0.195227 -0.094079822 -0.09318199
0.195227 -0.064021274 -0.093329087
0.195227 -0.03678963 -0.094784945
0.195227 -0.026349008 -0.099688798
0.195227 -0.016459176 -0.091232434
0.19522698 -0.0060339295 -0.095612831
0.195227 0.0047014663 -0.097326197
0.195227 0.012857372 -0.091468506
0.195227 0.04867762 -0.093462467
0.195227 -0.26725668 -0.083443306
0.195227 -0.24563992 -0.089774452
0.195227 -0.2335275 -0.085196286
0.195227 -0.21785432 -0.086309321
0.195227 -0.20124999 -0.085604772
0.195227 -0.18137135 -0.082601815
0.195227 -0.17062859 -0.083922237
0.19522698 -0.16445909 -0.082301028
0.195227 -0.12160447 -0.085686609
0.195227 -0.11241823 -0.085488804
0.195227 -0.094716363 -0.080628492
0.195227 -0.078859791 -0.081158057
0.195227 -0.067911491 -0.084646545
0.195227 -0.053683698 -0.083053112
0.195227 -0.043701161 -0.089667492
0.195227 -0.025314212 -0.086380318
0.195227 -0.013606234 -0.086630121
0.195227 -0.0084753362 -0.081514381
0.195227 0.011654492 -0.089947343
0.195227 0.035506908 -0.082604334
0.195227 0.04302999 -0.082697511
0.195227 -0.25187016 -0.077621624
0.195227 -0.24416059 -0.070222855
0.195227 -0.22274424 -0.078437276
0.195227 -0.21430136 -0.07077352
0.195227 -0.18115264 -0.072568968
0.195227 -0.17641221 -0.079836644
0.195227 -0.1571748 -0.079280287
0.195227 -0.13860336 -0.077164717
0.195227 -0.11395025 -0.070180893
0.195227 -0.083899051 -0.076377004
0.195227 -0.075485386 -0.078428544
0.195227 -0.040846728 -0.077220365
0.195227 -0.034090031 -0.073976502
0.195227 -0.025741924 -0.077342495
0.195227 -0.0063508921 -0.070973657
0.195227 0.0039134361 -0.070367828
0.195227 0.01876945 -0.074684866
0.195227 0.0437501 -0.075354323
0.195227 0.056309074 -0.077836946
0.195227 -0.28196937 -0.06584616
0.195227 -0.26356435 -0.068544552
0.195227 -0.25503302 -0.060950495
0.19522698 -0.24618725 -0.065085381
0.195227 -0.21544406 -0.06808085
0.195227 -0.20745872 -0.066426352
0.195227 -0.19374198 -0.065282792
0.195227 -0.1848011 -0.065579869
0.195227 -0.15236151 -0.062839441
0.195227 -0.14136139 -0.061776496
0.195227 -0.13889201 -0.066401914
0.195227 -0.12504128 -0.06388779
0.195227 -0.1012134 -0.067383714
0.195227 -0.096691467 -0.068471164
0.19522698 -0.065764159 -0.067008965
0.195227 -0.051022582 -0.065935224
0.195227 -0.033646777 -0.060244489
0.195227 -0.026433697 -0.064641178
0.195227 -0.011535113 -0.065664403
0.195227 0.027525451 -0.065116338
0.195227 0.034416225 -0.068350226
0.195227 0.048903465 -0.067388564
0.195227 -0.27886313 -0.054522254
0.195227 -0.26723418 -0.055529669
0.195227 -0.24030451 -0.056052595
0.195227 -0.21463978 -0.056114867
0.195227 -0.19409803 -0.052716844
0.195227 -0.18478662 -0.056526653
0.195227 -0.15823716 -0.058398746
0.195227 -0.14319602 -0.056653559
0.19522701 -0.13401014 -0.050234657
0.195227 -0.12830389 -0.05610504
0.195227 -0.10670766 -0.055221472
0.19522698 -0.084590994 -0.055378769
0.195227 -0.072465643 -0.059550993
0.195227 -0.064264439 -0.059617613
0.195227 -0.057426967 -0.051658526
0.19522698 -0.042646646 -0.054620821
0.195227 -0.031108879 -0.054828156
0.195227 -0.025608391 -0.052782562
0.195227 -0.012435805 -0.052343883
0.195227 -0.0039204811 -0.052248582
0.195227 0.0046184002 -0.05611432
0.195227 0.013086252 -0.05407222
0.195227 0.022485776 -0.052801803
0.195227 0.043195158 -0.054801576
0.195227 -0.28156289 -0.043825798
0.19522698 -0.27461788 -0.041994538
0.195227 -0.26710433 -0.045951273
0.195227 -0.24903676 -0.044320893
0.195227 -0.22082457 -0.042631142
0.195227 -0.21495155 -0.043372478
0.195227 -0.20825663 -0.044258799
0.19522698 -0.19378616 -0.044138715
0.195227 -0.18870622 -0.041034911
0.19522698 -0.14501815 -0.044354584
0.195227 -0.13388856 -0.049604267
0.19522698 -0.085611932 -0.044578861
0.195227 -0.025967456 -0.043845445
0.195227 -0.018123031 -0.045348097
0.195227 -0.0048558726 -0.046740159
0.195227 0.032143831 -0.040009253
0.195227 0.042853735 -0.046715338
0.195227 0.068915725 -0.046657756
0.195227 -0.28332588 -0.032889597
0.195227 -0.27554354 -0.033832625
0.195227 -0.19441399 -0.037440848
0.195227 -0.16355133 -0.038140662
0.195227 -0.15919513 -0.034042962
0.195227 -0.14479318 -0.033280849
0.195227 -0.10435557 -0.037600469
0.195227 -0.091743872 -0.038283359
0.195227 -0.0576239 -0.030120958
0.195227 -0.043942403 -0.03453875
0.195227 -0.025374696 -0.030659538
0.19522698 -0.013195582 -0.034624919
0.195227 -0.0056668245 -0.035478055
0.195227 0.006802985 -0.033234436
0.19522698 0.016917042 -0.034012098
0.195227 0.022135273 -0.035801288
0.195227 0.031127386 -0.032906629
0.195227 0.041023932 -0.032568101
0.195227 0.069057927 -0.030871611
0.195227 0.071856804 -0.03534247
0.195227 -0.29440111 -0.025466776
0.195227 -0.28274548 -0.029650003
0.195227 -0.26366687 -0.025329188
0.195227 -0.24211814 -0.026566919
0.195227 -0.23660216 -0.022261579
0.19522698 -0.22476329 -0.025576966
0.195227 -0.21518007 -0.026974097
0.195227 -0.19334316 -0.029719658
0.195227 -0.18583345 -0.026066132
0.195227 -0.17435452 -0.023576379
0.195227 -0.15486431 -0.027629863
0.19522698 -0.14372917 -0.026353044
0.195227 -0.10076563 -0.026609555
0.195227 -0.098531246 -0.022268571
0.195227 -0.087967545 -0.029724546
0.195227 -0.068405896 -0.02510697
0.195227 -0.055875696 -0.021403797
0.19522698 -0.04721738 -0.024130246
0.195227 -0.03568764 -0.026904212
0.195227 -0.022184171 -0.025665134
0.195227 -0.01453062 -0.024241596
0.195227 -0.0048788013 -0.021391001
0.195227 0.025691677 -0.021715887
0.195227 0.035942398 -0.022163926
0.195227 0.044065688 -0.025165703
0.195227 0.071346849 -0.024097253
0.195227 -0.29392833 -0.018735224
0.195227 -0.28805092 -0.016556503
0.195227 -0.2745229 -0.015060913
0.195227 -0.25864115 -0.015957121
0.195227 -0.24976164 -0.010876115
0.195227 -0.23397288 -0.010956459
0.195227 -0.22777322 -0.012373861
0.195227 -0.19527593 -0.018479537
0.195227 -0.17141917 -0.011577748
0.195227 -0.15135986 -0.012431065
0.195227 -0.12216847 -0.01642574
0.195227 -0.11699867 -0.01430919
0.195227 -0.092769995 -0.011900149
0.195227 -0.085928872 -0.013945486
0.195227 -0.072254732 -0.011051686
0.195227 -0.068068169 -0.016727425
0.195227 0.0046658693 -0.010849648
0.195227 0.044121057 -0.016923457
0.195227 0.050452422 -0.01124892
0.19522698 -0.28252992 -0.0066329171
0.195227 -0.27974251 -0.0075287316
0.195227 -0.26442343 -0.0092568584
0.195227 -0.2552084 -0.0051264549
0.195227 -0.23540576 -0.008598634
0.195227 -0.21390896 -0.0055395775
0.195227 -0.2002943 -0.0034656059
0.195227 -0.19327976 -0.0091767963
0.195227 -0.18767178 -0.0037112851
0.195227 -0.17460585 -0.0076005161
0.195227 -0.1649794 -0.004058579
0.195227 -0.12663406 -0.0051969476
0.195227 -0.1154418 -0.0078359973
0.195227 -0.094565779 -0.0030068085
0.195227 -0.064478457 -0.0019151308
0.19522698 -0.053823393 -0.0079438267
0.195227 -0.03933771 -0.0067962352
0.195227 -0.0034354536 -0.0022638626
0.19522698 0.0046139401 -0.0059521608
0.19522698 0.014396661 -0.0069612651
0.195227 0.027583908 -0.0022699665
0.195227 0.049620677 -0.0057542264
0.195227 0.052912023 -0.0041331802
0.195227 0.064749345 -0.0037518367
0.195227 0.073214635 -0.0010516129
0.195227 -0.29542068 0.0010452706
0.195227 -0.25823379 0.0083416738
0.195227 -0.23174174 0.0011510178
0.195227 -0.22000591 0.0024694242
0.195227 -0.21460719 0.00512705
0.195227 -0.20830801 0.00026882393
0.195227 -0.18066427 0.0051495805
0.195227 -0.17844668 0.0019973554
0.195227 -0.16659044 0.00043930672
0.195227 -0.15704338 0.0031855479
0.195227 -0.1178804 7.6225027e-05
0.195227 -0.10304847 0.0034192847
0.19522698 -0.08452668 0.0048703128
0.195227 -0.062473044 0.004936317
0.195227 -0.040572528 0.00049898401
0.195227 -0.037629239 0.0025508925
0.195227 -0.016761618 0.0093612634
0.195227 -0.0045977538 0.0046134423
0.195227 0.0078895949 0.0093219485
0.195227 0.012474451 0.0058670752
0.195227 0.033879463 0.0042995042
0.195227 0.044065583 0.0059299152
0.195227 -0.29483157 0.016062614
0.195227 -0.26191652 0.011766421
0.195227 -0.24873877 0.015793346
0.195227 -0.23613268 0.012112483
0.195227 -0.21699235 0.01677835
0.195227 -0.2058441 0.013327129
0.195227 -0.19342242 0.014497602
0.195227 -0.17303604 0.014079556
0.195227 -0.16583775 0.016712707
0.195227 -0.15504234 0.012670375
0.195227 -0.13202983 0.012179606
0.195227 -0.12934662 0.017142761
0.195227 -0.11805055 0.019984936
0.195227 -0.10276899 0.018427519
0.195227 -0.080942623 0.015487771
0.195227 -0.024592157 0.014202867
0.195227 -0.015752783 0.01341448
0.195227 0.019454578 0.017323256
0.195227 0.022125203 0.015885651
0.195227 0.074135177 0.017538477
0.195227 -0.27379701 0.024401212
0.195227 -0.25921494 0.025043096
0.195227 -0.24410589 0.023679424
0.195227 -0.23737773 0.023793846
0.195227 -0.22133791 0.029118795
0.195227 -0.19352201 0.021961272
0.195227 -0.18365258 0.024589557
0.195227 -0.17960569 0.026181137
0.195227 -0.16360736 0.027941918
0.195227 -0.15498187 0.024151344
0.195227 -0.13322663 0.022865064
0.195227 -0.094769657 0.025566669
0.195227 -0.081729367 0.023246001
0.195227 -0.074635282 0.022727262
0.195227 -0.067012295 0.02473739
0.195227 -0.01638742 0.021303676
0.195227 -0.0040760008 0.024340441
0.195227 0.044018652 0.023488494
0.195227 0.054682888 0.021282051
0.195227 -0.28443408 0.033257768
0.195227 -0.27390072 0.031245567
0.195227 -0.22877391 0.03023218
0.195227 -0.21012412 0.034817439
0.195227 -0.19823739 0.039463442
0.195227 -0.17558697 0.033118531
0.195227 -0.16949162 0.03658966
0.195227 -0.15494235 0.035657905
0.195227 -0.094387442 0.034446344
0.195227 -0.072218016 0.039275467
0.195227 -0.059788667 0.031330101
0.195227 -0.035248291 0.034906443
0.195227 -0.026897367 0.032601357
0.195227 -0.0064571584 0.03793494
0.19522698 0.0064096488 0.035063982
0.195227 0.015553894 0.035157003
0.195227 0.024569172 0.035299748
0.195227 0.03521952 0.035048179
0.195227 0.04036656 0.032970335
0.195227 0.071101084 0.036314365
0.195227 -0.28631163 0.042140935
0.19522698 -0.27744111 0.046698999
0.195227 -0.24098024 0.049073741
0.195227 -0.21310763 0.043697782
0.195227 -0.20517144 0.048740506
0.195227 -0.19779705 0.049557664
0.195227 -0.18106857 0.040855393
0.195227 -0.17482014 0.042894207
0.195227 -0.16795501 0.040331256
0.195227 -0.15891744 0.042962708
0.19522698 -0.13127695 0.04284434
0.195227 -0.12503019 0.045742203
0.195227 -0.098844461 0.046445012
0.195227 -0.0837631 0.048789792
0.195227 -0.074548304 0.040983319
0.195227 -0.051598117 0.049462695
0.195227 -0.026465455 0.041577045
0.195227 -0.013645477 0.049541827
0.195227 -0.0083468352 0.045885287
0.19522698 0.0055191587 0.041920524
0.195227 0.01086885 0.045364566
0.195227 0.036947735 0.04703927
0.195227 0.046417292 0.042316169
0.195227 0.063002214 0.042016108
0.195227 -0.28489602 0.054542117
0.195227 -0.27436018 0.059009414
0.195227 -0.26026133 0.05369078
0.195227 -0.2552788 0.050236896
0.195227 -0.24498026 0.052157879
0.195227 -0.23929355 0.059237145
0.195227 -0.2288949 0.057676278
0.19522698 -0.21554403 0.056219056
0.195227 -0.18596205 0.051583007
0.195227 -0.17510569 0.057098042
0.195227 -0.16581059 0.054559823
0.195227 -0.15642884 0.057474833
0.195227 -0.11114715 0.050741937
0.195227 -0.10433481 0.054902684
0.195227 -0.097841933 0.051650837
0.195227 -0.073893316 0.053870954
0.195227 -0.051400766 0.050774876
0.195227 -0.030963721 0.050619796
0.195227 -0.025049122 0.055561148
0.195227 -0.014979078 0.056407738
0.195227 -0.009614829 0.059920263
0.195227 0.0052072671 0.059178367
0.195227 0.019089343 0.054110885
0.195227 0.02908179 0.050380304
0.195227 0.047955304 0.054436501
0.195227 -0.28120825 0.062409218
0.195227 -0.27479911 0.066344082
0.195227 -0.25425544 0.067255385
0.195227 -0.242688 0.065385625
0.195227 -0.22640283 0.062849805
0.195227 -0.21904175 0.063776918
0.195227 -0.20651549 0.060773171
0.195227 -0.19764856 0.060449291
0.195227 -0.18505758 0.062704325
0.195227 -0.14467922 0.064859085
0.19522698 -0.13346933 0.066681765
0.195227 -0.10668746 0.061997026
0.195227 -0.095147505 0.063407511
0.195227 -0.082073033 0.06394352
0.195227 -0.073334679 0.062714696
0.195227 -0.050494082 0.065695941
0.195227 -0.012130979 0.061027851
0.195227 0.0051865666 0.063488051
0.195227 0.03318166 0.066341758
0.195227 0.044478729 0.060050987
0.195227 0.053702373 0.06829375
0.195227 -0.28060579 0.076459602
0.195227 -0.27803817 0.079175271
0.195227 -0.24512216 0.079549372
0.195227 -0.22713491 0.078173056
0.195227 -0.21164607 0.078184463
0.195227 -0.17492072 0.071462952
0.195227 -0.16135523 0.07425528
0.19522698 -0.14489371 0.076773725
0.195227 -0.12349617 0.077226222
0.195227 -0.099466912 0.071461946
0.19522698 -0.061701726 0.074892938
0.19522698 -0.055820268 0.07486511
0.195227 -0.043678571 0.071847983
0.195227 -0.039812524 0.078708261
0.195227 -0.022592904 0.073361017
0.195227 -0.019059062 0.075446561
0.195227 0.0061318707 0.071921758
0.195227 0.020522024 0.073965043
0.19522698 0.04642247 0.075042255
0.195227 0.052935302 0.073756091
0.195227 -0.26278678 0.08225704
0.195227 -0.2491686 0.088749841
0.195227 -0.23022451 0.088925906
0.195227 -0.22489697 0.081072412
0.195227 -0.2109298 0.084885247
0.195227 -0.17272711 0.082835406
0.195227 -0.16361204 0.089744046
0.195227 -0.15774669 0.08096496
0.195227 -0.13995461 0.083698027
0.195227 -0.12654075 0.085516796
0.195227 -0.11381742 0.084517136
0.195227 -0.10412088 0.088386416
0.195227 -0.062033154 0.086140625
0.195227 -0.050749414 0.082902439
0.195227 -0.046327613 0.084527537
0.195227 -0.037736628 0.083743386
0.19522698 -0.026993722 0.086366855
0.195227 -0.017385054 0.08619754
0.195227 -0.0031645 0.085731655
0.195227 0.0031978092 0.088816449
0.195227 0.028080251 0.086311534
0.195227 -0.22916056 0.094428517
0.195227 -0.20991443 0.096372649
0.195227 -0.19507861 0.095322631
0.195227 -0.18698171 0.09485767
0.195227 -0.134882 0.098877639
0.195227 -0.1214518 0.09524031
0.195227 -0.10437634 0.09968546
0.195227 -0.062053036 0.09747839
0.195227 -0.051075462 0.098116212
0.195227 -0.047306173 0.091611594
0.195227 -0.014724448 0.094173938
0.195227 -0.0085567962 0.098415323
0.195227 0.0038518072 0.096405171
0.195227 0.03371983 0.09718895
0.195227 0.050333243 0.096384339
0.195227 -0.22862291 0.10700203
0.195227 -0.21156679 0.10755197
0.195227 -0.19494133 0.10308549
0.195227 -0.17522344 0.10416843
0.195227 -0.16425341 0.10966173
0.19522698 -0.1315804 0.10026854
0.195227 -0.12761146 0.10418876
0.195227 -0.11496854 0.10621622
0.195227 -0.10485242 0.10132811
0.195227 -0.09961465 0.1019038
0.195227 -0.075050518 0.10529447
0.195227 -0.05458609 0.10080113
0.195227 -0.045706235 0.10815086
0.195227 -0.034419116 0.10506003
0.195227 -0.026085563 0.10163631
0.195227 -0.014803628 0.10300433
0.195227 -0.0062108557 0.10767137
0.195227 0.0239104 0.10262116
0.195227 0.033083133 0.1063905
0.19522701 0.0447345 0.10494611
0.195227 -0.25643852 0.11520184
0.195227 -0.22345132 0.11491261
0.195227 -0.21376079 0.11548904
0.195227 -0.19009733 0.11329123
0.195227 -0.18522282 0.11806331
0.195227 -0.16249445 0.11500458
0.19522698 -0.14193337 0.11232535
0.195227 -0.13513175 0.11825081
0.195227 -0.11099181 0.11159371
0.195227 -0.081288427 0.11473793
0.195227 -0.078122593 0.11939399
0.195227 -0.064312711 0.11470725
0.195227 -0.02102218 0.11518183
0.195227 -0.018705394 0.11809255
0.195227 0.017851077 0.11736779
0.195227 0.0240795 0.11559063
0.195227 0.034878049 0.11003408
0.195227 -0.23459151 0.12782578
0.195227 -0.22578545 0.1284465
0.195227 -0.21706894 0.12436754
0.195227 -0.20173296 0.12571603
0.19522698 -0.18677294 0.1272908
0.195227 -0.17760563 0.12643391
0.19522698 -0.15516911 0.12397934
0.195227 -0.14209917 0.12941973
0.195227 -0.12718 0.1262811
0.195227 -0.11468601 0.12526333
0.195227 -0.10195766 0.12289935
0.195227 -0.091721378 0.1270602
0.195227 -0.086289451 0.12568347
0.195227 -0.0793304 0.12756488
0.195227 -0.061145287 0.12544982
0.195227 -0.054957345 0.1208294
0.195227 -0.025913265 0.1287325
0.195227 -0.015428936 0.12746556
0.195227 -0.0032216043 0.1296694
0.195227 0.015910227 0.12551373
0.195227 0.020256942 0.12990451
0.195227 -0.22011225 0.13274708
0.195227 -0.20375627 0.13469456
0.195227 -0.18517156 0.13655469
0.19522698 -0.1623431 0.13543041
0.19522698 -0.1355903 0.13152188
0.195227 -0.12546045 0.13017097
0.195227 -0.10670463 0.13851106
0.195227 -0.094966382 0.13637161
0.195227 -0.085751787 0.1336062
0.195227 -0.07242322 0.13281691
0.195227 -0.061962325 0.1323835
0.195227 -0.058582675 0.13718602
0.195227 -0.037764374 0.13579574
0.195227 -0.024997599 0.13118966
0.195227 -0.22674879 0.14568248
0.195227 -0.2111302 0.14839125
0.195227 -0.20432422 0.14409474
0.195227 -0.19386294 0.14280003
0.195227 -0.1725508 0.14201133
0.195227 -0.16159976 0.14827132
0.195227 -0.14482942 0.14728868
0.19522698 -0.12853965 0.14394259
0.195227 -0.1133523 0.14856569
0.195227 -0.09619768 0.14132331
0.195227 -0.0545201 0.14897382
0.195227 -0.042451851 0.14101329
0.195227 -0.037047766 0.14364573
0.195227 -0.20197251 0.15830439
0.195227 -0.19564475 0.15231919
0.195227 -0.18823034 0.15561393
0.195227 -0.17700057 0.15679361
0.195227 -0.14860494 0.15706962
0.195227 -0.12708688 0.15446217
0.19522698 -0.10603207 0.15516685
0.19522698 -0.092650749 0.15542674
0.195227 -0.084942862 0.15676548
0.19522698 -0.06638708 0.15623106
0.195227 -0.044594407 0.15684003
0.19522698 -0.036005732 0.1535459
0.195227 -0.028571306 0.15344401
0.195227 -0.017698156 0.15331283
0.195227 -0.18854629 0.16294184
0.195227 -0.12395635 0.16467136
0.19522698 -0.11737676 0.16690767
0.19522698 -0.10472807 0.16532427
0.195227 -0.074149013 0.16576576
0.19522698 -0.051733818 0.16687828
0.195227 -0.16580226 0.17465368
0.195227 -0.15343219 0.17615238
0.195227 -0.14479887 0.17112809
0.195227 -0.12976238 0.17335701
0.195227 -0.11802538 0.17728116
0.195227 -0.088200368 0.17587796
0.195227 -0.072086044 0.17574389
0.195227 -0.066101581 0.17027351
0.195227 -0.051369797 0.17746431
0.195227 -0.15467276 0.18246639
0.19522698 -0.10677416 0.18457402
0.195227 -0.082785338 0.18066764
