# .PCD v0.7 - Point Cloud Data file format
VERSION 0.7
FIELDS x y z
SIZE 4 4 4
TYPE F F F
COUNT 1 1 1
WIDTH 977
HEIGHT 1
VIEWPOINT 0 0 0 1 0 0 0
POINTS 977
DATA ascii
-0.32796201 -0.27556887 -0.25687075
0.036879912 -0.27322659 -0.25787199
0.08664228 -0.26946867 -0.25787199
0.1240319 -0.26009339 -0.25787199
0.268518 -0.26063395 -0.25565723
0.15340796 -0.25576383 -0.25787199
0.22840579 -0.24559273 -0.25787199
-0.306716 -0.23668413 -0.25212911
-0.13337065 -0.23028386 -0.25787199
-0.096586376 -0.23030907 -0.25787199
0.18678205 -0.22739321 -0.25787199
0.268518 -0.22031794 -0.25543809
-0.076385669 -0.21321072 -0.25787199
-0.0088222921 -0.21480125 -0.25787199
0.10992637 -0.21153569 -0.25787199
-0.24007362 -0.20960571 -0.25787199
-0.076618828 -0.20073162 -0.25787199
-0.2602171 -0.19727211 -0.25787199
0.17019342 -0.19327474 -0.25787199
-0.31700206 -0.18296593 -0.25787199
-0.2146344 -0.18451819 -0.25787199
-0.11353163 -0.18943386 -0.25787199
0.23350288 -0.17289291 -0.25787199
0.268518 -0.16074991 -0.25130996
-0.30924326 -0.15844728 -0.25787199
-0.29169428 -0.15309182 -0.25787199
0.00092574954 -0.15869859 -0.25787199
0.041523043 -0.15255684 -0.25787199
-0.32796198 -0.14804238 -0.25615138
-0.16777654 -0.14749621 -0.25787199
-0.07176438 -0.14408781 -0.25787199
-0.011749774 -0.14151311 -0.25787199
-0.13614152 -0.13674906 -0.25787199
0.25334591 -0.13166003 -0.25787199
0.2358201 -0.12937458 -0.25787199
-0.27054939 -0.10146526 -0.25787199
0.0042075068 -0.10333756 -0.25787199
-0.27053809 -0.094498821 -0.25787199
-0.15232478 -0.096087202 -0.25787199
-0.3077327 -0.081331931 -0.25787199
0.26517737 -0.082447842 -0.25706863
-0.11594994 -0.070930116 -0.25787199
-0.10064206 -0.071379349 -0.25787199
-0.047917649 -0.072972156 -0.25787199
0.2166255 -0.071895957 -0.25787199
0.23408422 -0.071982525 -0.25787199
-0.16018783 -0.068168074 -0.25787199
-0.017703444 -0.063502871 -0.25787199
-0.30837554 -0.055407152 -0.25787199
-0.12879798 -0.057462983 -0.25787199
-0.031242952 -0.058592089 -0.25787199
-0.00098201632 -0.052175634 -0.25787199
0.053498507 -0.051263556 -0.25787199
0.23276308 -0.053940833 -0.25787199
-0.23863968 -0.046902023 -0.25787199
-0.19706106 -0.037323095 -0.25787199
-0.055722624 -0.033436544 -0.25787199
0.07537353 -0.033531073 -0.25787199
-0.24986422 -0.025595129 -0.25787199
-0.29616427 -0.012004629 -0.25787199
-0.27466714 -0.013689853 -0.25787199
-0.21479787 -0.019790173 -0.25787199
-0.12719582 -0.018917792 -0.25787199
0.10905302 -0.014441937 -0.25787199
-0.17457023 -0.0056503564 -0.25787199
-0.13844812 -0.0023224764 -0.25787199
-0.0064425766 -0.005645413 -0.25787199
0.24203025 -0.0041537508 -0.25787199
-0.094563305 0.0014023632 -0.25787199
-0.01169124 0.0030759543 -0.25787199
0.16129205 0.005172424 -0.25787199
-0.25169608 0.01691591 -0.25787199
-0.092448041 0.014225263 -0.25787199
-0.043692894 0.013836242 -0.25787199
-0.03772869 0.013815761 -0.25787199
0.025421605 0.015416346 -0.25787199
-0.090095788 0.021939419 -0.25787199
0.013721853 0.022343084 -0.25787199
-0.21498528 0.036957599 -0.25787199
0.26639768 0.036200125 -0.25787199
-0.19026858 0.051361546 -0.25787199
-0.15514447 0.058397062 -0.25787199
-0.20829189 0.066200301 -0.25787199
-0.18421982 0.06483566 -0.25787199
0.037265353 0.06309963 -0.25787199
0.25584644 0.063943245 -0.25787199
-0.27336407 0.075986035 -0.25787199
-0.22090209 0.073911808 -0.25787199
-0.0095885582 0.073396206 -0.25787199
-0.18498212 0.086258307 -0.25787199
0.031098038 0.083416358 -0.25787199
-0.32751381 0.096362129 -0.25787199
-0.025130257 0.09441565 -0.25787199
0.0067934915 0.095818147 -0.25787199
-0.32796198 0.10727059 -0.25212616
-0.25287795 0.10979967 -0.25787199
-0.22943649 0.10029252 -0.25787199
0.01140444 0.10197946 -0.25787199
0.20362739 0.10571914 -0.25787199
-0.31313068 0.11202642 -0.25787199
-0.12843151 0.1174576 -0.25787199
-0.059146322 0.11258737 -0.25787199
0.018100992 0.11234061 -0.25787199
-0.10339194 0.12977991 -0.25787199
-0.059632033 0.12528816 -0.25787199
0.12926072 0.12275691 -0.25787199
-0.23824674 0.13092923 -0.25787199
-0.084171519 0.13263047 -0.25787199
0.059927281 0.13033323 -0.25787199
0.14140284 0.13570027 -0.25787199
0.18945087 0.13750878 -0.25787199
0.23752576 0.13047935 -0.25787199
0.098878168 0.15955371 -0.25787199
0.25095868 0.15183501 -0.25787199
0.2611537 0.15017143 -0.25566998
-0.23196386 0.16231212 -0.25787199
-0.046776205 0.16136275 -0.25787199
-0.09593001 0.18523395 -0.25787199
-0.046015978 0.18128079 -0.25787199
0.1125914 0.18360746 -0.25787199
-0.24225825 0.19040838 -0.25787199
-0.19281657 0.19320498 -0.25787199
-0.15663897 0.19538432 -0.25787199
-0.28759861 0.20479977 -0.25787199
-0.27308962 0.2095744 -0.25787199
-0.26739073 0.20919323 -0.25787199
-0.13061827 0.20242088 -0.25787199
0.13457933 0.20508675 -0.25787199
-0.21403264 0.21851473 -0.25787199
-0.069722787 0.21749812 -0.25787199
-0.23135486 0.22013339 -0.25787199
0.12223575 0.22045764 -0.25787199
0.18863909 0.22567202 -0.25787199
-0.3250033 0.23099604 -0.25787199
-0.1617735 0.23129064 -0.25787199
0.15807056 0.23240906 -0.25787199
0.17370759 0.23018737 -0.25787199
0.23596402 0.23995104 -0.25787199
0.21096189 0.244674 -0.25787199
-0.11086275 0.25167859 -0.25787199
0.017503215 0.25299549 -0.25787199
0.14515439 0.25609899 -0.25787199
0.28352302 0.25438321 -0.25787199
-0.19273439 0.26803491 -0.25787199
-0.0053938776 0.26088363 -0.25787199
0.060483918 0.26162225 -0.25787199
0.16080396 0.26817477 -0.25787199
0.21995868 0.26168752 -0.25787199
0.28629515 0.26319712 -0.25787199
-0.0076838285 0.27485985 -0.25787199
-0.3246572 -0.27557701 -0.24929357
-0.2475172 -0.27557701 -0.24777077
-0.09040042 -0.27557701 -0.24879426
0.268518 -0.25358862 -0.24708089
0.268518 -0.22561313 -0.24979973
0.28449923 -0.2235994 -0.24406201
0.27722692 -0.21887356 -0.24406201
0.2720378 -0.20373537 -0.24406201
0.26857838 -0.18928505 -0.24406201
0.27202794 -0.17762926 -0.24406201
0.268518 -0.140672 -0.24851434
0.268518 -0.040983059 -0.2471481
0.29037264 0.15279157 -0.24406201
0.28540367 0.18028304 -0.24406201
0.30627084 0.21728468 -0.24406199
0.2895287 0.24052101 -0.2429558
0.29270288 0.240521 -0.24599369
0.017609492 0.27557701 -0.24669424
0.035873547 0.27557701 -0.24904983
-0.28032461 -0.27557701 -0.23497383
-0.13520029 -0.27557701 -0.23897284
0.069123358 -0.27557701 -0.23522982
0.13831282 -0.27557701 -0.23444727
0.17829528 -0.27557701 -0.23482026
-0.32796201 -0.26269606 -0.23792703
0.26759651 -0.22230366 -0.2339993
0.26707941 -0.19240834 -0.23249331
0.29184297 -0.19036329 -0.23221655
0.291843 -0.18662632 -0.23573522
-0.32796201 -0.16501135 -0.23203279
0.291843 -0.13114667 -0.237019
0.26409227 -0.019715011 -0.23206504
0.268518 0.0010878816 -0.2397185
-0.306716 0.18481244 -0.23427096
0.25984201 0.22688708 -0.23601583
-0.046943571 0.27557701 -0.23479339
0.067396775 0.27557701 -0.23904696
-0.21417479 -0.27557701 -0.22192556
-0.083152927 -0.27557701 -0.22547704
-0.05659603 -0.27557701 -0.22496241
0.07792531 -0.27557701 -0.22280923
-0.32655641 -0.21289003 -0.22876599
-0.30840212 -0.11768475 -0.22876599
0.291843 -0.10891806 -0.22473636
0.268518 0.016733773 -0.22827323
0.268518 0.060959704 -0.22725147
-0.32454407 0.14041325 -0.22876599
-0.31958663 0.14372517 -0.22876599
-0.31997404 0.16505671 -0.22876599
-0.31073684 0.18036902 -0.22876599
0.26446956 0.19375876 -0.22513744
-0.31444231 0.2116947 -0.22876599
-0.22980879 0.27557701 -0.2297172
-0.13235119 0.27557701 -0.22291288
0.20636719 0.27557701 -0.22406571
0.2777223 0.27014327 -0.22646189
-0.30977419 -0.27557701 -0.21857364
-0.14336924 -0.27557701 -0.21938115
-0.32650203 -0.25136101 -0.21000248
0.268518 -0.20910338 -0.21660264
-0.306716 -0.12254241 -0.21269742
0.291843 -0.11231509 -0.21119128
0.26552776 -0.10270514 -0.21810198
-0.306716 -0.036373928 -0.21348731
0.291843 -0.032470033 -0.21123393
-0.306716 0.035434715 -0.21662752
0.268518 0.069710881 -0.21544063
-0.306716 0.082077973 -0.21384162
0.268518 0.18586378 -0.21129286
-0.306716 0.22507954 -0.21434361
0.30698451 0.22600301 -0.21081692
0.30121908 0.24052098 -0.21680659
-0.26248747 0.27557701 -0.21563771
-0.15106761 0.27557701 -0.21041043
-0.088482924 0.27557701 -0.21109074
-0.16134638 -0.27557701 -0.20622694
-0.306716 -0.18676449 -0.20401509
-0.306716 -0.16556332 -0.20978327
0.291843 -0.16504344 -0.20493396
0.26851797 -0.060092092 -0.20513612
0.26354688 0.011815511 -0.20901474
0.291843 0.032754648 -0.20788193
0.291843 0.12149838 -0.20867191
-0.306716 0.23266591 -0.20473751
-0.30671597 0.24282914 -0.20940779
0.085932642 0.27557701 -0.20789795
0.098461628 0.27557701 -0.20110005
0.19804642 0.27557701 -0.20866925
-0.032354951 -0.27557701 -0.19527084
0.21369834 -0.27557701 -0.19087079
0.268518 -0.1469391 -0.19394219
-0.306716 -0.084282704 -0.19922221
0.291843 -0.066845395 -0.19685665
0.291843 0.032786757 -0.1952554
-0.306716 0.10265838 -0.19133843
0.291843 0.1151607 -0.19082436
0.268518 0.13128336 -0.19456998
0.268518 0.15905036 -0.19039313
0.28904101 0.22600301 -0.19709772
0.26692724 0.240521 -0.19949669
-0.28922176 0.27557701 -0.19763821
-0.026675008 0.27557701 -0.19765604
0.26768026 0.27364278 -0.19691344
-0.29889098 -0.27557701 -0.18855053
-0.209511 -0.27557701 -0.18674433
0.268518 -0.18017586 -0.1899215
0.291843 -0.18218802 -0.1808348
0.26631093 -0.14797996 -0.18544558
0.268518 -0.075267732 -0.18077597
0.291843 0.014689226 -0.18952087
0.26216364 0.091784135 -0.18560989
0.291843 0.13949378 -0.18501621
-0.306716 0.15760055 -0.18498665
0.268518 0.17064674 -0.18931429
0.318755 0.17493251 -0.18342674
0.31344301 0.206214 -0.18264112
0.26203376 0.25697252 -0.18569309
-0.19725165 0.27557701 -0.18748206
-0.31775957 -0.27557701 -0.17537326
-0.047447205 -0.27557701 -0.17464264
0.26845902 -0.27216718 -0.17714849
0.268518 -0.15502997 -0.17059246
0.291843 -0.1478667 -0.17280632
0.2654359 -0.097393848 -0.17181952
0.26407629 -0.018790118 -0.1752893
0.291843 0.040313352 -0.17620435
0.26275066 0.22600301 -0.17438759
-0.32796201 0.25390285 -0.17699285
0.040860366 0.27557701 -0.17460188
-0.23071437 -0.27557701 -0.1652658
-0.10246391 -0.27557701 -0.16061756
-0.069159575 -0.27557701 -0.16878408
0.0072758943 -0.27557701 -0.16819918
0.268518 -0.26967534 -0.16006216
0.26734722 -0.20789039 -0.16298479
0.268518 -0.16939652 -0.16226721
0.268518 -0.14208214 -0.16791764
0.268518 0.057702094 -0.16284695
0.291843 0.052902821 -0.16881713
-0.306716 0.077265203 -0.16501999
-0.306716 0.097771794 -0.1629433
0.29413745 0.22600301 -0.16603622
-0.25866976 0.27557701 -0.16710126
0.019849189 0.27557701 -0.16419074
-0.17624602 -0.27557701 -0.15515068
-0.16816844 -0.27557701 -0.15810916
0.0095435828 -0.27557701 -0.15125066
0.268518 -0.27260944 -0.15745643
-0.306716 -0.19039296 -0.15326944
-0.306716 -0.14555402 -0.1504052
-0.306716 -0.12831454 -0.1575525
0.268518 0.0078287572 -0.15796781
0.2619493 0.10417554 -0.15865763
0.291843 0.12543853 -0.15974845
0.268518 0.22422904 -0.15531626
0.31344301 0.24570423 -0.15411755
0.049702972 0.27557701 -0.15879998
0.12737714 0.27557701 -0.15550429
0.1556042 0.27557701 -0.15183094
0.268518 -0.2678476 -0.14963987
0.291843 -0.21169814 -0.14736968
-0.306716 -0.091929518 -0.14997202
0.268518 0.074630857 -0.14057253
-0.306716 0.12168755 -0.14993176
0.291843 0.12756579 -0.14820915
0.31344301 0.15265778 -0.14607337
-0.306716 0.23565553 -0.14758751
0.31329849 0.25769499 -0.14747015
0.23584044 0.27557701 -0.14523301
-0.23058408 -0.27557701 -0.13695292
0.013842307 -0.27557701 -0.1319254
0.21389414 -0.27557701 -0.13836336
-0.32796201 -0.26078552 -0.13547841
0.291843 -0.11854105 -0.13701628
-0.306716 -0.046706021 -0.135931
-0.306716 0.034933958 -0.13555898
-0.037722215 0.27557701 -0.13484991
0.059141144 0.27557701 -0.136686
0.062272862 0.27557701 -0.13258654
0.16213971 0.27557701 -0.13283533
-0.2303187 -0.27557701 -0.12118682
0.097378716 -0.27557701 -0.12081477
0.12268005 -0.27557701 -0.12860821
0.26777095 -0.23238873 -0.12768206
0.26578268 -0.11744194 -0.12243062
-0.306716 -0.078381181 -0.12684558
0.268518 0.014718391 -0.12917227
0.26105744 0.1557354 -0.125406
-0.306716 0.17373508 -0.1223853
0.31344301 0.19087934 -0.12347981
0.28767562 0.24052101 -0.12375701
0.31104031 0.25769499 -0.12756735
-0.15816836 0.27557701 -0.12065238
-0.14054719 0.27557701 -0.12663972
-0.050669633 0.27557701 -0.12552124
-0.23782966 -0.27557701 -0.11851776
-0.16542351 -0.27557701 -0.11826561
-0.15332183 -0.27557701 -0.11595885
-0.071621828 -0.27557701 -0.11824597
-0.069407515 -0.27557701 -0.1180594
0.23871669 -0.27557701 -0.1137485
-0.31412604 -0.25136101 -0.11634105
0.26574033 -0.11499346 -0.11432815
0.291843 -0.012988083 -0.11018631
0.26380593 -0.003159374 -0.11262883
-0.306716 0.020696666 -0.11923048
-0.306716 0.1172829 -0.11191326
0.268518 0.11024182 -0.11464804
0.268518 0.16918351 -0.117411
0.31344301 0.16356823 -0.11406804
-0.31049573 0.18536016 -0.11221916
0.31344301 0.19849223 -0.11288249
0.2600067 0.21648076 -0.11383047
-0.32796201 0.23579565 -0.11773908
-0.30816811 0.25769499 -0.1163374
-0.19594258 0.27557701 -0.11495882
-0.32078776 -0.27557701 -0.10532382
-0.1961876 -0.27557701 -0.10194992
0.13051638 -0.27557701 -0.10880031
-0.306716 -0.25107989 -0.10731173
0.26811227 -0.25212038 -0.10013831
0.26750264 -0.21687612 -0.10234774
0.291843 -0.20508042 -0.10281449
0.291843 -0.16503486 -0.10490417
0.268518 -0.13498321 -0.10134593
0.268518 -0.013615429 -0.10534632
0.268518 -0.0089637674 -0.10614625
0.291843 0.040839333 -0.10702585
0.26270372 0.060561284 -0.10785973
0.2621716 0.091325015 -0.10279433
0.31344301 0.15964124 -0.10057203
0.26510802 0.240521 -0.10091215
-0.24835765 0.27557701 -0.10745508
-0.14397055 0.27557701 -0.10663508
-0.1001954 0.27557701 -0.10882294
-0.32796201 -0.27198678 -0.091276892
-0.077428237 -0.27557701 -0.093944065
0.21334308 -0.27557701 -0.09027946
0.23823676 -0.27557701 -0.098475598
0.268518 -0.12926 -0.093361296
0.26339877 0.020379491 -0.098105758
0.268518 0.10437885 -0.092470013
0.268518 0.11259955 -0.097831115
0.26044381 0.19121118 -0.092089951
0.31344301 0.21313152 -0.095968947
-0.20087507 -0.27557701 -0.083912902
-0.306716 -0.20262033 -0.089572929
0.268518 -0.17109063 -0.085806772
0.291843 -0.14527668 -0.082252972
0.26595962 -0.12767045 -0.089436963
0.268518 0.058736164 -0.086656168
-0.306716 0.082943678 -0.086077563
0.26211366 0.094673805 -0.084477693
-0.306716 0.1168257 -0.087298065
0.268518 0.20601803 -0.086539745
-0.20741445 0.27557701 -0.089368939
-0.068753853 0.27557701 -0.084729813
-0.24695989 -0.27557701 -0.074463658
-0.085846595 -0.27557701 -0.078290373
0.268518 -0.23143455 -0.079507627
-0.306716 -0.083661839 -0.075971797
0.291843 -0.046609186 -0.071686283
0.291843 0.043999203 -0.071120158
0.26851803 0.066786967 -0.076345965
0.26083747 0.16845344 -0.073631197
0.26399797 0.24052101 -0.071852103
-0.217411 0.27557701 -0.073029786
0.23181504 0.27557701 -0.075484432
0.18926585 -0.27557701 -0.062372457
0.26851639 -0.27548516 -0.069649205
0.268518 -0.23114333 -0.067726791
0.26760998 -0.22308223 -0.069856465
-0.306716 -0.21416111 -0.066179991
0.2643809 -0.036401231 -0.06077664
-0.306716 0.043574594 -0.065511271
-0.306716 0.12623727 -0.061453871
-0.306716 0.18832859 -0.060964771
0.31344301 0.18534181 -0.064259306
-0.10300367 0.27557701 -0.067737758
-0.20099689 -0.27557701 -0.053251132
-0.042167269 -0.27557701 -0.05788634
0.268518 -0.24786977 -0.053945728
0.26763394 -0.22446743 -0.051547505
0.26647782 -0.15762913 -0.052694123
-0.306716 -0.10667127 -0.058954261
0.26519889 -0.083692111 -0.055578545
0.26348159 0.015590983 -0.052792702
-0.306716 0.054467559 -0.050484698
0.268518 0.051079497 -0.057630785
0.26266718 0.062672779 -0.052132867
0.26184148 0.11040945 -0.059801694
0.291843 0.13682173 -0.053403363
0.31344301 0.15605426 -0.056306906
-0.3084752 0.1757676 -0.059907909
-0.306716 0.18227476 -0.051746078
0.25984201 0.23985033 -0.059221178
-0.31048116 0.25769499 -0.05804801
-0.21124709 0.27557701 -0.05981335
-0.14030218 0.27557701 -0.054920852
0.18045868 0.27557701 -0.055504948
-0.2912001 -0.27557701 -0.0408668
-0.036591262 -0.27557701 -0.041438282
0.26758569 -0.22167915 -0.044175357
-0.306716 -0.082496814 -0.045358013
0.291843 -0.032073107 -0.042781457
0.26368797 0.0036594868 -0.045317814
0.31344301 0.15500024 -0.041928049
0.268518 0.1931048 -0.049916901
0.268518 0.21082731 -0.049650017
0.31344301 0.21651846 -0.044605933
-0.32150343 0.25769499 -0.043972343
-0.306716 0.2521252 -0.049330138
0.25273779 -0.27557701 -0.038175076
0.26763523 -0.22454156 -0.038524058
-0.306716 -0.19099486 -0.034907926
-0.30671602 -0.020562932 -0.03638339
0.26379892 -0.0027569756 -0.036168933
-0.306716 0.0062626004 -0.034340754
0.268518 0.02784583 -0.033995733
0.268518 0.16642469 -0.034434654
0.26624247 0.24052098 -0.031375829
-0.32796204 0.25652486 -0.031473018
-0.306716 0.27371496 -0.036031693
-0.064529628 0.27557701 -0.036003601
-0.03389205 0.27557701 -0.030831575
0.18216744 0.27557701 -0.037087843
-0.18801135 -0.27557701 -0.023516469
0.26765567 -0.22572407 -0.027632587
0.291843 -0.20065296 -0.022100583
0.26667553 -0.16905901 -0.025528464
-0.306716 -0.11631589 -0.029227559
0.268518 -0.090011768 -0.02516178
0.262844 0.052451693 -0.022137418
0.268518 0.093760952 -0.029279426
0.26176468 0.11484946 -0.021188825
0.26064068 0.17982902 -0.022384487
0.31344301 0.24117142 -0.029285759
0.31344301 0.25639746 -0.028472304
0.20668274 0.27557701 -0.029747404
-0.25856045 -0.27557701 -0.019975573
-0.24051967 -0.27557701 -0.018512845
-0.306716 -0.25197417 -0.013674445
0.26762116 -0.22372928 -0.012258023
0.268518 -0.1766659 -0.018720159
0.26657954 -0.16351107 -0.01945693
0.268518 -0.12716594 -0.01196228
0.291843 -0.091516092 -0.018381409
0.26232964 0.082186528 -0.011145964
0.291843 0.1064083 -0.019316655
-0.2969569 0.27557701 -0.018275127
0.16333883 0.27557701 -0.015630625
0.268518 -0.17650409 -0.0087959617
0.268518 -0.15571135 -0.00026667118
0.26289034 0.049772501 -0.0027601495
0.268518 0.070552655 -0.0098241903
-0.306716 0.12097171 -0.0035818368
0.29896754 0.148684 -0.0066502169
0.25984201 0.23260513 -0.0081374664
-0.306716 0.27379155 -0.0050586388
-0.25262952 0.27557701 -0.003066659
-0.034407932 0.27557701 -0.0018053311
0.15474957 0.27557701 -0.0020140558
0.17108995 0.27557701 -0.006078653
0.059026748 -0.27557701 0.0057137012
0.14078131 -0.27557701 0.0084031299
0.26663417 -0.16666862 0.0051734298
0.291843 -0.05371777 0.0086399987
0.26382411 -0.0042128498 0.0058522969
-0.30671597 0.061226342 0.004464101
0.2621156 0.094561666 0.0034151562
0.2613008 0.14166585 0.0034524724
0.26096502 0.16107816 0.0040432289
0.31344301 0.20654662 0.0089054704
0.26749146 0.24052098 0.0018135756
0.2722055 0.240521 0.0081834942
-0.079348847 0.27557701 0.0037096739
-0.045920428 0.27557701 0.00028363429
0.19813816 0.27557701 0.0033569559
-0.31758854 -0.27557701 0.014727838
-0.064416148 -0.27557701 0.018179849
0.13087526 -0.27557701 0.011642307
-0.306716 -0.17000097 0.010678098
0.291843 -0.097729035 0.010040734
0.291843 -0.026501937 0.012809223
-0.306716 0.067963138 0.01384186
0.291843 0.079889692 0.018796839
0.268518 0.093534522 0.0163396
0.291843 0.13469398 0.010636527
0.291843 0.14087653 0.01037675
0.30620438 0.148684 0.017183743
-0.30975741 0.15889469 0.016749781
-0.306716 0.17999345 0.013274543
-0.306716 0.19713554 0.012457303
-0.32019719 0.227027 0.014011586
0.30839095 0.22600301 0.015698835
-0.28556812 0.27557701 0.014636926
-0.12203264 0.27557701 0.015036047
-0.052330673 0.27557701 0.019583516
-0.039868608 0.27557701 0.016546257
0.060199641 0.27557701 0.017977178
0.14457214 0.27557701 0.010099329
-0.32398257 -0.27557701 0.024123222
-0.15841112 -0.27557701 0.029496294
-0.32796201 -0.26990569 0.021985877
0.291843 -0.11526661 0.022571221
0.268518 -0.095073521 0.029797081
0.268518 -0.020733982 0.022374861
-0.306716 0.10377126 0.028948523
-0.306716 0.13546506 0.027343817
-0.306716 0.16768894 0.026447468
0.31344301 0.18517923 0.020125598
0.268518 0.21366392 0.028628916
-0.10776006 0.27557701 0.02384574
0.14124613 0.27557701 0.020160854
-0.23762088 -0.27557701 0.032414109
-0.032089338 -0.27557701 0.037681103
0.18706954 -0.27557701 0.03836105
0.22393826 -0.27557701 0.038194716
0.26623851 -0.27557701 0.03463918
-0.32796201 -0.26470914 0.034833029
-0.306716 -0.25297984 0.036360525
0.28122056 -0.235387 0.038057104
-0.306716 -0.061945464 0.030617632
-0.306716 -0.050876252 0.032696337
0.26477927 -0.059431829 0.037779979
0.268518 -0.035991807 0.032013386
-0.306716 0.0015284689 0.037317075
0.291843 0.12980513 0.030042626
0.268518 0.17011529 0.038488783
0.30258936 0.22600302 0.038868412
-0.27223283 0.27557701 0.035987124
0.12932643 0.27557701 0.030873742
-0.30728978 -0.27456659 0.046626866
-0.18576442 -0.27557701 0.046623088
0.072927326 -0.27557701 0.04303322
0.268518 -0.21930851 0.046737723
-0.306716 -0.1188343 0.045635089
0.26211259 0.09473528 0.047779482
0.31344301 0.1944312 0.041591227
-0.30922934 0.22702698 0.045296252
-0.32796201 0.25222445 0.043516047
0.3004753 0.25769499 0.047062658
-0.088485032 0.27557701 0.04021056
-0.051052634 0.27557701 0.047483958
-0.14110523 -0.27557701 0.059161097
0.26808417 -0.2504946 0.051698245
0.2654874 -0.10037141 0.050445929
0.268518 0.0041916221 0.059688088
0.31044519 0.148684 0.056563657
0.268518 0.21785299 0.057431184
0.31344301 0.21476024 0.056883145
-0.32613015 0.227027 0.055122226
0.26312411 0.25769499 0.05980248
0.15608144 0.27557701 0.058577642
-0.1634548 -0.27557701 0.062281914
-0.14618796 -0.27557701 0.064470537
0.26785022 -0.23697184 0.060317013
0.268518 -0.1553202 0.062665865
-0.306716 -0.082867675 0.067555062
0.268518 -0.061510984 0.061907154
0.26467928 -0.05365137 0.060053527
0.291843 -0.020472441 0.06126041
0.26300201 0.043316342 0.064394176
0.26194778 0.10426393 0.060311861
0.26106578 0.15525451 0.06469591
-0.306716 0.17569388 0.060941182
0.268518 0.19823883 0.060886618
0.31344301 0.19721021 0.066991992
0.25984734 0.22569466 0.062158696
0.27757832 0.22600301 0.060779668
-0.306716 0.24535431 0.062605537
-0.26248607 0.27557701 0.06703563
-0.20636645 0.27557701 0.068227008
-0.093890645 0.27557701 0.065307602
-0.010453008 0.27557701 0.067775182
0.1637769 0.27557701 0.069081225
0.19329618 0.27557701 0.066117808
-0.306716 -0.20848106 0.078855813
0.268518 -0.20997337 0.073849186
-0.306716 -0.12126438 0.077797741
-0.306716 -0.074790254 0.074326769
-0.306716 0.025867747 0.073946729
0.26335436 0.022945855 0.074612856
0.26310611 0.037297621 0.073680162
0.29529071 0.148684 0.075539365
-0.306716 0.19998707 0.073368058
-0.306716 0.23854859 0.079355054
0.31344301 0.2440546 0.079426289
-0.24037749 0.27557701 0.078491174
0.21552423 0.27557701 0.076737732
-0.11895715 -0.27557701 0.08417549
-0.30671597 -0.20404808 0.085177481
0.26608157 -0.13472053 0.088067584
0.291843 -0.13947585 0.083028287
0.291843 -0.026784968 0.08713825
0.26077688 0.17195579 0.089070104
0.28194249 0.22600301 0.083374128
0.29247913 0.25769499 0.088022292
-0.22516505 0.27557701 0.086708523
-0.19148713 0.27557701 0.086089782
0.19606507 0.27557701 0.084055856
0.22091141 0.27557701 0.082474411
-0.15838836 -0.27557701 0.098152779
0.18560623 -0.27557701 0.096039683
-0.31598473 -0.25136101 0.099389784
0.268518 -0.2417686 0.091179259
0.291843 -0.1622646 0.093549564
-0.306716 -0.14125451 0.095788106
0.26221058 0.089070976 0.094015799
0.268518 0.20060563 0.092798717
-0.20235637 0.27557701 0.091825411
0.0074831098 0.27557701 0.098741904
-0.14729205 -0.27557701 0.10363954
-0.306716 -0.26461458 0.10442375
0.2678189 -0.23516071 0.10111059
-0.306716 -0.10389567 0.10820171
0.268518 0.01487574 0.10927707
0.291843 0.035261951 0.10595912
0.291843 0.10216038 0.10679525
0.31344301 0.24916863 0.1092992
0.27304727 0.27177247 0.10687664
-0.084046438 -0.27557701 0.11076584
0.1610086 -0.27557701 0.11234411
0.19049574 -0.27557701 0.11070782
0.268518 -0.21775062 0.11763184
0.268518 -0.046951585 0.11179572
0.26434368 -0.034251224 0.11716709
0.26421252 -0.026666716 0.11391661
0.268518 0.007813612 0.11971322
0.26311183 0.03696616 0.11285973
-0.306716 0.11117703 0.11512853
0.28893876 0.22600301 0.11357979
0.041645944 -0.27557701 0.12930307
0.268518 -0.21739924 0.12824504
0.291843 -0.047056735 0.1230797
0.26399744 -0.014232934 0.12337053
0.268518 0.030096963 0.12586153
-0.306716 0.058139227 0.12423353
0.26209861 0.095542997 0.12243474
0.27186805 0.240521 0.1257858
0.19258484 0.27557701 0.12403628
-0.10758022 -0.27557701 0.13972266
0.17602016 -0.27557701 0.13290027
0.268518 -0.21485119 0.13886921
0.26653081 -0.16069248 0.13426049
-0.306716 -0.1484196 0.13574892
-0.306716 -0.10444498 0.1378808
0.26519534 -0.083485954 0.13430429
-0.306716 -0.060709357 0.13519587
-0.306716 0.00095509738 0.13895223
0.26153475 0.12814154 0.13327302
0.31344301 0.16553484 0.1379502
0.26058647 0.18296331 0.13616796
0.31044662 0.24052098 0.13106258
0.15646222 0.27557701 0.13228679
0.23071299 0.27557701 0.13913687
0.24197297 0.27557701 0.1302295
0.27745929 0.27023491 0.13727605
-0.306716 -0.26408929 0.14233284
-0.306716 -0.25104702 0.14984661
0.268518 -0.17707258 0.14765321
-0.306716 -0.15714493 0.14347267
-0.306716 -0.11708849 0.14015655
-0.306716 -0.089363821 0.1456442
0.268518 -0.065583631 0.14009874
0.26398021 -0.013236009 0.14580029
0.268518 0.10843458 0.14760597
0.291843 0.13702635 0.14102757
-0.306716 0.19328818 0.14284346
-0.31046152 0.25769499 0.14566699
-0.17048419 0.27557701 0.14558652
0.036991455 0.27557701 0.14317501
0.24651568 0.27557701 0.14451711
-0.1639618 -0.27557701 0.15717006
-0.051770531 -0.27557701 0.15741919
0.18872352 -0.27557701 0.15136832
0.26753613 -0.21881346 0.15704837
0.26690069 -0.18207555 0.1513399
0.268518 0.04128971 0.15258303
0.26261038 0.065955296 0.15905447
0.2634972 0.240521 0.15787357
0.15083112 0.27557701 0.1553738
-0.29673615 -0.27557701 0.1633918
-0.24955517 -0.27557701 0.16638118
-0.20108652 -0.27557701 0.16030708
0.268518 -0.21496661 0.16222045
-0.306716 -0.20118539 0.16002686
0.26669884 -0.17040789 0.1671596
0.268518 -0.053139307 0.16468522
0.26438466 -0.036617577 0.16875122
0.291843 0.12007035 0.1641116
-0.306716 0.14099619 0.16681151
0.30664515 0.148684 0.1673122
0.31344301 0.16145073 0.16048333
0.30342263 0.22600302 0.16163354
0.29575583 0.26385877 0.1633347
0.15278918 0.27557701 0.16421956
0.21907623 0.27557701 0.16690481
-0.12890221 -0.27557701 0.173794
0.11460428 -0.27557701 0.1795219
0.12855698 -0.27557701 0.17604473
0.268518 -0.24591383 0.17691465
0.291843 -0.054626577 0.17119396
0.268518 0.20571589 0.17202164
-0.32796201 0.24879532 0.17188345
0.2763828 0.25769499 0.17290926
-0.003342405 -0.27557701 0.18904793
0.15902759 -0.27557701 0.18515363
0.26785281 -0.23712108 0.18788446
0.2670615 -0.19137336 0.18771632
0.291843 -0.14777271 0.18166073
-0.306716 -0.10174793 0.18798019
0.268518 0.044257596 0.18739288
-0.306716 0.09671545 0.18911374
0.32675654 0.20488364 0.1874209
-0.3190223 0.227027 0.18302566
-0.20080766 -0.27557701 0.19826484
0.19402987 -0.27557701 0.19211929
-0.306716 -0.26263231 0.19788043
0.268518 -0.2263152 0.19577058
0.291843 -0.15420119 0.19253002
0.291843 -0.1366021 0.19072185
0.268518 -0.058270037 0.19326547
0.291843 -0.047838688 0.19378133
-0.306716 0.0080137104 0.191329
-0.306716 0.037504442 0.19791517
-0.306716 0.075290777 0.19654146
0.291843 0.08755789 0.1983145
0.26141503 0.13506284 0.19817294
0.268518 0.20721138 0.19239266
-0.306716 0.2303586 0.19291107
0.31250793 0.240521 0.19166465
0.11167317 0.27557701 0.19278084
0.22936454 0.27557701 0.19707748
0.22444089 -0.27557701 0.20511183
0.264137 -0.27557701 0.209521
0.268518 -0.25249758 0.20036352
0.268518 -0.21930124 0.20439135
0.268518 -0.11440538 0.2055683
0.2654551 -0.098501652 0.20668542
0.268518 -0.048729695 0.20336524
-0.306716 0.062647931 0.20387918
0.26092666 0.16329673 0.20005892
0.31344301 0.16695495 0.20951632
0.31344301 0.18969131 0.20316993
-0.12955476 -0.27557701 0.21617779
-0.10580477 -0.27557701 0.2142987
0.14371821 -0.27557701 0.21086502
0.268518 -0.17937949 0.21472934
0.291843 -0.06793689 0.21310779
0.268518 -0.0046783835 0.21995574
0.268518 0.0098018572 0.21915534
0.26588422 0.024793793 0.21639031
-0.306716 0.10520247 0.21598324
0.31344301 0.16258517 0.21695502
0.268518 0.17761236 0.21055737
0.268518 0.20587492 0.21013744
0.28354132 0.22600299 0.21394566
0.25984201 0.23832682 0.2138723
0.29354048 0.240521 0.21676782
0.3071419 0.25989085 0.21935067
-0.29752359 0.27557701 0.2171526
0.019698836 0.27557701 0.21401492
0.20464933 0.27557701 0.21728063
-0.24485883 -0.27557701 0.22733791
-0.19720404 -0.27557701 0.22902511
-0.13172747 -0.27557701 0.22156641
-0.052093811 -0.27557701 0.22179231
-0.32796201 -0.26455301 0.22136497
-0.32572731 -0.25136101 0.22829905
0.291843 -0.1505681 0.22498178
0.26549453 -0.10078298 0.22146906
-0.30671597 -0.0437061 0.22200345
0.26333383 0.024133116 0.22579519
0.291843 0.093930088 0.22806033
0.26165968 0.12091811 0.22394331
0.31344301 0.18881604 0.22494328
0.26212999 0.26453894 0.22975735
0.30025625 0.26229042 0.22409937
-0.15522879 0.27557701 0.22338511
-0.061734758 0.27557701 0.22483146
-0.1500994 -0.27557701 0.23439954
-0.0097052604 -0.27557701 0.23952603
0.11989053 -0.27557701 0.2383016
0.25044641 -0.27557704 0.23713017
-0.30671602 -0.14415456 0.23769444
-0.30671602 -0.058758087 0.23339087
-0.31216556 -0.022687811 0.23846699
-0.31108946 0.029747307 0.23846699
0.291843 0.023859736 0.23265441
-0.306716 0.042374916 0.23319441
-0.32796201 0.063969992 0.23847935
0.26258355 0.067509152 0.23027036
0.291843 0.076134607 0.23236477
-0.32595745 0.14055504 0.23846698
0.268518 0.14150952 0.23673677
0.31344301 0.18781467 0.2383351
-0.30671602 0.24961546 0.23206085
-0.12850417 0.27557701 0.23244813
0.18624911 0.27557701 0.23813504
-0.20528533 -0.27557701 0.24036393
-0.18453822 -0.27557701 0.24275316
-0.084374286 -0.27557701 0.24241257
0.0058507472 -0.27557701 0.24283423
0.14894554 -0.27557701 0.24406806
0.18528181 -0.27557701 0.24551383
-0.306716 -0.26645845 0.24583729
-0.32796201 -0.19369373 0.24688897
-0.306716 -0.19056769 0.24083465
-0.306716 -0.16379881 0.24886304
-0.32796201 -0.15118949 0.24331707
0.2656827 -0.11166104 0.24239945
0.28492787 -0.11107502 0.24424
0.28589186 -0.015610382 0.24424
0.28766459 0.0050006881 0.24424002
0.27011216 0.12655649 0.24424
-0.306716 0.23592776 0.24979159
-0.23274696 0.27557701 0.24355517
-0.0080212057 0.27557701 0.24308187
-0.10621314 -0.27557701 0.25226986
-0.061509136 -0.27557701 0.25647718
0.0010125786 -0.27557701 0.25377902
0.228802 -0.25728539 0.25787199
-0.24289086 -0.23679443 0.25787199
-0.12289524 -0.23826355 0.25787199
0.13071014 -0.22616605 0.25787199
-0.050238028 -0.21465689 0.25787199
0.016402848 -0.21138124 0.25787199
-0.17875905 -0.20616302 0.25787199
0.01859534 -0.2060564 0.25787199
0.23751992 -0.20852825 0.25787199
-0.22440699 -0.19153562 0.25787199
-0.11979685 -0.19161691 0.25787199
0.056598641 -0.19985139 0.25787199
0.064223558 -0.19656971 0.25787199
0.19329265 -0.19601876 0.25787199
-0.15319364 -0.18559952 0.25787199
0.22450717 -0.1804744 0.25787199
-0.24147677 -0.17364691 0.25787199
-0.21654858 -0.16069217 0.25787199
0.2422321 -0.16931885 0.25787199
-0.323713 -0.14618938 0.25787199
-0.28155386 -0.14478314 0.25787199
0.10448138 -0.14936475 0.25787199
0.2592198 -0.1461087 0.25787199
-0.0022180453 -0.1337081 0.25787199
0.15629348 -0.13376148 0.25787199
0.26613453 -0.13778189 0.25209942
-0.23251596 -0.12095786 0.25787199
-0.1947338 -0.12883386 0.25787199
-0.036442991 -0.11348551 0.25787199
-0.31550428 -0.10468193 0.25787199
-0.26857698 -0.10488616 0.25787199
0.054394357 -0.095369458 0.25787199
-0.20932382 -0.082219213 0.25787199
0.083944134 -0.074785747 0.25787199
-0.0020110607 -0.066793203 0.25787199
0.037971638 -0.063190825 0.25787199
0.19988254 -0.064832158 0.25787199
-0.043832228 -0.049531009 0.25787199
-0.27218133 -0.033635624 0.25787199
-0.083109856 -0.037435874 0.25787199
-0.23388886 -0.019316137 0.25787199
0.043796107 -0.015412264 0.25787199
0.2025573 -0.014775373 0.25787199
0.21258828 -0.0133522 0.25787199
0.082041129 -0.0068808608 0.25787199
0.26706713 -0.0054305717 0.25787199
-0.14915961 0.0060221106 0.25787199
-0.13474342 0.0063569695 0.25787199
0.066955701 0.0019224733 0.25787199
0.268518 0.021186769 0.25070202
-0.21256402 0.036561474 0.25787199
-0.095419437 0.042138785 0.25787199
0.17769592 0.040355079 0.25787199
0.094720908 0.055050243 0.25787199
0.16368853 0.050429888 0.25787199
0.26276916 0.056776591 0.25595304
-0.27277112 0.066022292 0.25787199
0.24924056 0.075659677 0.25787199
-0.20295107 0.085693136 0.25787199
0.11326928 0.08320491 0.25787199
0.18085462 0.082838207 0.25787199
-0.17517778 0.098765381 0.25787199
-0.024136268 0.094655611 0.25787199
-0.14106004 0.10953031 0.25787199
-0.17543964 0.11675917 0.25787199
-0.14416867 0.11629094 0.25787199
0.26411545 0.11208767 0.25787199
-0.12946567 0.12449333 0.25787199
0.098980308 0.1225696 0.25787199
0.18976861 0.12340413 0.25787199
-0.066212147 0.13371217 0.25787199
-0.19575006 0.14171366 0.25787199
0.11658834 0.14986125 0.25787199
0.1334677 0.14944045 0.25787199
-0.11267132 0.15450302 0.25787199
0.056210671 0.1568251 0.25787199
-0.22064731 0.16438173 0.25787199
-0.14127405 0.16116221 0.25787199
0.082287781 0.16597551 0.25787199
-0.21743336 0.17405465 0.25787199
0.042478383 0.17133467 0.25787199
0.26278368 0.17467216 0.25787199
0.12568091 0.18094113 0.25787199
0.25884518 0.18078597 0.25787199
-0.25580141 0.19240817 0.25787199
-0.16488786 0.21642745 0.25787199
-0.10338672 0.21050993 0.25787199
0.25620386 0.21134096 0.25787199
-0.306716 0.22342791 0.25720063
-0.24788414 0.22138712 0.25787199
-0.18725508 0.22306995 0.25787199
0.23925206 0.22852206 0.25787199
0.1838764 0.23797171 0.25787199
-0.12527977 0.24521397 0.25787199
-0.06894502 0.2418543 0.25787199
0.042409673 0.2435711 0.25787199
0.07468427 0.2408064 0.25787199
0.30275291 0.25303957 0.25787199
-0.17959516 0.26410058 0.25787199
-0.075396627 0.26469785 0.25787199
0.059201844 0.26728827 0.25787199
-0.19839743 0.27557701 0.25784051
-0.11730927 0.27509293 0.25787199
0.04575821 0.2727471 0.25787199
0.10880905 0.27557701 0.25323957
