# .PCD v0.7 - Point Cloud Data file format
VERSION 0.7
FIELDS x y z
SIZE 4 4 4
TYPE F F F
COUNT 1 1 1
WIDTH 964
HEIGHT 1
VIEWPOINT 0 0 0 1 0 0 0
POINTS 964
DATA ascii
-0.096349552 -0.43055275 -0.159473
0.033550177 -0.43116802 -0.15828773
-0.036585957 -0.42712539 -0.159473
-0.019409962 -0.41771483 -0.159473
-0.11156023 -0.40721142 -0.159473
0.063755944 -0.4036223 -0.159473
-0.043001711 -0.39887255 -0.159473
0.077008486 -0.39777854 -0.159473
0.096175097 -0.39186311 -0.159473
-0.086412206 -0.38883346 -0.159473
-0.11278706 -0.37410164 -0.159473
-0.088386483 -0.37029546 -0.159473
-0.0081845447 -0.37480718 -0.159473
-0.083318226 -0.36869836 -0.159473
0.14816308 -0.36059085 -0.159473
-0.13357493 -0.35149691 -0.159473
-0.0042628646 -0.35106128 -0.159473
0.065304115 -0.35191455 -0.159473
-0.11529267 -0.34362459 -0.159473
0.026661031 -0.34892303 -0.159473
0.14904168 -0.34738857 -0.159473
-0.097985648 -0.33348987 -0.159473
-0.069321096 -0.33597273 -0.159473
0.03408654 -0.33161891 -0.159473
0.10477477 -0.33493128 -0.159473
0.049002923 -0.32742488 -0.159473
-0.036840752 -0.3155106 -0.159473
-0.036025003 -0.30908844 -0.159473
0.12464462 -0.30014428 -0.159473
-0.16755396 -0.29797846 -0.159473
-0.0093323179 -0.29272807 -0.159473
0.018980306 -0.29762894 -0.159473
0.056351174 -0.29505396 -0.159473
-0.11985426 -0.28468984 -0.159473
-0.014734563 -0.27551571 -0.159473
0.057380788 -0.27759695 -0.159473
0.13249569 -0.27097246 -0.159473
-0.060912281 -0.26824901 -0.159473
0.050521605 -0.26883537 -0.159473
0.094580822 -0.26563704 -0.159473
0.13756645 -0.26632068 -0.159473
-0.087769553 -0.25173944 -0.159473
-0.039036673 -0.24416174 -0.159473
-0.0098954365 -0.23306021 -0.159473
0.13994306 -0.23809156 -0.159473
-0.00040077046 -0.22107375 -0.159473
0.09318912 -0.222233 -0.159473
0.14044699 -0.22071098 -0.159473
-0.071801059 -0.21202198 -0.159473
-0.039214645 -0.21771058 -0.159473
-0.0059958585 -0.21718717 -0.159473
0.0088857999 -0.21822745 -0.159473
0.016905777 -0.2140111 -0.159473
0.094127059 -0.21790564 -0.159473
-0.0647882 -0.20722423 -0.159473
-0.02883739 -0.20556156 -0.159473
0.030853655 -0.20513016 -0.159473
0.11390216 -0.20929864 -0.159473
0.12878168 -0.20524809 -0.159473
-0.10100514 -0.19662745 -0.159473
-0.021462761 -0.1924894 -0.159473
-0.16833299 -0.18411113 -0.15087001
-0.052346148 -0.1855309 -0.159473
-0.015365198 -0.18666393 -0.159473
0.009958189 -0.18567997 -0.159473
-0.12502788 -0.17937104 -0.159473
-0.14198841 -0.16988665 -0.159473
-0.11032559 -0.16320798 -0.159473
0.045550425 -0.16591603 -0.159473
0.10415929 -0.16478206 -0.159473
0.059150144 -0.1557903 -0.159473
-0.15396978 -0.14826734 -0.159473
-0.071502 -0.13065191 -0.159473
0.10117035 -0.11563562 -0.159473
0.057249531 -0.1050164 -0.159473
0.064201266 -0.10202523 -0.159473
-0.059225921 -0.09162467 -0.159473
0.026301686 -0.0936829 -0.159473
0.040846676 -0.098605908 -0.159473
0.1331016 -0.098203033 -0.159473
-0.11056564 -0.08553759 -0.159473
-0.090201356 -0.080857329 -0.159473
-0.011094421 -0.088882849 -0.159473
0.05661362 -0.080727495 -0.159473
0.088640034 -0.087413713 -0.159473
0.10564392 -0.08466775 -0.159473
-0.16833299 -0.072859891 -0.15513429
-0.12560762 -0.0607097 -0.159473
-0.066274554 -0.062232926 -0.159473
0.12410265 -0.063962184 -0.159473
0.150613 -0.069925107 -0.15081523
-0.062478196 -0.055052154 -0.159473
0.150613 -0.056290608 -0.15080082
-0.11740624 -0.043680094 -0.159473
-0.03566191 -0.032152951 -0.159473
0.09236598 -0.025365837 -0.159473
0.10208492 -0.023567397 -0.159473
0.12817375 -0.022887949 -0.159473
-0.0037894323 -0.015422696 -0.159473
-0.16833299 -0.0062263315 -0.15590313
-0.14868486 -0.0046618273 -0.159473
0.037233524 -0.003574077 -0.15866828
-0.11280701 0.0074755871 -0.159473
-0.047517333 0.0059062 -0.15333258
-0.033143494 0.0010532854 -0.15356702
0.13189989 0.0087034041 -0.159473
-0.12487662 0.011274444 -0.159473
0.056655772 0.013187386 -0.159473
-0.12058401 0.026320521 -0.159473
-0.090214416 0.023478108 -0.159473
0.097743958 0.027352463 -0.159473
-0.14948189 0.031969607 -0.159473
-0.087478466 0.03635658 -0.159473
0.019676004 0.042845532 -0.159473
0.14297637 0.046916775 -0.159473
-0.14046341 0.05786692 -0.159473
0.024173491 0.050072979 -0.159473
0.14941125 0.05262332 -0.159473
0.037413068 0.06075041 -0.159473
0.070696592 0.067256667 -0.159473
-0.12566724 0.070217863 -0.159473
-0.067912683 0.079755135 -0.159473
-0.036067635 0.074114777 -0.159473
0.14060147 0.079734124 -0.159473
-0.045408115 0.087962471 -0.159473
-0.022884984 0.084804341 -0.159473
-0.14734197 0.095019624 -0.159473
-0.16767149 0.10119861 -0.159473
-0.064954132 0.10434114 -0.159473
0.059288688 0.10579379 -0.159473
-0.081073165 0.11120484 -0.159473
0.087523669 0.11351733 -0.159473
0.061516318 0.12223822 -0.159473
0.015849285 0.13607214 -0.159473
0.068529487 0.13564488 -0.159473
0.13610281 0.13349906 -0.159473
0.10664525 0.14732888 -0.159473
-0.13511494 0.15010634 -0.159473
-0.12825429 0.15179507 -0.159473
0.054675765 0.15756692 -0.159473
-0.16833299 0.16140603 -0.15810335
-0.020506933 0.16419034 -0.159473
0.061008517 0.16565065 -0.159473
0.12461941 0.16708958 -0.159473
0.14614139 0.16913433 -0.159473
-0.147186 0.17487615 -0.159473
-0.10489911 0.17640598 -0.159473
0.12124912 0.17152846 -0.159473
-0.095668264 0.18925895 -0.159473
0.0060146586 0.18549456 -0.159473
0.070387788 0.18213774 -0.159473
-0.092976272 0.19000593 -0.159473
-0.038647749 0.19419485 -0.159473
0.061780803 0.19873366 -0.159473
0.150613 0.19304292 -0.15649951
-0.12858012 0.20790447 -0.159473
0.11702318 0.20124377 -0.159473
-0.086790927 0.22172326 -0.159473
-0.05876743 0.2277118 -0.159473
0.0088387355 0.2254902 -0.159473
-0.077698752 0.23868969 -0.159473
-0.025291074 0.24151559 -0.159473
-0.0033923266 0.24789868 -0.159473
0.0094284201 0.24573731 -0.159473
0.10069208 0.24994387 -0.159473
-0.053000595 0.25791317 -0.159473
-0.0051685944 0.25554296 -0.159473
-0.16271234 0.26582208 -0.159473
-0.14464882 0.26431173 -0.159473
-0.12167862 0.26453543 -0.159473
-0.11560676 0.26299179 -0.159473
-0.054052237 0.27869105 -0.159473
0.063156702 0.28677014 -0.159473
0.089634769 0.28396323 -0.159473
-0.081945516 0.29367095 -0.159473
0.0028566122 0.31904006 -0.159473
0.034806058 0.32854366 -0.159473
0.11234359 0.32652313 -0.159473
-0.08666525 0.33176911 -0.159473
0.01949992 0.33205324 -0.159473
0.035079867 0.3362363 -0.159473
-0.15390842 0.34675828 -0.159473
-0.10376434 0.34608454 -0.159473
0.017834999 0.34646702 -0.159473
-0.16433282 0.35215795 -0.159473
-0.082430258 0.35143286 -0.159473
-0.0515089 0.35392481 -0.159473
0.092582807 0.35717937 -0.159473
-0.075459957 0.36967593 -0.159473
0.02343782 0.36938918 -0.159473
0.071786255 0.37273538 -0.159473
0.10666651 0.37386888 -0.159473
-0.14830117 0.38542217 -0.159473
-0.005447045 0.38654494 -0.159473
-0.06041513 0.3970232 -0.159473
-0.038663965 0.39596719 -0.159473
0.010646835 0.39501625 -0.159473
0.080651969 0.39865515 -0.159473
0.10535999 0.39094317 -0.159473
0.13837792 0.39671141 -0.159473
-0.08388643 0.40503794 -0.159473
0.053914811 0.40993258 -0.159473
0.094425894 0.40340054 -0.159473
-0.070730463 0.41517645 -0.159473
0.150613 0.41779166 -0.15118694
-0.14478524 0.42256111 -0.159473
0.019792706 0.42850298 -0.159473
0.13942468 0.42885709 -0.159473
-0.035252839 0.44238991 -0.15880609
-0.14562544 -0.44235146 -0.14753994
-0.11955709 -0.43116799 -0.1489442
0.052901357 -0.43116799 -0.14309144
0.150613 -0.19711441 -0.14856687
0.150613 -0.17823054 -0.14567615
-0.16833299 -0.14958124 -0.14268318
-0.16421017 -3.23005e-07 -0.14617583
-0.14408365 -3.23005e-07 -0.14797714
-0.1093381 -3.23005e-07 -0.14353597
-0.063919954 -3.23005e-07 -0.14633976
0.013647601 -3.23005e-07 -0.14706081
0.10311428 -3.23005e-07 -0.14371942
-0.16242699 0.0033260994 -0.14184839
0.150613 0.087665282 -0.1415554
-0.16833299 0.10472694 -0.14687416
-0.16833299 0.12232598 -0.14962724
0.150613 0.12334434 -0.14415969
0.150613 0.23372787 -0.14215225
0.150613 0.3403877 -0.14509702
0.150613 0.43238801 -0.14651489
-0.02851491 0.442981 -0.14235939
0.024780504 -0.43116796 -0.13556558
0.150613 -0.34766972 -0.133314
0.150613 -0.22299646 -0.13287154
0.150613 -0.21565056 -0.13809082
0.150613 -0.19813594 -0.1364544
0.150613 -0.053495761 -0.1336375
-0.16833299 -0.012647912 -0.1396361
-0.11190747 -3.23005e-07 -0.13714714
0.077151112 -3.23005e-07 -0.13190606
-0.080635324 0.0059062 -0.13302949
0.150613 0.061424747 -0.1303035
0.150613 0.3079403 -0.13200469
0.150613 0.42289457 -0.13392392
-0.13965298 -0.43444192 -0.12526412
-0.047454957 -0.43116796 -0.12752059
0.017638847 -0.43116799 -0.12285533
0.041235939 -0.43116799 -0.12097083
0.1046258 -0.43116799 -0.12959599
-0.16833299 -0.39720878 -0.12664945
-0.16833299 -0.36321527 -0.12517549
-0.16833299 -0.3183744 -0.12777944
0.150613 -0.21255444 -0.12598896
0.16207287 -0.19712178 -0.12385785
-0.16833299 -0.11806182 -0.12918609
-0.16833299 -0.084939204 -0.12127806
-0.16833299 -0.07657031 -0.12907752
-0.14646998 -3.23005e-07 -0.12836476
-0.11651537 -3.23005e-07 -0.12138082
-0.006382484 -3.23005e-07 -0.12337059
-0.14181575 0.0059062 -0.12684746
0.150613 0.1014715 -0.12369776
0.16242699 0.21644185 -0.12893508
-0.16833299 0.25458565 -0.12082677
-0.16833299 0.36120641 -0.12883377
0.02908195 0.442981 -0.12287823
0.150613 -0.36424088 -0.11535758
-0.16833299 -0.30328771 -0.11350149
0.16242698 -0.21553139 -0.11987719
0.150613 -0.13458903 -0.11585353
-0.16833299 -0.077508755 -0.11711352
-0.16833299 -0.042957753 -0.11733291
0.150613 -0.042403214 -0.11344469
-0.036170542 -3.23005e-07 -0.11909029
0.139349 -3.23005e-07 -0.11413945
0.063471638 0.0059062 -0.11480416
-0.16833299 0.17223123 -0.11981536
0.16163945 0.29553056 -0.11106888
-0.16833299 0.30616364 -0.11875025
-0.13390446 0.442981 -0.11959919
-0.094746642 0.442981 -0.1137423
-0.053293854 0.442981 -0.11448527
-0.017174302 0.442981 -0.11818841
0.020846277 0.442981 -0.11048645
0.059914581 0.442981 -0.11479107
-0.15541737 -0.43116799 -0.10121547
-0.061708063 -0.43116799 -0.10132079
0.05264407 -0.43116799 -0.10133343
0.10878646 -0.43116796 -0.10899775
0.13203812 -0.43116799 -0.10527529
-0.16833299 -0.41850537 -0.10557643
-0.16833299 -0.30903223 -0.10075074
0.16538 -0.24950683 -0.10998347
0.16538 -0.23357075 -0.10395406
0.150613 -0.089317262 -0.10340647
0.150613 -0.041255761 -0.10301945
-0.11162819 -3.23005e-07 -0.10300396
-0.09671849 -3.23005e-07 -0.10950775
-0.012062609 -3.23005e-07 -0.10619311
0.12000792 -3.23005e-07 -0.10854869
0.150613 0.061893847 -0.10896179
-0.16833299 0.14582822 -0.10469608
-0.16833299 0.15062986 -0.10447558
-0.16833299 0.34970751 -0.10713843
0.150613 0.34946841 -0.10714182
0.150613 0.35124791 -0.10752364
-0.016822498 0.442981 -0.10584447
-0.14605862 -0.43116799 -0.091087207
-0.16833299 -0.42026007 -0.093174502
0.150613 -0.42271042 -0.09186288
-0.16833299 -0.39402297 -0.090276115
0.150613 -0.37236282 -0.09841717
0.150613 -0.35920134 -0.09096653
-0.16833299 -0.33078602 -0.098752663
0.16538 -0.19776365 -0.099714033
0.150613 -0.045433007 -0.094096608
0.041684356 -3.23005e-07 -0.09051796
0.070054471 0.0059062 -0.099539138
0.14470699 0.0025226565 -0.096308768
-0.16833299 0.14502852 -0.098985523
-0.16833299 0.17218633 -0.092540182
0.16833299 0.22560279 -0.094762281
0.150613 0.33602574 -0.09419699
0.150613 0.39744917 -0.096101299
-0.15274723 0.442981 -0.095941193
-0.14812797 0.442981 -0.092651337
-0.034169409 -0.43116796 -0.086501181
-0.16833299 -0.41990316 -0.087132215
0.150613 -0.39004296 -0.088343486
0.150613 -0.38370007 -0.083431162
0.150613 -0.34109896 -0.084555402
0.150613 -0.30816647 -0.080981709
0.16242699 -0.29683405 -0.084076047
-0.16833299 -0.23403707 -0.088647723
-0.16833299 -0.17511442 -0.080039963
0.150613 -0.036043301 -0.086506128
-0.017249864 -3.23005e-07 -0.085477531
-0.16833299 0.2258984 -0.08542306
-0.16833299 0.29312679 -0.085152037
0.150613 0.37104526 -0.08311066
-0.092503086 0.442981 -0.081119642
-0.0021482483 0.442981 -0.088792399
0.15061301 -0.42346966 -0.071148619
-0.16833299 -0.36898649 -0.078870915
-0.16833299 -0.30166015 -0.072634876
-0.16833299 -0.16461065 -0.070466131
-0.16833299 -0.12577036 -0.078611247
0.15061301 -0.10068487 -0.073944665
-0.16833299 -0.0051301373 -0.07044822
-0.042517494 -3.23005e-07 -0.077075839
0.12753773 -3.23005e-07 -0.07804992
0.0072168577 0.0059062 -0.078687713
0.087654352 0.0059062 -0.078778952
0.13382372 0.0059062 -0.077553809
0.16414142 0.12400411 -0.075236186
-0.16833299 0.14446779 -0.079630308
-0.16833299 0.21957959 -0.074224107
-0.16833299 0.4094637 -0.071194731
-0.088235438 0.442981 -0.076467142
-0.058644108 0.442981 -0.074429236
-0.043219876 0.442981 -0.076002136
0.036648534 0.442981 -0.078004152
0.10082263 0.442981 -0.072243407
0.12402043 0.44298103 -0.078251384
0.14292756 0.442981 -0.07427866
-0.092805021 -0.43116799 -0.06378296
0.022827316 -0.43116799 -0.062342905
0.15480676 -0.31478626 -0.067431748
0.16242699 -0.25927591 -0.061180599
-0.16833299 -0.13192876 -0.064582594
0.15061298 -0.084938779 -0.060956862
-0.16833299 -0.056572668 -0.061243646
-0.15280518 -3.23005e-07 -0.060507033
-0.14337999 -3.23005e-07 -0.065720141
0.032360047 -3.23005e-07 -0.062399924
0.089190386 -3.23005e-07 -0.069072425
0.11396708 -3.23005e-07 -0.064325616
-0.16833299 0.052635591 -0.06661652
-0.16833299 0.077013426 -0.062724702
-0.16833299 0.10489427 -0.062079303
0.15218891 0.10740035 -0.060775727
0.16242699 0.19869669 -0.065841973
-0.16833299 0.20160741 -0.066336825
0.16717981 0.28399771 -0.067804165
0.16538 0.30537808 -0.06541805
0.16538 0.3107011 -0.068351947
-0.16833299 0.32207185 -0.062660374
0.150613 0.37314591 -0.06603533
-0.16833299 0.39767107 -0.066505425
0.150613 0.39752299 -0.062903136
-0.16833299 0.41023931 -0.067958713
-0.008128915 0.442981 -0.068022609
-0.030470464 -0.43116802 -0.058095939
0.15061301 -0.3440924 -0.052773789
0.16242699 -0.26482835 -0.056842834
0.16242699 -0.097470522 -0.050432768
-0.091809005 -3.23005e-07 -0.050903697
0.0021101572 -3.23005e-07 -0.052292824
0.093259402 -3.23005e-07 -0.058191441
0.073003076 0.0059062 -0.053318102
0.083982132 0.0059062 -0.058317408
0.095552236 0.0059062 -0.052774709
0.150613 0.041159414 -0.053916842
-0.16833299 0.14917794 -0.05733278
0.16242699 0.22742115 -0.058923211
0.16772363 0.29986674 -0.059326656
0.16833299 0.3053709 -0.051823858
-0.16719024 0.442981 -0.051864874
-0.014274848 0.442981 -0.053846724
0.016279373 0.442981 -0.055614159
-0.14656159 -0.43116799 -0.048906725
-0.16833299 -0.36331004 -0.046222772
0.150613 -0.32893488 -0.04969791
-0.16833299 -0.19672224 -0.04905957
0.15902573 -0.093273878 -0.044147938
0.16242699 -0.092900366 -0.042916227
0.150613 -0.046002313 -0.047967583
0.060668591 -3.23005e-07 -0.041264463
0.096813418 -3.23005e-07 -0.043563083
-0.15185344 0.0059062 -0.043702442
-0.11134405 0.0059062 -0.041533936
-0.056936353 0.0059062 -0.047581486
0.13875675 0.0059062 -0.041563597
-0.16833299 0.32134581 -0.040522791
-0.16833299 0.35422987 -0.046957012
0.150613 0.35604984 -0.040733121
-0.050683081 0.442981 -0.040113743
-0.01312279 0.442981 -0.047411095
-0.0015833415 0.442981 -0.049114734
0.063709259 0.442981 -0.046873864
0.0064241961 -0.43116799 -0.037660852
0.15041092 -0.43116799 -0.037665032
-0.16833299 -0.30163175 -0.032341409
0.16242699 -0.26269639 -0.035957683
0.16351368 -0.13427214 -0.035086874
-0.10233605 -3.23005e-07 -0.031029616
0.017587319 -3.23005e-07 -0.030342165
0.033795021 -3.23005e-07 -0.039830126
0.11319788 -3.23005e-07 -0.032482162
0.13486338 -3.23005e-07 -0.032031283
0.10754192 0.0059062 -0.039374243
0.150613 0.014553696 -0.037063606
0.15061298 0.066383548 -0.030877676
-0.16833299 0.098283894 -0.035157301
-0.16833299 0.10682777 -0.034862258
-0.16833299 0.16219404 -0.032822248
0.16242699 0.21177159 -0.03185375
-0.16833299 0.24428661 -0.033680495
-0.16833299 0.38921383 -0.033593066
-0.14557011 0.442981 -0.034172624
-0.081976101 0.442981 -0.039267763
0.076356009 0.442981 -0.031812496
0.086978748 0.442981 -0.035427745
-0.090827592 -0.43116796 -0.022949234
-0.052608486 -0.43116799 -0.028484836
-0.016937569 -0.43116796 -0.022185337
0.150613 -0.41477969 -0.021637876
-0.16833299 -0.37351978 -0.027894214
0.150613 -0.35589916 -0.029728368
0.16242699 -0.19586132 -0.025654987
0.16538 -0.11095711 -0.026435006
-0.16833299 -0.070097886 -0.025126683
-0.15257677 -3.23005e-07 -0.025584683
0.076072514 -3.23005e-07 -0.02415791
-0.024388039 0.0059062 -0.028277472
0.085480012 0.0059062 -0.022878159
0.16242699 0.22850636 -0.023765411
0.16538 0.32257599 -0.027844271
-0.16833299 0.38419586 -0.027287263
0.15061301 0.38809288 -0.028147377
-0.16833299 0.39752054 -0.021496065
0.071278855 0.442981 -0.020722792
0.10561278 0.442981 -0.025260817
-0.10240732 -0.43116796 -0.013236452
0.080259874 -0.43116799 -0.011547226
0.11560194 -0.43116799 -0.012889802
-0.16833299 -0.41928512 -0.013833713
-0.16833299 -0.171166 -0.018115163
0.16538 -0.097413465 -0.010625684
0.16242699 -0.089135945 -0.017072562
-0.16833299 -0.052136049 -0.018294401
0.150613 -0.054586574 -0.014776431
0.150613 -0.0078666918 -0.019427732
-0.13794324 0.0059062 -0.012394495
-0.16833299 0.037143633 -0.01432877
0.150613 0.091425069 -0.017057072
-0.16833299 0.15449592 -0.01891904
-0.16833299 0.18334991 -0.018567763
-0.16833299 0.22842957 -0.017415956
0.150613 0.35554406 -0.011319009
-0.096403256 0.442981 -0.016406961
0.1078141 0.442981 -0.013454676
0.15061298 -0.40512446 -0.0071273558
0.16242699 -0.17908785 -0.00038431212
0.16538 -0.098249637 -0.0026108157
-0.16833299 -0.018664217 -0.0065782443
-0.16833299 -0.0057783402 -0.00211199
-0.025442641 -3.23005e-07 -0.0012242012
0.026877575 -3.23005e-07 -0.0078785866
0.13943779 -3.23005e-07 -0.005613938
-0.159695 0.0059062 -0.0038475022
-0.10827515 0.0059062 -0.0083346963
0.11015622 0.0059062 -0.0019991212
-0.16833299 0.033368286 -0.0097862408
0.150613 0.042424109 -0.0093539618
-0.16833299 0.28354186 -0.0055602044
0.16242699 0.28541359 -0.0074990056
0.16242699 0.31128854 -0.0094294734
-0.10159269 0.442981 -0.0073450804
-0.087678164 0.442981 -0.0072412416
0.022436947 0.442981 -0.0087976074
0.12825972 0.442981 -0.0094550326
-0.14211181 -0.43116799 0.0079180673
-0.121494 -0.43116796 0.0075633544
-0.033322304 -0.43116802 0.0024331547
0.150613 -0.3453843 0.0078503909
-0.16833299 -0.20624459 0.0052084774
-0.16833299 -0.16184872 0.0087364428
0.16538 -0.10681985 0.0061870776
-0.16833299 -0.073093399 0.0073499307
-0.15626466 -3.23005e-07 0.0016299486
-0.087091558 -3.23005e-07 0.0062965006
-0.075680234 0.0059062 0.0028435998
0.150613 0.025130155 0.0020026146
-0.16833299 0.2167684 0.0055478849
0.150613 0.37178731 0.0058435015
0.150613 0.39267361 0.006137751
0.150613 0.40879685 0.0051926225
0.150613 0.41989008 0.002456937
-0.16833299 0.43653494 0.0031993501
-0.085077494 0.442981 0.0065689161
0.150613 -0.39907038 0.0102225
-0.16833299 -0.30358192 0.018264739
-0.16833299 -0.29135662 0.01588125
-0.16833299 -0.20991395 0.01115112
0.16538 -0.094191536 0.014082128
0.150613 -0.044537663 0.018961214
0.10903692 0.0059062 0.014386564
-0.16833299 0.097432025 0.012051139
0.16802624 0.12978753 0.016141038
0.15564789 0.35476163 0.01676535
0.150613 0.39518499 0.016449966
0.077783458 0.442981 0.011895504
0.1430425 0.442981 0.019126687
-0.16833299 -0.43006581 0.023514856
-0.095318019 -0.43116796 0.029186619
-0.083873473 -0.43116799 0.027489657
0.16242699 -0.2698122 0.027666459
0.16538 -0.10481048 0.022450695
-0.16833299 -0.094023272 0.027756736
-0.16833299 -0.048219744 0.020301297
0.150613 -0.015593512 0.024227971
-0.11999083 -3.23005e-07 0.027314439
0.1347761 -3.23005e-07 0.024193399
0.011219922 0.0059062 0.020835381
0.10153324 0.0059062 0.022086434
0.150613 0.0088627134 0.024757782
-0.16833299 0.099227645 0.022659563
-0.16833299 0.19632816 0.02775469
-0.16833299 0.22513412 0.022234552
-0.16833299 0.24824749 0.025564618
0.0035378113 0.442981 0.025807828
0.150613 -0.34429374 0.036668777
0.16242699 -0.32725868 0.031499881
-0.16833299 -0.16553164 0.037009083
-0.16833299 -0.049224362 0.035515543
-0.16833299 -0.030799035 0.039534003
0.150613 -0.0071367081 0.035314959
0.16562721 0.13541999 0.03581569
-0.16833299 0.14206707 0.031580925
0.16242699 0.21927841 0.031177171
0.16242699 0.28603545 0.031339981
0.1677656 0.31500381 0.032105669
0.033184957 0.442981 0.036940925
0.13533409 0.442981 0.039962832
-0.10997157 -0.43116799 0.048084565
-0.031016981 -0.43116796 0.04597196
-0.16833299 -0.39673626 0.048075143
-0.16833299 -0.38033238 0.043317836
0.15857086 -0.32668936 0.04267972
-0.16833299 -0.18278496 0.048916034
0.150613 -0.06043268 0.046096563
-0.038201287 -3.23005e-07 0.04004427
-0.1226211 0.0059062 0.046980228
-0.16833299 0.02737638 0.044882357
-0.16833299 0.03502433 0.040724106
-0.16833299 0.069633864 0.045066167
-0.16833299 0.26295164 0.044168767
-0.13785066 0.442981 0.046873864
0.030903338 0.442981 0.041751545
-0.16833299 -0.40346131 0.053796396
-0.16833299 -0.39997408 0.051025189
0.16538 -0.12561724 0.057586186
-0.15427247 -3.23005e-07 0.051301628
-0.024742324 0.0059062 0.056794912
0.150613 0.04885304 0.056914363
-0.16833299 0.081692494 0.051570728
-0.16833299 0.098024033 0.054531842
0.16538 0.12014486 0.051710505
0.16351241 0.15449472 0.056759216
0.16242699 0.24107306 0.052187946
0.16314904 0.29758909 0.052592777
0.16037527 0.34313306 0.056800902
-0.16833299 0.41446844 0.056422021
-0.15859514 0.442981 0.0546114
-0.12279795 0.442981 0.054668237
-0.010935755 0.442981 0.050265461
-0.032939315 -0.43116796 0.063408747
-0.16833299 -0.36472934 0.060881823
0.16538 -0.11554705 0.066475883
-0.16833299 -0.054041345 0.068903267
-0.16833299 -0.038559951 0.064373873
0.12670462 -3.23005e-07 0.067530222
-0.16242699 0.004539364 0.065750718
0.0098259058 0.0059062 0.06016437
0.061956108 0.0059062 0.062511861
-0.16833299 0.031086262 0.064350531
-0.16833299 0.12062144 0.062199131
0.16538 0.1468032 0.06455531
0.16664842 0.16750261 0.06980934
0.16242699 0.17473112 0.067296162
-0.16833299 0.21117076 0.06929411
-0.13278134 0.442981 0.064726703
-0.10770172 0.442981 0.066646099
-0.056708202 0.442981 0.063006923
0.074176177 0.442981 0.06995219
-0.033868439 -0.43116802 0.071723156
0.093327977 -0.43116802 0.079591632
0.150613 -0.39930785 0.070320785
0.150613 -0.351641 0.075021408
0.15994292 -0.31020412 0.073403105
-0.16833299 -0.25070494 0.077243418
0.16731608 -0.16697083 0.071966037
-0.16833299 -0.13576593 0.0744216
-0.16833299 -0.11346094 0.077064559
0.16513807 -0.11437023 0.070502058
-0.16833299 -0.070758276 0.074133538
-0.0029402263 -3.23005e-07 0.073699325
0.12146121 0.0059062 0.076148771
0.13627644 0.0059062 0.077631757
-0.16833299 0.11577035 0.079604067
0.150613 0.33715612 0.071287625
0.150613 0.34777278 0.070111796
-0.16833299 0.38133562 0.078827806
0.150613 0.39822039 0.075278819
-0.061457999 0.442981 0.073288888
-0.051637392 0.442981 0.072513312
-0.029552359 0.442981 0.076399811
0.021607788 0.442981 0.077273756
0.11990206 -0.43116799 0.08311668
-0.16833299 -0.3341139 0.083155185
-0.16833299 -0.13416353 0.084205292
0.1494391 -0.049074702 0.083555542
-0.13420229 -3.23005e-07 0.080215737
0.057457093 -3.23005e-07 0.081309825
0.091225676 -3.23005e-07 0.085973188
-0.090163216 0.0059062 0.085184723
-0.072660916 0.0059062 0.086731106
-0.067638703 0.0059062 0.082921326
-0.016440058 0.0059062 0.081527367
-0.16833299 0.14587252 0.080362044
0.16629452 0.18207189 0.086307839
-0.16833299 0.36308253 0.083466545
0.045010827 0.442981 0.086063921
-0.15495163 -0.43116802 0.09934295
-0.14211188 -0.43116796 0.094854571
-0.093319826 -0.43116799 0.099135846
0.094057508 -0.43116802 0.091264702
0.150613 -0.42127234 0.099907458
-0.16833299 -0.41922107 0.091729932
-0.16833299 -0.39233983 0.099863008
0.150613 -0.39815634 0.098966643
0.150613 -0.34412527 0.09863162
0.150613 -0.12680124 0.096875526
0.150613 -0.11110064 0.098185614
0.14470699 -0.041607615 0.090919904
-0.076604351 -3.23005e-07 0.092119575
0.10067564 -3.23005e-07 0.095667705
0.030499835 0.0059062 0.092657983
0.087191097 0.0059062 0.090417825
0.12701613 0.0059062 0.099672005
-0.16833299 0.21139777 0.096497387
-0.16833299 0.29830882 0.092871234
-0.10364408 -0.43116799 0.10287057
-0.08045914 -0.43116799 0.10936951
-0.16833299 -0.39794797 0.10818636
0.150613 -0.33898142 0.10629324
0.16538 -0.15503798 0.10201468
-0.16833299 -0.052030761 0.10816232
0.15061301 -0.02439753 0.10537393
-0.11621585 0.0059062 0.10007565
-0.0090837087 0.0059062 0.10052923
0.14470699 0.0014308242 0.10423856
0.150613 0.015641747 0.10783465
-0.16833299 0.049085699 0.10174897
0.150613 0.044206209 0.10681751
0.150613 0.11122966 0.10626987
0.16538 0.16483907 0.10681365
-0.16833299 0.17570662 0.10339563
-0.16833299 0.18034083 0.10608502
0.16538 0.2008304 0.10712514
0.150613 0.33464038 0.10557319
0.150613 0.36649314 0.10663628
0.150613 0.42029893 0.10594458
0.14499988 0.442981 0.10787848
-0.091072649 -0.43116799 0.11745672
-0.019515548 -0.43116799 0.11941391
-0.16833299 -0.37015575 0.11621255
-0.16833299 -0.31541458 0.11431283
0.15061298 -0.15007441 0.11175778
0.15061298 -0.081122011 0.1147828
-0.16833299 -0.072831593 0.11332161
0.150613 -0.077143587 0.11663774
0.14635077 -0.0409532 0.11396935
-0.12182844 -3.23005e-07 0.11880355
0.079613805 -3.23005e-07 0.11789612
0.088360652 -3.23005e-07 0.11102988
-0.16571108 0.0067596403 0.11772646
-0.1283735 0.0059062 0.11681454
-0.062887028 0.0059062 0.11076677
-0.020690646 0.0059062 0.11447807
-0.014448497 0.0059062 0.11437035
0.150613 0.026032489 0.11053166
0.15548681 0.15619218 0.1132449
-0.16833299 0.18285309 0.11303982
0.16538 0.18146348 0.11644307
0.150613 0.30618325 0.1114873
-0.16833299 0.41204801 0.11231086
-0.16833299 0.43409824 0.1181568
-0.040901482 0.442981 0.11922628
-0.12194266 -0.43116799 0.1281925
0.11750087 -0.43847048 0.12897253
0.150613 -0.41424927 0.12107215
-0.16833299 -0.29873598 0.12888056
-0.16833299 -0.2530106 0.12116231
-0.16833299 -0.21276799 0.12276958
0.15061298 -0.080327705 0.1299879
0.150613 -0.024623394 0.12339498
0.074663848 -3.23005e-07 0.12911189
0.11357731 -3.23005e-07 0.12164455
-0.16833299 0.036787014 0.12103259
0.150613 0.042508591 0.12974638
-0.16833299 0.054773934 0.12561303
-0.16833299 0.082226485 0.1264756
-0.16833299 0.17168014 0.12322466
0.162413 0.17317493 0.12098146
0.16242699 0.21588936 0.12825891
-0.16833299 0.42632794 0.12174249
-0.076835215 0.442981 0.12697712
-0.15583089 -0.43304223 0.13209681
-0.10335629 -0.43116802 0.1375929
0.11115896 -0.43116799 0.13542847
0.150613 -0.41335958 0.13028467
0.150613 -0.25960043 0.13554998
-0.16833299 -0.19721532 0.13475519
0.150613 -0.17982955 0.134286
0.150613 -0.010616717 0.13547157
-0.13736284 -3.23005e-07 0.13921066
-0.1451555 0.0059062 0.13607074
0.03753395 0.0059062 0.13664988
0.078430489 0.0059062 0.13989691
0.083955489 0.0059062 0.13163371
0.093118027 0.0059062 0.13997374
0.150613 0.1385864 0.13648735
-0.16833299 0.22688174 0.13759069
0.150613 0.22969118 0.13394521
0.150613 0.28449833 0.13214184
0.150613 0.43814424 0.13467452
0.033880472 0.442981 0.13088453
-0.16340917 -0.43116796 0.14998521
-0.12576331 -0.43116802 0.14223616
-0.057763405 -0.43116799 0.14304851
0.030563779 -0.43116796 0.14924479
0.067722484 -0.43116799 0.14897512
0.092871256 -0.43116799 0.14034387
0.14049986 -0.43116799 0.14754091
-0.16833299 -0.42758113 0.14945297
0.150613 -0.40555349 0.14815882
0.150613 -0.32903391 0.14737289
-0.16833299 -0.1586262 0.14294928
0.150613 -0.070713401 0.14336029
-0.16833299 -0.041719962 0.14483994
-0.15312882 -3.23005e-07 0.14283617
-0.13231929 -3.23005e-07 0.14359148
0.0076778452 -3.23005e-07 0.14468418
0.026372343 -3.23005e-07 0.14413382
0.11095016 -3.23005e-07 0.14275539
0.13107306 -3.23005e-07 0.14655979
-0.063421294 0.0059062 0.14122801
0.065072522 0.0059062 0.14182699
0.071748048 0.0059062 0.14159308
0.1142205 0.0059062 0.14752816
0.150613 0.045925029 0.14466642
0.150613 0.19925931 0.14986451
-0.16833299 0.3148956 0.14481513
-0.16833299 0.33098444 0.14827316
0.150613 0.39263156 0.14966419
-0.11870576 0.442981 0.14858501
0.12186027 -0.42990762 0.159473
0.11713606 -0.40325412 0.159473
-0.1642386 -0.39800251 0.15825845
-0.0069821253 -0.39715806 0.159473
-0.034324016 -0.38512373 0.159473
0.08537215 -0.380265 0.159473
-0.14537117 -0.37357008 0.159473
-0.11774329 -0.37884724 0.159473
-0.01423005 -0.37501937 0.159473
0.059577003 -0.37345248 0.159473
0.086332202 -0.36724696 0.159473
-0.16833299 -0.35650954 0.15393955
-0.018092602 -0.33339649 0.159473
0.150613 -0.33293873 0.15795279
-0.16139047 -0.32377446 0.159473
0.12553762 -0.32301101 0.159473
0.14148299 -0.32657081 0.159473
0.041907106 -0.31208792 0.159473
-0.12106374 -0.30234557 0.159473
0.09276627 -0.30830655 0.159473
0.12551168 -0.30909988 0.159473
0.06421639 -0.29521859 0.159473
-0.12018041 -0.28195521 0.159473
0.02830518 -0.27628168 0.159473
0.069310121 -0.27954981 0.159473
-0.16833299 -0.25638387 0.15820912
-0.078870177 -0.24667588 0.159473
-0.049691483 -0.24608301 0.159473
-0.035571013 -0.24206197 0.159473
-0.066449262 -0.23783578 0.159473
0.0036041408 -0.22462817 0.159473
-0.15240557 -0.21500397 0.159473
-0.14532548 -0.21105348 0.159473
-0.13764791 -0.21331558 0.159473
-0.11731419 -0.21932989 0.159473
-0.065261833 -0.2170954 0.159473
-0.024594283 -0.21264403 0.159473
-0.16833299 -0.20841083 0.15072346
-0.12959495 -0.20608208 0.159473
-0.076048657 -0.20731273 0.159473
-0.0515965 -0.20020561 0.159473
-0.12432937 -0.19018549 0.159473
-0.027910065 -0.18202955 0.159473
0.031366855 -0.18574896 0.159473
0.018659316 -0.17693703 0.159473
-0.073994279 -0.16124298 0.159473
0.0093765333 -0.15253167 0.159473
-0.017338922 -0.14219342 0.159473
0.0040107071 -0.14987834 0.159473
0.081730299 -0.14204682 0.159473
0.11523305 -0.14383152 0.159473
-0.1395627 -0.13349609 0.159473
-0.15320873 -0.12178407 0.159473
-0.012329556 -0.12753002 0.159473
0.11460729 -0.12955102 0.159473
-0.077647135 -0.11226165 0.159473
0.043061219 -0.1190521 0.159473
0.13429037 -0.11240481 0.159473
-0.0091640875 -0.10989251 0.159473
-0.10185693 -0.096504383 0.159473
-0.06585063 -0.093874916 0.159473
0.03344477 -0.094564058 0.159473
-0.11516559 -0.080191657 0.159473
0.14634204 -0.083939359 0.159473
-0.10699068 -0.073394604 0.159473
0.063292608 -0.075309031 0.159473
-0.15723352 -0.069319956 0.159473
-0.060467385 -0.062239975 0.159473
-0.034103472 -0.061326478 0.159473
0.14455587 -0.068486184 0.159473
0.12763812 -0.056025103 0.159473
-0.068234876 -0.045665778 0.159473
0.090588734 -0.044219159 0.159473
0.10455288 -0.040025041 0.159473
-0.07128229 -0.022361409 0.159473
-0.042626455 -0.016119787 0.159473
0.005181253 -0.015893232 0.159473
0.02206108 -0.014660461 0.159473
-0.1534324 -3.23005e-07 0.15791707
-0.057365671 -3.23005e-07 0.1557858
-0.05892498 0.0059062 0.15093596
0.057148192 0.0059062 0.15577683
-0.046092011 0.010719987 0.159473
0.08288525 0.021937128 0.159473
-0.13445356 0.035120927 0.159473
-0.048191048 0.032009277 0.159473
0.0023373589 0.034379423 0.159473
0.1139756 0.034224331 0.159473
0.13744169 0.045970608 0.159473
-0.029144796 0.062151171 0.159473
-0.067626588 0.070889108 0.159473
0.00033264607 0.074853353 0.159473
0.055579968 0.074502818 0.159473
0.071612224 0.07584969 0.159473
-0.11634678 0.080174476 0.159473
-0.11989245 0.097317331 0.159473
-0.075197019 0.10043581 0.159473
0.096993551 0.10743169 0.159473
-0.1209295 0.11336315 0.159473
-0.057483885 0.11528363 0.159473
-0.025503539 0.11653714 0.159473
0.089500777 0.1350172 0.159473
0.13729601 0.13621563 0.159473
0.064161122 0.14446683 0.159473
0.1258485 0.14250025 0.159473
-0.018329483 0.15032215 0.159473
-0.13871484 0.16938475 0.159473
-0.015589097 0.16106391 0.159473
0.066025175 0.1797958 0.159473
0.11470531 0.18511227 0.159473
0.10492539 0.19941364 0.159473
-0.15858038 0.20329265 0.159473
-0.12159751 0.20252463 0.159473
0.034220912 0.20790815 0.159473
-0.10215701 0.21386626 0.159473
-0.098482393 0.2131409 0.159473
0.039443292 0.21833675 0.159473
0.090719141 0.21052164 0.159473
-0.078899778 0.22503239 0.159473
-0.054088108 0.22966251 0.159473
0.015635137 0.22428289 0.159473
0.037852567 0.22710484 0.159473
0.0051837373 0.24584033 0.159473
0.058976375 0.245782 0.159473
-0.052318368 0.25599071 0.159473
-0.15700264 0.26897144 0.159473
0.13074097 0.26162639 0.159473
0.099240988 0.27712193 0.159473
0.10998843 0.27696019 0.159473
-0.14914124 0.28014243 0.159473
-0.13524859 0.28951833 0.159473
-0.11611076 0.28703704 0.159473
-0.099723272 0.29656059 0.159473
-0.030989613 0.29000562 0.159473
0.11367571 0.29734689 0.159473
0.12179455 0.29731074 0.159473
-0.087497622 0.30437738 0.159473
0.10142592 0.3058255 0.159473
-0.16603991 0.31796315 0.159473
-0.083617881 0.32292092 0.159473
0.071015641 0.32658789 0.159473
-0.16833299 0.33085084 0.15859139
-0.0272246 0.33051902 0.159473
0.010616504 0.338377 0.159473
0.077925637 0.33617631 0.159473
0.10505395 0.33131275 0.159473
0.11204289 0.33855435 0.159473
0.13290933 0.33446175 0.159473
-0.026812412 0.34752947 0.159473
-0.14785649 0.35355482 0.159473
-0.039820172 0.35153055 0.159473
-0.11800341 0.36520714 0.159473
0.0026986822 0.36295986 0.159473
-0.16833301 0.37786403 0.1586629
-0.032695867 0.37920392 0.159473
0.080191411 0.37642211 0.159473
0.019651636 0.38006639 0.159473
0.067067578 0.38266599 0.159473
-0.08929044 0.39296225 0.159473
-0.05018755 0.39415312 0.159473
-0.10759883 0.40099278 0.159473
0.089853927 0.40540397 0.159473
-0.0082022101 0.42139208 0.159473
-0.1621353 0.43870345 0.159473
0.10754941 0.43293279 0.159473
-0.16823006 0.442981 0.15884981
0.13615415 0.44160751 0.15947299
