# .PCD v0.7 - Point Cloud Data file format
VERSION 0.7
FIELDS x y z
SIZE 4 4 4
TYPE F F F
COUNT 1 1 1
WIDTH 988
HEIGHT 1
VIEWPOINT 0 0 0 1 0 0 0
POINTS 988
DATA ascii
-0.19771686 -0.33980694 -0.27154601
-0.14478754 -0.33966869 -0.27154601
-0.14544944 -0.31972173 -0.27154601
-0.12750621 -0.31303677 -0.27154601
-0.028768219 -0.29907066 -0.27154601
0.032671958 -0.27129862 -0.27154601
0.13355026 -0.27758327 -0.27154601
0.16441672 -0.27591577 -0.27154601
0.1844414 -0.267061 -0.27154601
0.21717487 -0.26261932 -0.27154601
0.019587308 -0.25160953 -0.27154601
-0.22903043 -0.23105334 -0.27154601
0.024613358 -0.23556516 -0.27154601
-0.086985841 -0.22844607 -0.27154601
0.16963828 -0.22978239 -0.27154601
-0.11140569 -0.21262014 -0.27154601
-0.01337155 -0.21963015 -0.27154601
-0.13787608 -0.19067416 -0.27154601
0.05960447 -0.1884377 -0.27154601
0.093459353 -0.18697239 -0.27154601
-0.014464404 -0.16704142 -0.27154601
0.087134704 -0.15332563 -0.27154601
0.1880503 -0.15748464 -0.27154601
-0.15618293 -0.13797659 -0.27154601
0.11219741 -0.1385034 -0.27154601
0.13043854 -0.13277905 -0.27154601
0.14369309 -0.12020461 -0.27154601
-0.07401067 -0.11846976 -0.27154601
0.18244524 -0.11181063 -0.27154601
0.1912623 -0.11984926 -0.27154601
-0.1227975 -0.10379358 -0.27154601
0.22027013 -0.10976057 -0.27154601
-0.21694769 -0.093234971 -0.27154601
0.061471052 -0.09413527 -0.27154601
-0.12170328 -0.08196272 -0.27154601
-0.063366517 -0.088277787 -0.27154601
-0.047464583 -0.088381678 -0.27154601
0.00018805265 -0.086738475 -0.27154601
-0.24439199 -0.0774239 -0.27070007
-0.14068758 -0.079165988 -0.27154601
-0.032518618 -0.076067105 -0.27154601
0.10926236 -0.076888703 -0.27154601
-0.11447059 -0.058097161 -0.27154601
0.11075825 -0.05638079 -0.27154601
-0.12718661 -0.032868452 -0.27154601
0.18180609 -0.014165312 -0.27154601
-0.16914168 -0.0010929145 -0.27154601
0.17733018 -0.0053838119 -0.27154601
-0.16872919 0.0045704134 -0.27154601
-0.090314478 0.0085155964 -0.27154601
0.012504317 0.0028109103 -0.27154601
0.044973999 0.0034899786 -0.27154601
-0.0022011474 0.01888831 -0.27154601
-0.023398302 0.030562237 -0.27154601
0.035617411 0.030367315 -0.27154601
0.097853981 0.034311015 -0.27154601
0.10745904 0.034881391 -0.27154601
-0.18116227 0.040689841 -0.27154601
0.011685006 0.050013453 -0.27154601
-0.13517416 0.079841323 -0.27154601
-0.12841964 0.080858767 -0.27154601
-0.0069842171 0.082701981 -0.27154601
0.10138526 0.083001584 -0.27154601
0.13004129 0.088173956 -0.27154601
-0.075095534 0.097538382 -0.27154601
0.095978402 0.090851046 -0.27154601
0.15729572 0.095697537 -0.27154601
-0.2040574 0.10814053 -0.27154601
-0.11857361 0.10152245 -0.27154601
-0.071515299 0.10659444 -0.27154601
-0.035385307 0.13288292 -0.27154601
-0.15064484 0.15629891 -0.27154601
-0.12735018 0.16208011 -0.27154601
-0.028865047 0.1633189 -0.27154601
-0.01604829 0.17280576 -0.27154601
0.033265099 0.17779307 -0.27154601
0.046736382 0.17444891 -0.27154601
-0.10163514 0.18147567 -0.27154601
-0.015385687 0.1977165 -0.27154601
0.0098406412 0.19127584 -0.27154601
-0.20225836 0.20659178 -0.27154601
-0.036179487 0.20573534 -0.27154601
0.025486752 0.20256218 -0.27154601
0.030587409 0.22617614 -0.27154601
-0.16324116 0.24015015 -0.27154601
0.082529478 0.25695062 -0.27154601
-0.1628053 0.26234293 -0.27154601
0.016243212 0.26759896 -0.27154601
-0.083777778 0.27249241 -0.27154601
0.092067331 0.30762246 -0.27154601
0.20028049 0.30915293 -0.27154601
-0.0060566813 0.31794232 -0.27154601
-0.07577882 0.33366841 -0.27154601
-0.24366356 0.34114417 -0.27154601
-0.074633911 -0.34137297 -0.26102445
0.22111601 -0.12266264 -0.26078707
-0.24439198 -0.1084833 -0.26952529
0.22111601 0.23869227 -0.26135376
0.089411281 -0.341373 -0.25230157
0.10602467 -0.34137297 -0.25663862
-0.24439201 0.1385498 -0.25432691
0.205599 0.31083354 -0.25530952
0.099001475 0.341373 -0.25068983
0.13942999 -0.34137303 -0.24026398
-0.24439199 -0.30491889 -0.24180217
0.12109125 -0.29568917 -0.248271
-0.15554231 -0.26574379 -0.24489543
-0.044835627 -0.26498461 -0.24827102
-0.16480462 -0.25571728 -0.248271
0.12351962 -0.2438679 -0.248271
0.17303704 -0.2460098 -0.248271
-0.24439199 -0.23725501 -0.24640745
-0.042664975 -0.23316228 -0.24827102
0.061699346 -0.23690569 -0.24827102
-0.02667667 -0.21162349 -0.24827102
0.014693193 -0.21454637 -0.24827102
-0.18620655 -0.19694413 -0.248271
-0.1079144 -0.19661316 -0.24827099
0.14941989 -0.19379142 -0.24827099
0.17440763 -0.19350778 -0.248271
-0.14588957 -0.18311787 -0.248271
-0.12288996 -0.18638113 -0.24827099
0.18555944 -0.18115179 -0.248271
-0.20809968 -0.15901108 -0.248271
0.17877346 -0.14205797 -0.248271
-0.20990354 -0.13668665 -0.24827099
0.038955919 -0.13611495 -0.248271
-0.20953661 -0.12581009 -0.248271
0.01232294 -0.12659115 -0.248271
0.22111601 -0.12936088 -0.24281254
-0.1559197 -0.11363824 -0.248271
-0.10770954 -0.11656406 -0.24827099
0.040733814 -0.11728165 -0.24827102
0.12954134 -0.11132072 -0.248271
-0.10583569 -0.10345749 -0.24827099
0.16935821 -0.10308637 -0.248271
0.16244479 -0.090650089 -0.248271
0.10186392 -0.083638743 -0.248271
0.22111601 -0.084696174 -0.24753004
-0.24439199 -0.064597875 -0.24221174
-0.15135825 -0.052169986 -0.24827102
0.19670795 -0.046736225 -0.248271
-0.1166757 -0.029593542 -0.24827102
0.003130164 -0.021273065 -0.248271
0.11623947 -0.024044283 -0.248271
-0.16185398 -0.019177213 -0.24827102
0.18293791 0.01259762 -0.24827102
0.14193267 0.025709651 -0.24827099
0.18562528 0.029404065 -0.24827099
0.19451614 0.022735998 -0.248271
-0.24439201 0.041067392 -0.24437061
-0.042247765 0.043999843 -0.248271
-0.077389315 0.059621967 -0.24827099
-0.089957073 0.063912414 -0.248271
0.064676248 0.084239379 -0.24827099
-0.20855875 0.096184172 -0.24827102
-0.10161723 0.095856957 -0.24827102
-0.16885743 0.10900989 -0.24827102
-0.21656616 0.117981 -0.248271
0.034223586 0.11908707 -0.248271
-0.1890493 0.12288371 -0.24827099
-0.080016874 0.13070047 -0.24827099
-0.19162463 0.14344622 -0.248271
-0.09582825 0.15898088 -0.248271
-0.059696764 0.15280595 -0.24827099
0.13419433 0.15730229 -0.248271
0.18194325 0.15607482 -0.248271
0.22111601 0.16656345 -0.24975321
-0.1393131 0.17561853 -0.24827102
-0.091371149 0.17005581 -0.24827102
-0.12134431 0.18072014 -0.24827102
0.083980381 0.18814339 -0.24827099
0.15965551 0.18572955 -0.24827102
-0.049511664 0.19737917 -0.24827099
0.0074653029 0.19962178 -0.248271
0.07117971 0.20778231 -0.248271
0.13876916 0.20575565 -0.248271
-0.20689456 0.21686254 -0.248271
-0.18120122 0.21079549 -0.24827102
-0.14186139 0.21267179 -0.248271
0.031619884 0.21258233 -0.24827099
0.056527555 0.21246077 -0.248271
-0.18696642 0.22577816 -0.24827099
0.187802 0.22752801 -0.248271
-0.10212117 0.23680627 -0.24827099
-0.24439199 0.24629453 -0.2443554
-0.15839574 0.2402259 -0.248271
0.14442764 0.24362901 -0.24827102
0.048851587 0.25845689 -0.248271
0.004588902 0.27003515 -0.24827099
0.059059061 0.28835407 -0.24827102
-0.21742967 0.3000612 -0.248271
0.007879898 0.30234817 -0.248271
-0.18483721 0.31591171 -0.24750322
-0.088729098 0.31809801 -0.24222401
-0.05243852 0.31809801 -0.24594417
-0.041436918 0.3158229 -0.24827099
-0.038896564 0.341373 -0.24724364
0.10377698 -0.34137303 -0.23044148
0.22111601 -0.3386963 -0.23462272
-0.24439201 -0.15341738 -0.23581821
-0.24439199 -0.022549912 -0.23129526
-0.24439199 0.31395474 -0.23422521
-0.24439198 0.33549133 -0.23997316
-0.012070396 0.341373 -0.23761159
-0.24439199 -0.32621333 -0.2211118
0.12392385 -0.30714628 -0.22274864
0.030358404 -0.29328471 -0.22344059
-0.22111702 -0.04836572 -0.2221323
-0.24439201 0.073459744 -0.22471966
0.22111601 0.19073811 -0.2278778
-0.2094046 0.34137297 -0.22707221
-0.028572023 0.341373 -0.22800565
-0.060974933 -0.341373 -0.21045133
0.17898822 -0.341373 -0.21763805
-0.24439201 -0.33839437 -0.21437848
-0.221117 -0.19729631 -0.2102237
-0.24439199 -0.17948441 -0.21066731
0.22111601 -0.16006489 -0.21190947
-0.24439201 0.16810089 -0.2176452
-0.221117 0.29716077 -0.21426134
-0.19227996 0.31809798 -0.21858796
-0.141937 0.341373 -0.21104613
0.06880457 0.341373 -0.21806407
-0.071315609 -0.34137297 -0.20582858
-0.034300588 -0.341373 -0.20658615
0.01016701 -0.341373 -0.2084721
0.21661435 -0.34137297 -0.20182794
-0.24439199 -0.33698851 -0.20921561
-0.221117 -0.12672901 -0.20095077
-0.24439201 -0.084677383 -0.20119397
-0.22111702 -0.068473078 -0.20111978
-0.24439198 -0.059101522 -0.20729959
0.2315654 0.021106673 -0.20287
0.205599 0.24633007 -0.20540524
-0.0091712847 0.31809801 -0.20683399
0.07101845 0.31809801 -0.20343287
-0.23055303 0.341373 -0.20811826
-0.022862917 0.341373 -0.20813704
0.045022756 0.341373 -0.20535931
-0.243931 -0.341373 -0.19512448
-0.11054967 -0.341373 -0.19520368
0.20036447 -0.341373 -0.19194202
-0.053511966 -0.28085941 -0.19767487
-0.047523297 -0.28174666 -0.19491462
-0.034084983 -0.28373754 -0.19891891
-0.021595642 -0.28558779 -0.19694415
0.22014238 0.23898202 -0.19536768
-0.025523245 0.31809801 -0.19217163
-0.091626026 -0.341373 -0.18462773
0.10832369 -0.34137303 -0.18432063
0.13604096 -0.341373 -0.18323316
0.15210706 -0.341373 -0.18032345
-0.14403661 -0.26744837 -0.18126439
-0.221117 0.24219012 -0.18232499
-0.1877474 0.31809801 -0.18625186
0.077601545 0.31809801 -0.18452449
-0.03057209 0.341373 -0.18369234
0.19041494 0.341373 -0.18464407
0.021291509 -0.341373 -0.17066222
0.11805233 -0.30627644 -0.17439662
0.22111601 -0.26208115 -0.17451394
-0.24439201 -0.24103019 -0.17170867
-0.22111702 -0.13746896 -0.17939255
0.22111601 -0.11259875 -0.17428017
-0.24439199 -0.076844424 -0.17530046
0.236633 0.02895841 -0.174943
0.24350771 0.031792749 -0.1724124
-0.221117 0.10046763 -0.1798607
-0.24439199 0.19283515 -0.17580286
-0.22111699 0.22069822 -0.17670169
-0.22111702 0.29243678 -0.1703909
0.205599 0.29196298 -0.17485103
0.205599 0.30367991 -0.17978036
-0.1891935 0.31809801 -0.17679724
-0.16086702 0.31809801 -0.17795162
0.02931229 0.31809801 -0.17417753
0.037556604 0.34137297 -0.17306188
0.076127589 0.341373 -0.1750699
-0.13369776 -0.341373 -0.1656957
-0.1013293 -0.341373 -0.16902712
-0.046313304 -0.341373 -0.16681744
0.12540388 -0.341373 -0.16984308
0.15525872 -0.341373 -0.16412169
0.22111601 -0.3078202 -0.16530591
0.22111601 -0.26543343 -0.16925529
0.22449431 0.098843329 -0.16059402
0.11506864 0.341373 -0.16180308
-0.09872438 -0.341373 -0.15931049
0.16876078 -0.3137888 -0.15619192
0.13358903 -0.30857816 -0.15897566
-0.03375325 -0.28378665 -0.15604517
-0.22111699 -0.20876561 -0.1512014
-0.24439198 0.13263831 -0.15353155
-0.24439201 0.26015881 -0.15225938
-0.083254084 0.341373 -0.15712404
0.063628264 0.34137303 -0.15196821
-0.09244962 -0.341373 -0.14475501
0.11862381 -0.341373 -0.14253579
-0.032375723 -0.28399074 -0.1428231
-0.0029970184 -0.28834316 -0.14399251
-0.221117 -0.24446253 -0.14570548
-0.19191429 0.34137303 -0.14598837
0.030561574 0.34137303 -0.14797978
0.086812034 0.34137297 -0.14002684
-0.16250461 -0.341373 -0.1395411
0.10368863 -0.341373 -0.13728084
0.14627902 -0.341373 -0.13073176
0.20669082 -0.341373 -0.13801235
-0.027443595 -0.28472143 -0.13733092
0.22111601 -0.28759611 -0.1354806
-0.221117 -0.21923888 -0.13751443
0.236633 -0.14104468 -0.13021089
-0.22111702 0.16787975 -0.13800891
-0.24439199 0.20483002 -0.13977575
-0.24439201 0.28258553 -0.1344526
-0.20834559 0.341373 -0.13035601
-0.041844107 0.341373 -0.1321772
0.003812246 0.34137303 -0.13161939
0.013940476 0.341373 -0.13888308
-0.070215076 -0.341373 -0.12433329
0.039240591 -0.34137303 -0.12790097
0.083108179 -0.341373 -0.12522112
0.17447236 -0.341373 -0.12213785
0.12930357 -0.30794328 -0.12080026
-0.221117 -0.24992554 -0.12926199
0.23689903 -0.15280601 -0.12662487
0.22887501 -0.056577966 -0.12347992
0.228875 -0.044858091 -0.12586357
-0.221117 0.033424914 -0.12238393
-0.24439201 0.12278819 -0.12039055
-0.221117 0.15215118 -0.12914823
0.205599 0.3022249 -0.12418322
-0.057340443 0.31809801 -0.12648672
-0.083243437 0.341373 -0.12315978
0.19594832 -0.34137297 -0.11579607
0.15017581 -0.31103545 -0.11864287
0.12750538 -0.30767688 -0.11283097
0.013386406 -0.29077035 -0.11802431
0.22111601 -0.27085215 -0.1189879
-0.18330577 -0.26163068 -0.11102472
0.22111601 -0.22309378 -0.11728892
-0.221117 -0.092240818 -0.11742496
-0.24439201 0.10791057 -0.11884428
-0.24439199 0.22171338 -0.11860113
0.20978129 0.226087 -0.1104771
-0.24439201 0.31476274 -0.11357912
0.025063071 0.31809801 -0.11810278
0.205599 0.31113312 -0.11147608
0.22111602 -0.31182623 -0.10609438
-0.22111702 -0.1336222 -0.10728908
-0.24439201 -0.061480209 -0.10330797
-0.24439199 0.058210939 -0.10645177
-0.221117 0.067353241 -0.10054387
-0.24439199 0.26146993 -0.10777485
-0.20073988 0.31809801 -0.10318624
0.088784412 0.31809801 -0.10959265
0.205599 0.32917878 -0.10062724
-0.11274877 0.341373 -0.10104648
0.19001655 0.341373 -0.10341584
0.18412197 -0.341373 -0.091306344
0.22111601 -0.32849395 -0.099244699
0.16024727 -0.31252754 -0.090776987
-0.24439198 -0.17322057 -0.09738712
-0.221117 -0.17731586 -0.092659488
-0.22111699 -0.032794654 -0.095345736
-0.221117 0.010538474 -0.091316387
-0.24439201 0.08293166 -0.094179474
0.236633 0.14744546 -0.099630058
0.20559901 0.22926793 -0.093490317
0.21443339 0.226087 -0.098083965
0.18435901 0.31809801 -0.09896744
-0.010736935 0.341373 -0.09096808
0.14622681 0.341373 -0.092839539
0.070106179 -0.341373 -0.082036458
0.22111601 -0.3412677 -0.086301729
0.090659015 -0.30221814 -0.089422561
-0.24439199 -0.28413394 -0.08234065
0.236633 -0.16644862 -0.081465088
-0.221117 -0.069853857 -0.085995622
0.20559898 0.26083085 -0.085706823
0.092230886 0.31809801 -0.088661611
-0.081021935 0.341373 -0.082577132
0.11513392 0.341373 -0.088141501
0.16682684 -0.31350228 -0.077654362
-0.18881035 -0.26081517 -0.077135868
0.23259252 -0.15799487 -0.078984082
0.205599 0.2515457 -0.073095575
-0.24439201 0.26991758 -0.0735607
-0.030782629 0.31809801 -0.077761911
0.16785319 0.31809801 -0.079542555
-0.24439198 0.34124801 -0.07334245
0.050041765 0.341373 -0.072197132
0.22111601 -0.33133206 -0.060235322
0.22111601 -0.27208215 -0.064941235
0.22111601 -0.20444025 -0.066279218
0.24435017 -0.17496967 -0.067311496
-0.221117 -0.14029907 -0.069805063
-0.24439199 -0.085643172 -0.061801866
-0.24439199 0.010657199 -0.068126507
-0.24439201 0.07682392 -0.061260611
0.205599 0.290611 -0.066345029
-0.018803246 0.31809801 -0.066473231
0.036241155 0.31809801 -0.061297648
-0.16887042 0.341373 -0.06298504
0.151217 0.341373 -0.067555286
0.21284564 -0.341373 -0.056639552
0.16147903 -0.31271002 -0.051556781
-0.221117 -0.25451097 -0.057709649
-0.221117 -0.17926988 -0.057769854
0.228875 -0.089423172 -0.050911505
0.228875 -0.052724659 -0.059326526
-0.24439198 0.090792641 -0.055488307
-0.24439201 0.11542954 -0.050313056
0.23663299 0.15197894 -0.059291631
-0.23270145 0.341373 -0.054040045
0.086399704 0.341373 -0.057815522
0.12211967 -0.341373 -0.042342789
0.19328934 -0.31742269 -0.042964995
-0.24439198 -0.14632955 -0.049013395
-0.24439198 -0.038721085 -0.047720842
-0.24439199 0.018470505 -0.040566854
-0.24439201 0.30841765 -0.046326939
0.0067989463 0.31809801 -0.047701579
0.016636308 0.341373 -0.042782988
0.17910908 0.34137303 -0.044937477
0.019306455 -0.341373 -0.035506465
0.079774603 -0.341373 -0.033041496
0.050319135 -0.29624188 -0.039478529
0.064004935 -0.29826939 -0.037051551
0.0055964664 -0.28961626 -0.039238013
0.22111601 -0.26304623 -0.032267317
-0.21235099 -0.25732768 -0.033782043
0.22887498 -0.0044959961 -0.039042324
0.23264536 0.18172553 -0.034013093
-0.24439201 0.27027819 -0.03794232
-0.24439198 0.32347929 -0.038086846
-0.0077119991 0.341373 -0.030461311
-0.13090111 -0.34137303 -0.028428029
-0.079209775 -0.341373 -0.024784597
0.22111601 -0.33521509 -0.029113717
0.228875 -0.05390979 -0.024323031
-0.221117 0.038267136 -0.028481565
0.228875 0.090352826 -0.021991769
-0.22111702 0.21827409 -0.022767276
-0.19786796 0.31809801 -0.028861433
-0.10360131 0.31809801 -0.023489609
0.045113787 0.31809801 -0.021551527
-0.057141501 0.341373 -0.020922273
-0.082846746 -0.34137297 -0.017815646
-0.24439201 -0.31013498 -0.016891919
0.1086082 -0.30487728 -0.013620526
0.017474093 -0.29137591 -0.014215677
-0.061009124 -0.27974871 -0.011498053
-0.24439198 -0.25324914 -0.011747871
-0.24439198 0.16625012 -0.011943791
-0.17095435 0.31809801 -0.017868133
-0.087285548 0.31809801 -0.012719009
-0.12688199 0.341373 -0.014772147
0.16988903 0.341373 -0.016479254
0.022589389 -0.29213375 -0.0014532302
-0.24439198 -0.26477626 -0.0068071522
0.228875 -0.15560894 -0.0036779828
0.228875 -0.11766324 -0.0034956448
-0.24439201 0.083022624 -0.004257638
0.228875 0.10442154 -0.0033756867
0.205599 0.24450406 -0.0054402947
-0.20160638 0.341373 -0.0032292902
-0.17374644 0.341373 -0.0083595067
-0.16583857 0.341373 -0.00069790334
0.0063682199 -0.34137297 0.0098818913
0.041969091 -0.29500481 0.006106386
0.22111601 -0.23243725 0.0093535185
0.228875 -0.051113155 0.0076445402
-0.221117 0.0074845757 0.0056338888
0.228875 0.11280812 0.0053668176
-0.24439198 0.19312796 0.0054477639
0.205599 0.23680942 0.002586104
-0.24439199 0.24353722 0.0029065013
-0.15410021 0.31809801 0.0098281428
0.00032596942 0.31809801 0.0058315648
0.095377594 0.31809801 0.0032874979
-0.064531058 0.341373 0.0039063692
-0.059108742 0.341373 0.0095315129
0.21668896 -0.34137303 0.019244201
0.10764747 -0.30473495 0.011115581
-0.24439199 -0.02960556 0.014957339
-0.221117 0.077163666 0.015098789
-0.22111702 0.095473662 0.019911993
-0.22111699 0.11395264 0.011442021
-0.24439199 0.21051677 0.011737004
-0.21561503 0.31809801 0.017974095
-0.18081 0.31809801 0.017155901
-0.15761928 0.31809801 0.012550626
-0.15676364 0.341373 0.015296437
-0.2250683 -0.341373 0.027457569
0.029657226 -0.341373 0.028084032
0.22111601 -0.33505309 0.020250283
-0.051059306 -0.28122276 0.020037577
-0.24439198 -0.086325586 0.021898687
-0.24439199 -0.014945447 0.025513031
0.22887498 -0.0097394092 0.023969136
-0.24439199 0.17935108 0.022312388
0.22975563 0.183024 0.024151089
-0.221117 0.22544697 0.024469629
-0.24439201 0.26554212 0.023311302
-0.084435046 0.31809801 0.025969066
0.14101478 0.31809801 0.02542828
-0.087006018 0.341373 0.025110193
-0.043158077 0.341373 0.020621955
0.10891137 0.341373 0.02427312
0.12742527 0.341373 0.023114599
0.13438587 0.34137303 0.020976536
-0.20136192 -0.341373 0.035009831
0.1826939 -0.31585297 0.033711031
-0.18142843 -0.2619088 0.036234289
0.228875 -0.15636955 0.035046335
-0.22111699 -0.05147557 0.037488367
-0.24439199 -0.048464045 0.036723442
-0.24439201 0.022917688 0.034935735
-0.221117 0.10222522 0.031604946
0.24207917 0.16300844 0.03173434
-0.22111699 0.27947491 0.033128798
-0.15498284 0.341373 0.039210558
0.16189921 0.341373 0.03271801
-0.24439198 -0.29840127 0.049488038
0.22111601 -0.24693452 0.049661014
-0.24439199 -0.10172378 0.040054373
-0.221117 0.16266611 0.045337114
-0.24439201 0.20083061 0.047583401
-0.221117 0.21892521 0.043211706
0.22111601 0.21428069 0.040120363
0.15261303 0.31809801 0.044174716
0.1327415 0.341373 0.045921512
0.18014407 0.341373 0.042257011
-0.064164765 -0.341373 0.050931636
0.10523997 -0.3043783 0.059364147
-0.046659708 -0.2818746 0.050844803
-0.221117 -0.24347821 0.050826553
-0.221117 -0.12680206 0.051008154
-0.24439199 0.028858775 0.05399036
-0.24439198 0.043680929 0.059821106
-0.221117 0.13102727 0.055290759
0.205599 0.2681337 0.058261506
-0.24439198 0.29133749 0.054897301
-0.221117 0.29756421 0.057615928
-0.24439199 0.30526891 0.053120889
-0.061874256 0.31809801 0.059843808
0.17316702 0.31809801 0.057817027
-0.0014630556 0.341373 0.055378132
-0.24403669 -0.341373 0.068356134
-0.24439198 -0.27414227 0.063629448
-0.24439198 -0.095347732 0.061711226
-0.221117 0.11230402 0.061546758
-0.24439199 0.13239716 0.06351541
0.24142668 0.16986413 0.06422323
0.22111601 0.22342832 0.065448657
0.205599 0.29464549 0.069799662
0.088646099 0.31809801 0.061996039
0.17779246 0.31809801 0.067404263
0.029888332 0.341373 0.067607947
0.052502632 0.341373 0.06946753
-0.05665892 -0.28039321 0.072998062
0.22111601 -0.28584185 0.070503473
-0.24439198 -0.21113546 0.071126014
0.22887501 -0.06305629 0.079338774
0.228875 -0.039159182 0.07623335
-0.221117 -0.023602288 0.071834259
-0.22111702 0.013027087 0.078205965
-0.22111699 0.062806107 0.070068784
0.22887501 0.061288629 0.071772099
-0.24439199 0.1758095 0.077535599
0.11885649 0.31809801 0.075863853
-0.24439201 -0.22923532 0.08299695
0.22648484 0.16420387 0.087355554
-0.24439198 0.17709163 0.082129702
0.22111601 0.18963602 0.08066804
0.205599 0.29986435 0.089544579
-0.097196445 0.31809801 0.080600083
-0.047818005 0.31809801 0.089145914
-0.038848594 0.31809801 0.085753217
-0.060487837 0.341373 0.086986415
-0.064613588 -0.341373 0.095533714
0.037917174 -0.341373 0.096478425
0.081034862 -0.30079234 0.095208913
-0.221117 0.11565932 0.096409313
-0.24439199 0.28868866 0.090915315
0.20559898 0.28365976 0.097776003
-0.24439199 0.3083171 0.092737503
0.026365578 0.31809801 0.090514757
0.18900268 0.31809801 0.098049507
0.009351559 0.341373 0.09832982
0.20105113 0.341373 0.098959044
-0.053006507 -0.341373 0.1039359
0.015067883 -0.29101944 0.10046893
0.044587858 -0.29539281 0.1082487
-0.042195082 -0.282536 0.10810043
0.22111601 -0.22123581 0.10298262
-0.24439199 -0.18516408 0.10112576
0.2239337 -0.16980916 0.10470208
-0.24439198 -0.14689085 0.10056455
-0.221117 -0.10491942 0.10581078
-0.221117 -0.007639721 0.10308634
-0.24439199 0.12467757 0.10394445
-0.221117 0.16795093 0.10021795
-0.221117 0.19791365 0.10726938
0.20559898 0.25950569 0.10433374
-0.24439199 0.28635868 0.10647212
0.10687239 0.31809801 0.10967459
0.1515291 0.341373 0.10732201
-0.065857887 -0.341373 0.11815539
-0.0066570854 -0.341373 0.11281645
0.14728962 -0.341373 0.11228956
0.19464284 -0.34137297 0.11315304
0.02493269 -0.29248089 0.11071441
-0.11221151 -0.27216318 0.11948911
-0.13744655 -0.26842466 0.1164276
-0.24439201 -0.022530057 0.1187363
-0.221117 -0.013682768 0.1178716
-0.22111702 0.041867591 0.11280406
0.22111601 0.19171032 0.11180246
-0.22111699 0.21510643 0.11440631
-0.094623305 0.31809801 0.11263488
0.0089657865 0.341373 0.1112808
0.13167366 0.341373 0.11964733
-0.15155205 -0.341373 0.12691727
0.22111601 -0.3094987 0.12650698
0.22111601 -0.29060072 0.12177075
-0.24439199 -0.23566853 0.12762938
-0.22111699 -0.14401315 0.12831029
0.22887501 -0.10567473 0.12601173
-0.24439198 0.039474085 0.1215059
-0.24439198 0.083350763 0.12391382
0.22111601 0.15752548 0.12552881
-0.221117 0.20704187 0.12867598
-0.22891639 0.341373 0.12530416
0.11027192 0.341373 0.12713593
0.053731203 -0.341373 0.13961712
0.14573668 -0.341373 0.13335498
-0.24439198 -0.32128164 0.13322936
0.19714829 -0.31799436 0.13699546
0.23541173 -0.14802469 0.13309276
-0.221117 -0.10255689 0.13321719
-0.24439198 0.049684569 0.13019177
0.22887501 0.042562746 0.13158295
0.236633 0.10162155 0.13942695
-0.24439198 0.26166105 0.13205582
0.205599 0.2640014 0.13686752
-0.086302236 0.31809801 0.13109745
0.19534378 0.34137303 0.13382362
0.22111601 -0.32738268 0.14483523
0.22111601 -0.2258234 0.14771163
-0.22111702 -0.21222194 0.14357245
-0.24439201 -0.0003266111 0.14033712
-0.24439199 0.11156534 0.14224528
0.17618236 -0.34137303 0.15202272
-0.221117 -0.22702637 0.15274973
-0.22111699 -0.07283248 0.15313181
-0.221117 -0.067688376 0.15732867
0.228875 0.064120233 0.1527319
-0.221117 0.15503147 0.15012692
0.0079581887 0.31809801 0.15526621
0.1710391 0.31809801 0.1502983
-0.044833835 0.34137303 0.15919057
0.071951568 0.34137303 0.15332761
0.035175811 -0.341373 0.16289112
0.15358698 -0.31154084 0.16546266
0.01146684 -0.29048595 0.16921923
-0.042354491 -0.2825124 0.16535896
-0.037402511 -0.28324601 0.16919777
-0.24439201 -0.20361835 0.16375974
0.22111601 -0.15913831 0.1651374
-0.22111699 -0.14442798 0.16291387
-0.22111702 -0.067760922 0.16876215
-0.22111702 0.018349245 0.16542159
-0.24439199 0.19809902 0.16359881
-0.221117 0.26575053 0.16838861
-0.02151981 0.31809801 0.16246754
-0.0049934238 0.31809801 0.16203783
0.18368474 0.31809801 0.16093516
-0.18355383 0.341373 0.16847299
-0.044020843 0.341373 0.16296953
-0.052955892 -0.341373 0.17579159
0.22111601 -0.2532661 0.17222776
-0.24439201 -0.24009208 0.17454062
-0.221117 -0.18283942 0.17869848
-0.221117 -0.15841292 0.17002119
0.23367923 -0.095831268 0.17166553
0.236633 0.046588957 0.17216015
-0.22111702 0.091420501 0.17854029
-0.22111699 0.12289432 0.17283794
-0.24439199 0.18816687 0.17073548
0.22111601 0.18916467 0.17795917
-0.22111699 0.22305135 0.17613301
-0.24439201 0.23153678 0.17321736
0.22111601 0.23333694 0.17322159
0.088104717 0.31809801 0.17032699
-0.002982378 0.341373 0.17393064
0.035415802 0.341373 0.17831212
0.11058114 0.341373 0.17526865
0.22111601 -0.27328926 0.18905535
-0.15742236 -0.26546529 0.18689153
0.22111601 -0.22728135 0.18834868
-0.24439201 -0.15998748 0.18194959
0.24420026 -0.031541303 0.18104732
-0.221117 0.044517763 0.18444309
-0.22111702 0.22171538 0.18072648
0.205599 0.30297625 0.18485945
0.044268686 0.31809801 0.18169247
-0.24439199 0.33001682 0.18706845
-0.16355959 0.341373 0.18818811
0.037095863 0.341373 0.18904877
0.17377524 -0.341373 0.19632941
0.22111601 -0.10695224 0.19279718
0.22111601 -0.0081492625 0.19610365
-0.24439201 0.022712514 0.19857021
0.22111601 0.066379242 0.19542499
-0.24439198 0.20019946 0.19035971
-0.22111699 0.20597292 0.19109325
-0.221117 0.27370605 0.19259718
0.205599 0.29360741 0.19617179
-0.24439198 0.30106878 0.19784729
-0.079065517 0.31809801 0.19302851
0.019472979 0.31809801 0.1929028
-0.14740241 0.341373 0.19160739
-0.12743761 0.34137297 0.19545326
-0.030395672 0.341373 0.19438228
-0.24439199 -0.23860702 0.20416306
-0.24439198 0.028140999 0.20043892
-0.22111699 0.1859889 0.20308775
0.205599 0.32487145 0.20022376
-0.085608914 0.341373 0.20067632
-0.024540335 0.34137303 0.20125246
-0.19056956 -0.341373 0.21065535
-0.0053401184 -0.341373 0.21490474
-0.24439199 -0.27247211 0.21070415
-0.24439199 -0.17153312 0.21960066
-0.24439201 -0.086562246 0.21353006
-0.221117 -0.040833697 0.21852016
0.22111601 0.0387097 0.21592468
-0.221117 0.13681622 0.21484436
-0.041637078 0.31809801 0.21507631
-0.026442654 0.31809801 0.21738753
0.081411108 0.31809801 0.21322247
0.064286888 0.34137297 0.21632364
0.15485896 0.34137297 0.21428598
0.18823442 0.34137303 0.21403815
0.12211871 -0.341373 0.22228412
0.15050906 -0.341373 0.22156774
-0.24439199 -0.26858968 0.22330475
-0.24439199 -0.19684109 0.22624859
0.22111601 -0.14170083 0.2286064
0.22111601 -0.10103442 0.22460485
-0.24439201 -0.076564468 0.2230238
-0.24439198 -0.068908185 0.22475538
-0.24439199 -0.0091696084 0.22810489
-0.221117 0.1946485 0.22383627
-0.221117 0.31724763 0.22548899
0.065454803 0.31809801 0.22169605
0.036852427 0.341373 0.22966614
0.012236558 -0.29059997 0.23610625
-0.17705004 -0.26255748 0.23746425
0.22111601 0.078001566 0.23775718
-0.22111699 0.13160834 0.2342203
-0.24439199 0.1616362 0.23154745
-0.24439201 0.18956605 0.2300106
-0.016979828 0.31809801 0.23569728
0.17713711 0.31809801 0.23022464
0.18334582 0.31809801 0.23276247
0.027308628 0.341373 0.23214944
0.16866705 0.341373 0.23612446
0.11837696 -0.30632454 0.24794412
-0.039116211 -0.28299212 0.24284492
-0.013861395 -0.27371868 0.24827
0.023261771 -0.27142957 0.24827
0.07089895 -0.27896935 0.24827
0.16346292 -0.27930254 0.24827
0.19021595 -0.27822599 0.24827
-0.24439198 -0.26893973 0.24473046
0.075785033 -0.26020291 0.24827
0.11150243 -0.26182297 0.24827
-0.081617989 -0.25947309 0.24827
0.084868334 -0.24210106 0.24827
0.11149698 -0.24280263 0.24827
-0.21956065 -0.23183201 0.24827
-0.20647922 -0.23855972 0.24827
0.05357407 -0.2374606 0.24827
-0.11131476 -0.22891229 0.24827
-0.12105938 -0.21124145 0.24827
0.15393621 -0.21462665 0.24827
0.12886854 -0.20059116 0.24827
0.17544286 -0.20808092 0.24827
0.18415779 -0.2039455 0.24827
-0.13286436 -0.1999907 0.24827
-0.048897319 -0.19191742 0.24827
-0.036428623 -0.19071881 0.24827
-0.010164768 -0.19648939 0.24827
-0.24439199 -0.17837963 0.24088636
-0.22111702 -0.17168069 0.24614997
0.032728817 -0.17809258 0.24827
0.13774028 -0.17041603 0.24827
0.03068915 -0.16642092 0.24827
-0.019820355 -0.143113 0.24827
-0.0049902424 -0.14130454 0.24827
0.05779916 -0.148204 0.24827
-0.020226993 -0.12668122 0.24827
-0.14108333 -0.11658437 0.24827
0.18798241 -0.10858843 0.24827
-0.15199912 -0.092914715 0.24827
0.04863169 -0.056981321 0.24827
0.093500286 -0.049388789 0.24827
0.1508117 -0.044474527 0.24827
-0.20176294 -0.034890614 0.24827
-0.075781949 -0.030478805 0.24827
-0.13803411 -0.022079065 0.24827
-0.090935558 -0.024229094 0.24827
-0.21920119 -0.010452651 0.24827
0.16993275 -0.0055761784 0.24827
-0.15589023 0.00040014833 0.24827
-0.0099680899 0.0020022001 0.24827
0.073680967 0.0069129542 0.24827
0.13321882 0.0090480708 0.24827
-0.025511257 0.02019611 0.24827
-0.17928565 0.036665767 0.24827
0.037106238 0.035283484 0.24827
0.22111601 0.03001333 0.24588832
-0.034791671 0.045517132 0.24827
-0.0022671269 0.049360018 0.24827
0.059694044 0.049873687 0.24827
-0.034526713 0.051561013 0.24827
0.18896601 0.055089459 0.24827
0.029751405 0.086997569 0.24827
-0.05901742 0.094656385 0.24827
-0.038503781 0.098583825 0.24827
0.075668521 0.099972658 0.24827
-0.11985301 0.11205761 0.24827
0.073481023 0.11171933 0.24827
0.11183654 0.12573004 0.24827
-0.045805193 0.13743171 0.24827
0.01600866 0.14232111 0.24827
0.12524444 0.14985786 0.24827
0.17928076 0.1532412 0.24827
-0.24439199 0.16771813 0.24846414
-0.063157402 0.16450153 0.24827
0.033287898 0.16961227 0.24827
0.054140694 0.16164419 0.24827
-0.048769459 0.1777873 0.24827
-0.066684157 0.19396533 0.24827
0.14164484 0.19622019 0.24827
-0.056157365 0.20009489 0.24827
0.011575475 0.20697811 0.24827
0.17397439 0.20465697 0.24827
-0.24439199 0.21469173 0.24337494
-0.00091788918 0.22495189 0.24826999
-0.071858048 0.23113763 0.24827
0.18021694 0.23167287 0.24827
-0.18251629 0.24173008 0.24827
0.18440804 0.24471943 0.24827
-0.21711528 0.25056532 0.24826999
0.20782682 0.25344056 0.24440211
-0.15779734 0.26911747 0.24827
0.0051440746 0.26048672 0.24827
0.07655111 0.26047391 0.24827
-0.17252693 0.28402239 0.24827
0.058493368 0.2814368 0.24827
0.07400316 0.28415859 0.24827
-0.138412 0.30287558 0.24827
-0.028069794 0.30740529 0.24827
-0.16999857 0.31809801 0.24704257
0.087433241 0.31809801 0.24271236
0.1265859 0.341373 0.24603957
-0.16129743 -0.341373 0.25284925
-0.011634466 -0.341373 0.25390673
0.10598759 -0.341373 0.25583887
0.12126879 -0.341373 0.25903785
0.22111601 -0.31286702 0.25096339
-0.24439199 -0.15239653 0.25908169
0.22111601 -0.018745258 0.2506842
0.22111601 0.022151917 0.25776669
-0.18783878 0.341373 0.25257301
-0.039461665 0.341373 0.25353423
-0.029559769 0.341373 0.25975835
-0.13392146 -0.341373 0.26671517
0.06570676 -0.341373 0.26225603
0.22111601 -0.27656764 0.26460752
-0.24439198 -0.25363579 0.26449448
-0.24439201 -0.22053225 0.26948452
-0.24439201 -0.21453647 0.26092553
0.22111601 -0.12925601 0.26792601
0.22111601 0.040504664 0.26929349
-0.24439199 0.12277851 0.26883441
-0.24439199 0.15676391 0.2648817
0.22111601 0.15464129 0.26854673
-0.24439198 0.27213424 0.26909709
-0.15032119 0.341373 0.26852113
0.038496256 0.34137297 0.2616072
0.13246281 0.341373 0.2644726
-0.10324821 -0.33675385 0.27154601
0.11191786 -0.32180572 0.27154601
0.21453993 -0.31450939 0.27154601
-0.015522452 -0.30076164 0.27154601
0.14792058 -0.30590203 0.27154601
0.2055435 -0.30734217 0.27154601
-0.063195482 -0.29901531 0.27154601
0.080442399 -0.29313147 0.27154601
0.19272284 -0.28003669 0.27154601
0.037430391 -0.27925864 0.27154601
0.18851706 -0.27427575 0.27154601
0.21032692 -0.27486026 0.27154601
0.12955342 -0.26294154 0.27154601
0.17383924 -0.25032094 0.27154601
-0.21215247 -0.2400623 0.27154601
0.040602691 -0.2400033 0.27154601
0.053844474 -0.24386388 0.27154601
-0.019481128 -0.23461974 0.27154601
-0.22015733 -0.22411576 0.27154601
-0.21856929 -0.22364376 0.27154601
-0.14734751 -0.22934394 0.27154601
-0.0097453855 -0.22587226 0.27154601
-0.20328367 -0.21108508 0.27154601
0.1878576 -0.21311672 0.27154601
-0.066911884 -0.19042183 0.27154601
0.16001205 -0.19898817 0.27154601
-0.072400153 -0.17867115 0.27154601
-0.094381154 -0.16874132 0.27154601
0.15599933 -0.16946028 0.27154601
-0.005888842 -0.15868333 0.27154601
0.046786558 -0.13351966 0.27154601
0.21367638 -0.13743797 0.27154601
0.053025149 -0.12283776 0.27154601
-0.17319132 -0.10051768 0.27154601
-0.16395272 -0.10783558 0.27154601
-0.19215491 -0.090929076 0.27154601
-0.2179063 -0.072097555 0.27154601
-0.016722694 -0.071413793 0.27154601
0.10783383 -0.062103003 0.27154601
0.050078213 -0.054221541 0.27154601
0.13887466 -0.053727839 0.27154601
-0.22578345 -0.043455131 0.27154601
0.12871873 -0.039233278 0.27154601
-0.2032682 -0.022948623 0.27154601
0.069601454 -0.021825731 0.27154601
-0.079473585 0.0020405129 0.27154601
-0.044348232 0.00084268302 0.27154601
0.1164962 0.019020073 0.27154601
-0.064527556 0.020479575 0.27154601
0.16019475 0.038760096 0.27154601
-0.15772988 0.046015173 0.27154601
-0.17282698 0.054840691 0.27154601
-0.14422253 0.052699678 0.27154601
-0.1542035 0.071910389 0.27154601
-0.020385191 0.071602464 0.27154601
-0.083496004 0.086744398 0.27154601
-0.22005433 0.11779471 0.27154601
-0.12594739 0.12070383 0.27154601
-0.088214934 0.12777272 0.27154601
0.096225724 0.12272839 0.27154601
-0.094377816 0.13413279 0.27154601
0.19746214 0.13320018 0.27154601
0.035057798 0.14200272 0.27154601
0.10828044 0.14547457 0.27154601
-0.19338414 0.15240172 0.27154601
0.0048640966 0.15150544 0.27154601
0.2151199 0.15096934 0.27154601
0.091187708 0.17045918 0.27154601
-0.22427085 0.18807566 0.27154601
-0.21148095 0.18818261 0.27154601
-0.073127508 0.18227917 0.27154601
-8.0741942e-05 0.18285933 0.27154601
0.055134218 0.19809449 0.27154601
-0.11454952 0.20765051 0.27154601
0.081754193 0.21189159 0.27154601
0.19480345 0.21440287 0.27154601
-0.031811483 0.22791262 0.27154601
0.12849881 0.23271431 0.27154601
0.024844021 0.24824522 0.27154601
0.19220427 0.24822706 0.27154601
-0.047442533 0.25864559 0.27154601
0.093100697 0.25195625 0.27154601
-0.18925363 0.27047607 0.27154601
-0.16555616 0.28078684 0.27154601
0.014460757 0.29975605 0.27154601
0.10362954 0.31272709 0.27154601
0.083377853 0.32029682 0.27154601
0.036979862 0.33844107 0.27154601
-0.21602499 0.341373 0.27064371
-0.14067726 0.34137303 0.27037627
0.13792804 0.341373 0.27149364
