# .PCD v0.7 - Point Cloud Data file format
VERSION 0.7
FIELDS x y z
SIZE 4 4 4
TYPE F F F
COUNT 1 1 1
WIDTH 983
HEIGHT 1
VIEWPOINT 0 0 0 1 0 0 0
POINTS 983
DATA ascii
-0.2564052 -0.21084014 -0.29201844
-0.28440052 -0.15074442 -0.29313651
-0.2313835 -0.15682182 -0.29057571
-0.2482879 -0.14827418 -0.2915504
-0.25098956 -0.10794583 -0.29170614
-0.26710814 -0.042023033 -0.29263556
-0.28210488 0.062501729 -0.29350024
-0.26807463 0.11018528 -0.29269129
-0.26351753 0.13165878 -0.29242849
-0.23490438 0.13175496 -0.2907787
-0.22701932 0.14596942 -0.29032403
-0.22884193 0.21015197 -0.29042912
-0.255458 0.22529967 -0.29196379
-0.2680757 0.23460954 -0.29269132
-0.22378051 0.24899539 -0.29013732
-0.22879933 0.25003412 -0.29042667
-0.27272841 -0.252235 -0.28917989
-0.13824785 -0.2401661 -0.28520548
-0.11172511 -0.24036419 -0.28367621
-0.1958297 -0.22526523 -0.28852564
-0.055983238 -0.22559363 -0.28046215
-0.076007023 -0.21545818 -0.28161669
-0.061152115 -0.20885514 -0.28076017
-0.20390567 -0.19936895 -0.28899133
-0.16920897 -0.17986736 -0.2869907
-0.19534025 -0.16918483 -0.28849742
-0.12412119 -0.13353485 -0.28439096
-0.087477565 -0.13264893 -0.28227809
-0.14326227 -0.12635751 -0.28549463
-0.16135092 -0.098217532 -0.28653762
-0.16060445 -0.083609723 -0.28649455
-0.28505823 -0.07784494 -0.28172997
-0.086031131 -0.072571121 -0.2821947
-0.22040212 -0.051191509 -0.2899425
-0.1790545 -0.050966382 -0.28755841
-0.16179955 -0.016188718 -0.28656346
-0.069986314 0.00496131 -0.28126955
-0.15233649 0.010342062 -0.28601784
-0.1302067 0.013449978 -0.28474185
-0.055027597 0.038598388 -0.28040704
-0.21696496 0.049714118 -0.28974432
-0.20999691 0.044864178 -0.28934252
-0.17358027 0.049348116 -0.28724274
-0.13048577 0.078732505 -0.28475794
-0.11530259 0.077421829 -0.28388247
-0.076966338 0.077236138 -0.281672
-0.18424901 0.082484752 -0.28785789
-0.15221097 0.083168939 -0.28601059
-0.13289134 0.096366316 -0.28489664
-0.068047538 0.10812055 -0.28115773
-0.052868113 0.11135814 -0.2802825
-0.14713706 0.12139767 -0.28571802
-0.059108235 0.12122092 -0.28064233
-0.058907356 0.17920184 -0.28063077
-0.28492597 0.19540374 -0.28402364
-0.20410858 0.23789847 -0.28900301
-0.077133648 0.23228073 -0.28168166
-0.1389807 -0.252235 -0.27242586
0.021914773 -0.24921201 -0.27597052
0.10448219 -0.22988647 -0.27120972
0.11775796 -0.18357405 -0.27044424
-0.020838102 -0.17442301 -0.27843568
-0.029929459 -0.10273311 -0.27895987
0.05701863 -0.10249236 -0.27394646
0.08064314 -0.092122257 -0.27258426
0.0040015876 -0.085891366 -0.27700341
-0.28560477 -0.058701113 -0.2722514
-0.010882922 -0.058693253 -0.27786165
-0.025579765 -0.045421354 -0.27870905
0.031127386 -0.049837254 -0.27543935
0.037750728 -0.032275125 -0.27505744
0.070362441 -0.036836334 -0.27317706
0.1061582 -0.036711123 -0.2711131
-0.28568792 -0.020953514 -0.27080926
0.03208264 -0.021323271 -0.27538431
-0.2851682 -0.010743894 -0.27982306
0.0096835196 -0.016389526 -0.27667582
0.11602055 0.00024131685 -0.27054441
0.095022336 0.016647097 -0.27175516
-0.0058614463 0.021875065 -0.2775721
0.077903092 0.021486033 -0.27274227
0.096378237 0.043917246 -0.27167702
0.018535435 0.075162068 -0.2761654
0.039588124 0.070450909 -0.27495152
0.025682274 0.09571714 -0.27575332
0.050450325 0.10997776 -0.27432519
0.077357516 0.10853529 -0.27277374
0.013251342 0.1180045 -0.27647007
-0.28521138 0.16161649 -0.27907372
0.0087135807 0.17192188 -0.27673173
-0.28549367 0.18883507 -0.27417833
0.047150336 0.18148196 -0.27451548
0.079474226 0.19524857 -0.27265167
-0.28541481 0.20278284 -0.27554581
0.041452833 0.20255929 -0.27484399
0.022729427 0.2124975 -0.27592358
0.057672463 0.21774045 -0.27390876
0.1085059 0.21990851 -0.27097771
-0.03682217 0.22915374 -0.27935731
0.014921555 0.23417017 -0.27637374
0.10911107 0.23738983 -0.27094281
-0.010125816 -0.252235 -0.26741314
0.13552099 -0.18456885 -0.26942003
0.16550304 -0.1865553 -0.26769128
0.24664776 -0.16149379 -0.26250738
0.14343409 -0.15622073 -0.26896375
0.21618384 -0.15863222 -0.26476902
0.24269608 -0.13834946 -0.26324034
0.22113109 -0.12392422 -0.26448375
0.23709062 -0.11583033 -0.26356354
0.23783332 -0.04365056 -0.26352072
0.17444563 -0.020792916 -0.26717564
0.17262904 -0.016781911 -0.26728037
0.2244817 -0.016011134 -0.26429057
0.24831292 0.01104296 -0.26213816
0.12687977 0.060312599 -0.26991829
0.19774821 0.096163243 -0.26583204
0.15647213 0.11821216 -0.26821199
0.20448717 0.11623823 -0.26544344
0.13112418 0.12128332 -0.26967353
0.19619605 0.1374929 -0.2659215
0.13878973 0.1504503 -0.26923156
0.18780324 0.16810536 -0.26640546
0.24156502 0.16294774 -0.26330557
0.14926985 0.17740017 -0.26862729
0.18350473 0.17793086 -0.2666533
0.20319234 0.1786489 -0.26551813
0.23671418 0.1874074 -0.26358527
0.20692419 0.19370124 -0.26530293
0.21486808 0.19622129 -0.26484489
0.157203 0.20525509 -0.26816985
0.16260327 0.23887992 -0.26785845
-0.1614275 -0.252235 -0.25351623
0.12450092 -0.252235 -0.25524279
-0.2863881 -0.2440829 -0.25866652
0.26937935 -0.12674305 -0.25409433
-0.28670108 -0.052359559 -0.2532385
0.26926139 -0.0067752674 -0.25416809
0.26766431 0.17630288 -0.25501993
-0.28652975 0.22984114 -0.25620946
0.26538104 0.22048387 -0.25611019
-0.20239276 0.252235 -0.25336722
-0.045869082 0.252235 -0.2523748
0.2826364 -0.044117659 -0.24469998
0.27675942 0.033728853 -0.24937959
0.2771171 0.16563602 -0.24909478
0.27945027 0.25163701 -0.247237
-0.082474418 -0.252235 -0.23207538
0.065922856 -0.252235 -0.2377587
0.1022208 -0.252235 -0.23019406
0.28887653 -0.252235 -0.23513061
0.28825104 -0.13903347 -0.23917903
-0.28785291 0.074995577 -0.23326263
0.29447925 0.14544272 -0.23163433
0.044980794 0.252235 -0.23011507
0.15011285 0.252235 -0.23446125
-0.090766564 -0.252235 -0.22278741
-0.0024757236 -0.252235 -0.22131643
0.11599866 -0.252235 -0.22288364
-0.28842616 -0.23521265 -0.22332108
-0.2885623 -0.15004653 -0.22095999
-0.2885026 -0.11860462 -0.22199534
0.29834151 -0.029166766 -0.2255978
-0.2882182 0.1211213 -0.2269274
0.29718834 0.18712172 -0.22744757
-0.28849366 0.24343444 -0.2221505
0.032097071 0.252235 -0.22800343
0.12432861 0.252235 -0.22629139
-0.24000086 -0.252235 -0.21676035
-0.14162444 -0.252235 -0.21593508
0.11551745 -0.252235 -0.21690513
0.30455387 -0.19056022 -0.21228372
-0.28878933 -0.15525165 -0.21702252
0.30351675 -0.13142046 -0.21530902
-0.28906548 -0.08845216 -0.21223338
-0.28899729 -0.037456721 -0.21341607
-0.28892547 -0.020104602 -0.21466202
0.30290642 0.12672025 -0.21664388
0.3052581 0.15526822 -0.21022943
-0.28903109 0.19678912 -0.21283029
-0.28907809 0.21166655 -0.21201468
0.091561437 0.252235 -0.21157685
0.10712716 0.252235 -0.21968359
0.16654035 0.252235 -0.21294604
0.17825076 0.252235 -0.21868412
-0.17207107 -0.252235 -0.20425598
0.17264971 -0.252235 -0.2015644
0.30703485 -0.034978155 -0.20390701
0.30771232 0.1162653 -0.20082766
-0.11195886 0.252235 -0.20397431
0.069600388 0.252235 -0.20779023
-0.20188744 -0.252235 -0.19292656
-0.19614331 -0.252235 -0.19220914
-0.10114961 -0.252235 -0.19844691
0.20468299 -0.252235 -0.19657728
0.24452636 -0.252235 -0.19327162
0.3079153 -0.22892061 -0.19990504
0.30899224 -0.16409227 -0.19117653
-0.29006383 -0.14571363 -0.19491982
-0.2900885 -0.02078151 -0.19449164
-0.22040997 0.252235 -0.19980083
0.14242229 0.252235 -0.19812499
0.2155748 0.252235 -0.19523379
0.25436702 0.252235 -0.19179527
-0.012101799 -0.252235 -0.18729319
0.062738717 -0.252235 -0.18194632
-0.2907007 -0.1856748 -0.18387437
-0.29042464 -0.17991313 -0.18866201
-0.29051414 -0.16324195 -0.18710974
0.30871525 -0.10121108 -0.18189146
0.30868015 -0.040487908 -0.18127935
-0.15516812 -0.030280694 -0.18129565
-0.14775632 -0.031065855 -0.18069763
-0.15561715 -0.02852729 -0.18170263
-0.21222959 -0.016386272 -0.18760572
-0.17407061 0.013293399 -0.18441375
-0.29079092 0.02760553 -0.18230978
-0.16425361 0.03068452 -0.18300922
-0.29079556 0.11127062 -0.18222938
-0.29090515 0.14677535 -0.18032867
0.30912286 0.19267845 -0.18896382
-0.29045069 0.22697805 -0.18821071
-0.26724651 0.252235 -0.18264572
-0.25459564 0.252235 -0.18359223
-0.012573324 -0.252235 -0.17134809
-0.2914381 -0.16439152 -0.17108624
0.30840835 -0.1616755 -0.17656986
-0.027485743 -0.047872368 -0.17010993
-0.077767208 -0.039074995 -0.17492127
0.016203258 -0.016560512 -0.17439629
-0.051283397 -0.0051572938 -0.17822421
-0.025831044 -0.0026748162 -0.17663687
0.30824342 0.00081220758 -0.17370501
-0.29101431 0.028516959 -0.1784353
-0.25045437 0.034528058 -0.17327796
-0.064746454 0.034892745 -0.17620464
-0.074888296 0.042887114 -0.17422502
-0.21736178 0.050977014 -0.17984509
-0.12916149 0.053145923 -0.17406367
-0.1876986 0.07246282 -0.17124258
0.3085953 0.18309902 -0.17980635
-0.29096329 0.20110425 -0.17932013
-0.096708633 -0.252235 -0.16201916
-0.083100721 -0.252235 -0.16719911
0.0026362836 -0.252235 -0.16895345
0.22363132 -0.252235 -0.16431214
0.30755767 -0.1733961 -0.16181843
0.30765602 -0.12057079 -0.16352086
-0.17245281 -0.088549025 -0.16116202
-0.11238781 -0.070539176 -0.16698679
0.056614645 -0.062671363 -0.16129965
0.089482747 -0.060903952 -0.16031593
-0.29188541 -0.055251591 -0.16332866
-0.0013626441 -0.043608814 -0.16953033
0.025792252 -0.049061283 -0.16677949
0.14790438 -0.022881607 -0.16542847
0.10573409 -0.0039459374 -0.16911213
0.30782574 0.014583712 -0.16646083
0.088102236 0.022894822 -0.16883382
0.1635292 0.027230011 -0.16427563
0.13095747 0.030975215 -0.16597317
0.30745608 0.058780275 -0.16004802
-0.29151148 0.074228533 -0.16981329
-0.24322072 0.081269234 -0.16991749
-0.17878741 0.08303494 -0.16506438
-0.16824885 0.089309767 -0.16041271
-0.10503842 0.081953883 -0.16150871
-0.23635942 0.092468277 -0.16230427
-0.29170293 0.13596387 -0.16649318
0.30765998 0.15290393 -0.1635821
-0.29255152 -0.19126914 -0.15177606
0.30736095 -0.11940984 -0.15840344
-0.19964761 -0.1059956 -0.15197088
-0.088968411 -0.10000786 -0.15043887
-0.096650124 -0.098437212 -0.15169179
0.069197774 -0.067318305 -0.15817754
0.1423752 -0.050308201 -0.15978622
-0.29226911 -0.04120291 -0.15667406
0.21938908 -0.042948805 -0.15694508
0.2882089 -0.048199501 -0.15183565
-0.29223633 -0.032228492 -0.15724248
0.26060793 -0.035846591 -0.15611202
0.29336596 -0.011952416 -0.15867917
0.26548904 0.023140663 -0.15859403
0.2427236 0.041985497 -0.15620056
0.25595134 0.04403092 -0.15478171
0.26568985 0.045410886 -0.15377754
0.13931656 0.072880194 -0.15225282
-0.29226637 0.22403434 -0.15672171
-0.083305642 0.252235 -0.15089588
-0.0280472 0.252235 -0.15715192
0.30725795 0.25081933 -0.15661871
-0.11048103 -0.252235 -0.14707074
0.058223546 -0.252235 -0.14086686
0.24773943 -0.252235 -0.14405884
0.30655316 -0.21824363 -0.14439505
-0.089847758 -0.11067212 -0.14138618
0.30635229 -0.10500585 -0.14091152
-0.039696865 -0.098925926 -0.1481559
0.02706385 -0.099357836 -0.14408381
0.084263742 -0.099087931 -0.14092493
0.18925448 -0.081291556 -0.14404893
-0.29297447 -0.031796016 -0.14444147
0.14553945 0.077792443 -0.14974213
0.23943895 0.082950361 -0.14100376
-0.29320484 0.16104853 -0.14044589
0.30881822 0.19432473 -0.14028302
-0.17414512 0.252235 -0.14419486
-0.14583343 0.252235 -0.14159159
0.085189283 0.252235 -0.14303912
0.17220882 0.252235 -0.14401457
-0.093912192 -0.252235 -0.13318726
0.027907111 -0.252235 -0.13113636
0.1702957 -0.252235 -0.13683352
0.19794655 -0.252235 -0.13823625
-0.29375583 -0.21301055 -0.13089022
0.30597916 -0.093481034 -0.13444126
-0.29363778 -0.013683088 -0.13293776
-0.25274348 0.070672229 -0.13356668
0.114943 0.10243976 -0.13562213
0.30584431 0.10532587 -0.13209513
-0.014216639 0.11887732 -0.13075355
-0.2407681 0.12755373 -0.13424584
0.053738736 -0.252235 -0.12189329
-0.29383516 -0.20429695 -0.12951462
-0.04383973 -0.1273454 -0.12356718
-0.25342926 -0.024166778 -0.12167186
-0.29419127 0.079539612 -0.12333865
0.15177041 0.11363795 -0.12628163
0.16447158 0.11925977 -0.12002876
-0.058826365 0.12839356 -0.12282898
-0.011410594 0.12318237 -0.12584315
0.0078694075 0.12033843 -0.12786844
-0.29425061 0.13718858 -0.12230963
0.30545849 0.17733726 -0.12540653
-0.2943117 0.23476604 -0.12125062
-0.27990144 0.252235 -0.12247787
-0.21694614 0.252235 -0.12484401
-0.17175552 0.252235 -0.12779886
-0.045296535 0.252235 -0.12221691
-0.22670628 -0.252235 -0.11926078
-0.15358235 -0.252235 -0.11028668
0.29693156 -0.252235 -0.11326177
0.01020202 -0.13472633 -0.1137371
0.30489865 -0.083062097 -0.11570431
0.30524197 -0.054405753 -0.11451101
0.30510932 0.10846489 -0.11934733
0.27508134 0.1204051 -0.11238773
-0.2949056 0.14531891 -0.11094999
-0.18422064 0.14233758 -0.11467835
-0.079932414 0.14063402 -0.11054422
-0.22229241 0.252235 -0.11722289
-0.031517774 0.252235 -0.11307979
-0.29496181 -0.14384171 -0.10997549
-0.065198615 -0.14171569 -0.10799637
0.1856702 -0.13350138 -0.10473367
0.2123262 -0.13655396 -0.10002968
-0.25445545 -0.029071737 -0.10387133
-0.25467697 -0.01821634 -0.10002933
0.31255281 -0.006652914 -0.10382744
-0.29507884 0.0123308 -0.10794528
-0.29545146 0.078965768 -0.10148372
-0.29524332 0.14143142 -0.10509375
-0.295248 0.22266595 -0.10501238
-0.24008255 -0.252235 -0.099980012
-0.29587877 -0.22253802 -0.094072707
-0.20528989 -0.15532465 -0.094887935
0.12389507 -0.14482389 -0.092254266
0.061076574 0.14842798 -0.092096426
0.24630217 0.14135873 -0.090934128
-0.29608363 0.16833085 -0.090519771
0.074718468 0.252235 -0.098483093
-0.16828875 -0.252235 -0.086443588
-0.15154554 -0.252235 -0.081040859
-0.037161186 -0.252235 -0.082291588
0.22464341 -0.252235 -0.083793528
-0.29623884 -0.22165428 -0.087828062
-0.29621428 -0.16459702 -0.088254124
-0.14214501 -0.16044149 -0.083281286
-0.14875486 -0.15904345 -0.085838802
0.21381421 -0.14588629 -0.085415706
0.26386279 -0.14136179 -0.089573428
0.30984873 -0.074746728 -0.080521651
-0.29659322 0.051583879 -0.081682265
-0.21134481 0.15918922 -0.086869381
-0.14081004 0.15746959 -0.086147726
0.072246186 0.1534397 -0.08170262
-0.22061354 0.252235 -0.088382557
-0.08554437 0.252235 -0.085021451
-0.17865962 -0.252235 -0.070108756
-0.04771613 -0.16311479 -0.07053294
0.073185056 -0.15545098 -0.078634456
0.20247316 -0.1528632 -0.075208291
-0.25616384 0.080861062 -0.074251749
0.26195091 0.15014204 -0.077179551
-0.12419375 0.16315329 -0.074132606
-0.019357404 0.16023941 -0.073756382
0.0014352873 0.16109425 -0.070894547
-0.26450425 0.252235 -0.07823471
-0.20086262 -0.252235 -0.068475157
-0.06653177 -0.252235 -0.067465216
0.0407096 -0.252235 -0.068090811
0.12732936 -0.252235 -0.069743305
0.1842991 -0.15984382 -0.065389149
0.2129118 -0.1579071 -0.066754334
-0.29747745 0.035386741 -0.066347502
-0.19678178 0.16956976 -0.060774513
-0.14397243 0.16793557 -0.064780466
-0.11951464 0.16869937 -0.060337376
0.30521327 0.21453686 -0.063305661
-0.29832065 -0.23348042 -0.051724017
-0.29794192 -0.17055687 -0.058292329
-0.2572898 -0.11907642 -0.054724872
-0.29787821 -0.10790737 -0.059397459
-0.25731227 0.0097107887 -0.054335855
-0.25732893 0.015090294 -0.054046787
-0.29789621 0.040395185 -0.059084993
-0.14082414 0.1694873 -0.057928629
-0.12179283 0.16970992 -0.055803649
-0.050992511 0.16850051 -0.057304487
0.13775778 0.16575366 -0.053969968
-0.20603848 0.252235 -0.054644268
0.011562988 0.252235 -0.056287467
0.049624946 0.252235 -0.057026751
-0.24967021 -0.252235 -0.042800084
0.076324813 -0.252235 -0.040683478
-0.24080387 -0.1753177 -0.043148562
-0.2016594 -0.17411616 -0.044997681
0.046185985 -0.17085785 -0.040898897
0.14448582 -0.16931118 -0.040068824
0.25983572 -0.16581319 -0.044359252
-0.29893035 -0.10487143 -0.041150518
-0.29882449 -0.06144825 -0.042986248
0.30902871 0.0011621949 -0.042711642
0.29556313 0.10540565 -0.047471337
-0.29858321 0.12983558 -0.04717055
-0.20543808 0.17238282 -0.048287168
-0.078930132 0.17149213 -0.045104608
-0.02156968 0.17021772 -0.047680538
0.046002217 0.17012218 -0.044225466
-0.29893452 0.23592344 -0.041077837
-0.27825361 0.252235 -0.049237743
0.22626422 0.252235 -0.048724212
-0.2943579 -0.252235 -0.032702859
-0.071759328 -0.252235 -0.039812602
-0.068378925 -0.252235 -0.037398875
0.043326359 -0.252235 -0.031422742
0.30029419 -0.22249106 -0.035842299
-0.29924175 -0.2032446 -0.035749719
-0.14541546 -0.17501228 -0.038951788
-0.12741792 -0.17514722 -0.037491925
0.15671414 -0.17192039 -0.031202327
0.30042168 -0.17426941 -0.038050331
0.27278888 -0.16754577 -0.038193036
-0.25849649 -0.061529554 -0.033796139
0.30883762 -0.047128804 -0.039399575
-0.29900348 0.011393708 -0.039882183
-0.29923642 0.043032393 -0.03584145
-0.25851256 0.080872223 -0.033516839
0.012969926 0.17317866 -0.032019865
-0.29945126 0.21220174 -0.032116324
-0.1333676 0.252235 -0.038458645
-0.16695547 -0.252235 -0.026302855
-0.064149819 -0.252235 -0.021570839
0.084930182 -0.252235 -0.029304935
0.29952326 -0.19010797 -0.022469336
0.29938209 -0.18684629 -0.020020984
-0.18158203 -0.17593366 -0.02692779
-0.060021013 -0.17557716 -0.027330333
-0.25914198 -0.14340445 -0.022596646
-0.29995427 -0.10240729 -0.023392823
-0.29957908 -0.063331708 -0.029899273
0.30798376 0.13084966 -0.024588998
-0.28879794 0.252235 -0.028943911
-0.04286515 0.252235 -0.029056795
0.033799216 0.252235 -0.027280658
0.11397415 0.252235 -0.023164339
0.23410918 0.252235 -0.023797231
0.29758984 0.252235 -0.027159713
-0.20011418 -0.252235 -0.019175932
-0.064821683 -0.252235 -0.015728384
0.24136886 -0.252235 -0.015169583
0.29905081 -0.2343533 -0.014278278
0.282399 -0.17407636 -0.017211704
0.30720586 -0.062100854 -0.011105212
-0.035595641 0.17734931 -0.010821374
0.17615217 0.1741498 -0.018127361
0.20426691 0.17495093 -0.012807717
-0.078136049 0.252235 -0.019942038
0.0033405796 0.252235 -0.011355937
0.04969269 0.252235 -0.017645925
-0.0090420917 -0.252235 -0.0058126263
0.048395798 -0.252235 -0.0052476674
0.15491116 -0.252235 -0.0083477572
-0.30101237 -0.2435803 -0.0050426722
-0.30110747 -0.22369832 -0.0033933073
0.29875016 -0.22471714 -0.0090637133
0.29878289 -0.21088302 -0.0096303597
0.29863656 -0.18086863 -0.0070904382
-0.04178302 -0.17658295 -0.0053679892
-0.033668011 -0.17636821 -0.0093646161
0.29955447 -0.12338451 -0.00046352157
-0.30088046 -0.092388108 -0.007330291
-0.30124912 -0.058699243 -0.00093695521
-0.30104646 0.10892635 -0.0044513941
-0.25487331 0.17669366 -0.0098273708
-0.028960399 0.17691602 -0.0014263149
-0.02755253 0.252235 -0.0007673502
0.065073088 0.252235 -0.005072495
-0.054543205 -0.252235 0.0095036775
0.0061216094 -0.252235 0.006530568
0.10293722 -0.252235 0.0042379573
0.29799837 -0.2394262 0.0039744079
0.032920662 -0.1768326 0.0041297488
-0.26069903 -0.0970954 0.004401837
-0.26094925 -0.001269117 0.008742895
-0.30152571 0.035244059 0.0038601737
0.30645198 0.095102683 0.0019711289
-0.26069039 0.1670458 0.004257828
-0.3016656 0.17240033 0.0062863305
-0.14792244 0.17647481 0.00089163909
-0.11486679 0.17652333 0.0017883752
-0.059343003 0.17634019 0.0087986719
0.17044257 0.17714155 0.0053804866
0.30269647 0.21530429 0.0092642866
-0.13036871 0.252235 0.0046444573
-0.018233851 0.252235 0.0047025532
0.0053342432 0.252235 0.00095652044
0.20200451 0.252235 0.0070697032
0.099970311 -0.252235 0.018091194
0.1530534 -0.252235 0.014082924
0.29719776 -0.16531579 0.017864006
0.30561614 -0.01743193 0.016467016
-0.26130691 0.07485614 0.014945231
-0.21481016 0.1758433 0.01017016
-0.14134318 0.175621 0.019029783
0.10978471 0.17646179 0.016021909
0.26164547 0.17678063 0.018146414
0.0071579963 0.252235 0.016005084
0.21780702 0.252235 0.018065333
-0.30033141 -0.252235 0.025155302
-0.14853226 -0.252235 0.023347355
-0.025438186 -0.252235 0.026197162
0.033004358 -0.252235 0.024430655
0.22346212 -0.252235 0.020588972
0.29691118 -0.21144533 0.02283195
-0.30291235 -0.19161904 0.027908213
-0.1988388 -0.1740939 0.021279557
-0.26211733 -0.010062173 0.028999891
0.30519027 0.010352956 0.023855535
-0.26180452 0.03008002 0.023575014
-0.26166835 0.16409683 0.021214396
0.30014139 0.1703891 0.024660222
-0.25325289 0.252235 0.022416487
-0.080687612 0.252235 0.029230287
0.2763418 0.252235 0.02256956
0.21361735 -0.252235 0.035852365
0.24671265 -0.252235 0.036461025
-0.041069552 -0.172207 0.039086256
0.034035526 -0.17332029 0.038277857
0.17830655 -0.17547822 0.036635473
0.19804606 -0.17592536 0.035709556
0.29890576 -0.14390434 0.031842187
-0.30313164 -0.093814671 0.031711392
0.061006792 0.17523253 0.037602507
0.25698498 0.17595264 0.035099417
-0.20863695 0.252235 0.031586051
-0.19955565 0.252235 0.034662984
-0.19296123 -0.252235 0.042659696
0.10068232 -0.252235 0.044282027
-0.30377397 -0.23606676 0.042850874
-0.30382109 -0.20048104 0.043668292
0.2957052 -0.18152931 0.043749273
-0.26332027 -0.14151095 0.049863558
-0.30386984 -0.082374625 0.044513829
-0.30384085 -0.068744309 0.044010773
0.3039549 0.12479956 0.045281418
-0.2630955 0.14426368 0.045970641
-0.08441326 0.17121542 0.04178204
-0.079070054 0.17066929 0.043798238
-0.055195305 0.17231661 0.040022522
-0.060593374 0.252235 0.046921924
0.17218108 0.252235 0.046164457
-0.12515207 -0.252235 0.059036233
-0.073621862 -0.252235 0.050657421
0.27077848 -0.17193405 0.058327202
-0.30473918 -0.11420126 0.059590243
-0.30446109 -0.097602949 0.054767661
-0.30453235 0.080603726 0.056003131
0.055027612 0.16981654 0.054197334
-0.085997403 0.252235 0.059182763
-0.0033386648 0.252235 0.058708757
0.073893987 0.252235 0.057315659
0.13545653 -0.252235 0.061028466
0.19381334 -0.252235 0.067469344
-0.22182149 -0.16025633 0.064019546
-0.02023446 -0.16372004 0.06890434
-0.26411748 0.13397014 0.063697785
-0.19393593 0.16196291 0.06440603
-0.30519751 0.22498685 0.067538828
0.29498744 0.231442 0.066288002
-0.27227414 0.252235 0.0654172
-0.2556549 0.252235 0.064011998
0.033236101 0.252235 0.068068884
0.068515591 0.252235 0.063278303
0.27763733 0.252235 0.068893544
0.28114304 0.252235 0.06201791
0.037516981 -0.252235 0.07735984
0.29570431 -0.11170218 0.075539336
-0.30556804 -0.046066135 0.073964864
-0.26456991 0.067554682 0.071542636
0.082756601 0.16459385 0.072131202
0.14280006 0.16323154 0.07985419
0.25282148 0.1668444 0.074898012
-0.30517808 0.252235 0.073042005
-0.28886166 0.252235 0.077662535
0.076118514 0.252235 0.072181471
-0.22145322 -0.252235 0.085721195
-0.03205467 -0.252235 0.08619155
0.072669521 -0.252235 0.085816599
0.10521147 -0.252235 0.086200453
0.25229725 -0.252235 0.08618626
-0.30620593 -0.22003183 0.085027218
-0.30591851 -0.15515867 0.080043435
-0.032547284 -0.15551808 0.084151097
0.036792286 -0.15605472 0.08710514
0.29346398 -0.15789045 0.082617484
0.30194581 -0.10881989 0.080131784
0.2932626 0.1321684 0.086105131
0.10150433 0.16080856 0.084570035
0.1971654 0.16372481 0.081446044
-0.30627584 0.24713653 0.086240172
-0.17615718 -0.252235 0.092125788
-0.14176813 -0.252235 0.092757627
-0.076093018 -0.252235 0.093881287
0.090890378 -0.252235 0.094357885
0.10542255 -0.252235 0.099715844
0.034380674 -0.15362598 0.091691136
-0.26351467 -0.14179268 0.09366636
-0.19203052 -0.14170539 0.097884372
-0.14204964 -0.14697441 0.094458714
0.30113319 -0.081582263 0.094224155
0.083741136 0.15234423 0.096723564
0.21116823 0.15565577 0.098915309
0.29287136 0.23341903 0.092888884
-0.25484037 0.252235 0.096719578
-0.041967675 0.252235 0.09358196
0.27108249 0.252235 0.093597859
0.21477874 -0.252235 0.10176612
0.29242432 -0.22682974 0.10064843
-0.30727121 -0.20303319 0.10350283
0.22789273 -0.15345988 0.10317206
0.093797959 -0.14801541 0.10603228
-0.2642405 -0.13297726 0.10334799
0.30079445 -0.022160079 0.10009898
-0.2663269 0.080689594 0.10201959
-0.30744827 0.098881453 0.10657263
-0.30749893 0.16935974 0.10745144
0.047730282 0.252235 0.10960752
-0.22025971 -0.252235 0.11001454
0.24432409 -0.252235 0.11074001
0.28437984 -0.252235 0.11773071
-0.30811635 -0.20962614 0.11815917
-0.2247286 -0.12830752 0.11077698
0.28128836 -0.079333834 0.11497057
-0.3081558 0.0097232759 0.11884392
-0.30794165 0.14536697 0.11512934
0.29502866 0.23075758 0.11333019
0.050922632 0.252235 0.11264414
0.2770561 0.252235 0.1103414
-0.28130659 -0.252235 0.12952706
-0.13029498 -0.252235 0.12326191
0.15512614 -0.252235 0.12300383
0.082467638 -0.13248366 0.12388335
0.21294929 -0.13793817 0.12539043
-0.30851695 -0.12852164 0.12510695
-0.14380932 -0.12361792 0.12061542
-0.078117006 -0.12733105 0.12030756
0.048365563 -0.12965143 0.12504104
-0.20909457 -0.11280558 0.12771553
-0.1884972 -0.11432822 0.1279218
-0.027205832 0.12692127 0.12406094
-0.01737278 0.12145856 0.12959678
0.26478547 0.1421327 0.12306009
0.27384761 0.14266206 0.12275845
-0.308337 0.24073821 0.12198609
0.19751486 0.252235 0.12583505
0.12554815 -0.12684523 0.13258652
-0.2312547 -0.1054049 0.13120747
0.29871917 -0.082630798 0.13608842
-0.30894816 0.012450304 0.13258517
0.29864594 0.034505341 0.13735588
-0.16624808 0.1048041 0.13616176
-0.0082061514 0.11599749 0.13509274
0.29055569 0.11427996 0.13305499
0.29928961 0.14874578 0.13822448
-0.2620765 0.252235 0.13489287
0.11978418 0.252235 0.13906837
0.27403322 0.252235 0.13433647
-0.26379323 -0.252235 0.14078885
0.26684004 -0.252235 0.14218816
0.18350913 -0.12119842 0.1421569
-0.026619047 -0.10750361 0.1416539
0.29387009 -0.022130348 0.14208397
-0.16471829 0.095694192 0.14224026
-0.14682013 0.098874487 0.14163202
-0.072780311 0.093189448 0.1488331
0.051820569 0.10639396 0.14728919
0.083138704 0.10725645 0.14831044
0.29567951 0.15700918 0.14542094
-0.30972916 0.16283396 0.14612937
0.29568666 0.16898525 0.1452928
-0.19079827 0.252235 0.14472711
-0.13363965 0.252235 0.1420252
0.03510312 -0.252235 0.15288757
0.046207033 -0.252235 0.15811831
0.18144879 -0.252235 0.15862013
0.28141886 -0.252235 0.1502821
0.16151007 -0.10389057 0.15482976
0.28956634 -0.096592821 0.15020947
-0.12067845 -0.066785835 0.1594862
-0.10970561 0.078065291 0.15450376
0.1388195 0.10677692 0.15195709
0.165135 0.11056151 0.15003195
-0.31012577 0.13950232 0.15300819
-0.30998614 0.17356944 0.15058656
0.29525793 0.19238341 0.15272886
-0.31032413 0.20045567 0.1564481
-0.25546622 0.252235 0.15898392
-0.21672633 0.252235 0.15223384
-0.15914975 0.252235 0.15140925
-0.10621155 0.252235 0.15579829
-0.090885192 0.252235 0.15907639
-0.032315716 0.252235 0.15888262
0.040407054 0.252235 0.15126154
0.12795871 0.252235 0.1563053
0.13586238 -0.252235 0.16194832
-0.31084254 -0.17024444 0.16543874
0.17626202 -0.095128506 0.16132739
0.20577493 -0.089620709 0.16657881
0.015565261 -0.070635967 0.16610685
-0.26817912 -0.007017063 0.16342025
-0.19279584 -0.0060526263 0.16781335
-0.31093457 0.00036744028 0.16703475
-0.31070808 0.01840131 0.16310701
-0.19587731 0.016177138 0.16832384
-0.25435561 0.028206091 0.16233727
-0.13812868 0.040330295 0.16640359
-0.09890721 0.052165072 0.16609278
0.01781565 0.0656946 0.16823654
0.089109987 0.082147345 0.16386247
0.14007457 0.085843615 0.16489469
0.17573556 0.096745312 0.16132832
0.28881568 0.093275644 0.16323201
-0.31088713 0.17633285 0.16621244
0.28872082 0.24591407 0.16487813
0.28501573 0.252235 0.16985953
-0.00010162592 -0.252235 0.17251742
0.070646249 -0.252235 0.17729667
0.2138813 -0.252235 0.17399938
0.23344131 -0.071481057 0.17839824
0.25022015 -0.074045427 0.17854306
0.065986037 -0.060590338 0.17223646
0.14654218 -0.061760161 0.17650598
-0.013898641 -0.050308716 0.17092854
-0.024379678 -0.038869873 0.17399356
0.027401395 -0.039423198 0.1768017
-0.065656655 -0.025669074 0.17419812
-0.034062296 -0.010058965 0.17677239
-0.019556062 -0.017502677 0.17724992
-0.10433923 0.0021314221 0.17330889
-0.026251391 0.0029531708 0.17785102
-0.076415256 0.025629569 0.17315748
-0.060718887 0.042855505 0.1703182
0.033920623 0.056997661 0.17270166
0.10719649 0.056502908 0.17703444
0.02178181 0.060505129 0.17114148
0.29175711 0.21647918 0.17006442
0.066856585 0.252235 0.17080843
0.1423388 0.252235 0.17082748
-0.14533988 -0.252235 0.18282114
0.15155236 -0.252235 0.18095449
0.2873356 -0.23181376 0.18890344
-0.31174985 -0.21083182 0.18117324
-0.31201881 -0.17376506 0.18583855
-0.31175312 -0.14350314 0.18123059
0.178718 -0.033219099 0.18751657
0.096263915 -0.021618037 0.18372957
0.12240183 -0.025676742 0.18504098
0.10147239 -0.018002706 0.18420418
0.14380515 -0.015209805 0.18677968
0.059703536 -0.0060304971 0.18237323
0.17439456 -0.0021611853 0.18917304
0.075071253 0.00029102108 0.1835646
0.18870531 0.029618829 0.18757755
0.20215347 0.02677438 0.18897124
0.28733516 0.020534951 0.18890643
0.11845788 0.039730355 0.18132922
0.1484659 0.037408926 0.1835641
-0.31188688 0.16773194 0.18355046
-0.22689751 0.252235 0.1844541
0.0056572333 0.252235 0.18749793
0.083837792 0.252235 0.1834158
0.12735014 0.252235 0.18939415
0.24598616 0.252235 0.18104327
-0.31232333 -0.0057666004 0.19111946
-0.31239274 0.019431936 0.1923234
0.1867698 0.017897295 0.19001363
-0.20410737 0.252235 0.19017877
-0.17286828 0.252235 0.19295883
0.10496349 0.252235 0.19221419
0.18131667 0.252235 0.19539098
0.25151139 0.252235 0.19731456
-0.20824172 -0.252235 0.20161954
-0.027098194 -0.252235 0.20452769
0.16585797 -0.252235 0.20692834
-0.31284493 -0.18555158 0.20016533
0.28667647 -0.12009287 0.20033216
0.28620592 0.064388238 0.20849201
-0.31309384 0.19535202 0.2044825
-0.31307921 0.23276815 0.20422839
0.0022690818 0.252235 0.20905964
0.1678873 -0.252235 0.21058813
-0.16001029 0.252235 0.21176653
0.13073868 0.252235 0.21650209
0.095792875 -0.252235 0.220918
0.28510451 -0.06124533 0.227598
-0.31400311 0.063058794 0.22025144
0.28512001 0.083218403 0.22732908
-0.28179029 0.252235 0.22100165
-0.064922914 0.252235 0.22837698
-0.03235317 0.252235 0.2229678
-0.015120491 0.252235 0.22209577
0.22468738 0.252235 0.22560635
-0.31316465 -0.252235 0.23983547
-0.15409546 -0.252235 0.23343919
-0.31504995 -0.14337531 0.23840669
0.28418332 -0.11510169 0.23123023
0.28305733 0.1594976 0.23523971
-0.31497109 0.16365603 0.23703876
-0.0548665 -0.252235 0.24371329
-0.31535962 -0.21106692 0.24377716
0.28076801 -0.20877188 0.24137695
-0.31536013 -0.048193302 0.24378593
-0.31541416 -0.022494398 0.2447229
-0.31555042 0.02716353 0.24708581
0.28015682 0.15196446 0.24291894
0.28014687 0.17682227 0.242944
-0.17845106 0.252235 0.24698368
0.2714892 -0.24236983 0.25835383
0.27386686 -0.12259306 0.2547586
-0.31573954 0.057037696 0.25036567
0.27240199 0.05740682 0.25697359
-0.31589141 0.064901657 0.25299996
-0.31618369 0.070061207 0.25806859
0.27099633 0.076484986 0.2590991
-0.24519145 -0.252235 0.2652823
-0.11579175 -0.252235 0.26989645
-0.31642565 -0.22043368 0.26226494
-0.2448362 -0.22245488 0.26732093
-0.28104967 -0.20834798 0.26523286
-0.28019929 -0.19730937 0.26528186
-0.31565663 -0.057207264 0.26323742
-0.27439314 -0.020358063 0.26561666
-0.2709589 -0.010781936 0.26581466
-0.3117829 0.010806859 0.26346079
-0.24805546 0.077165388 0.26713526
-0.29830378 0.089148752 0.26423797
-0.2876994 0.08665996 0.26484942
-0.25402477 0.10334669 0.26679111
-0.22339574 0.10263464 0.26855716
-0.24808949 0.12791571 0.26713333
-0.3164759 0.17637132 0.2631363
0.26436144 0.2074244 0.26714078
-0.28679049 0.22349727 0.26490182
-0.2857869 0.24788913 0.26495969
-0.25728691 0.24827056 0.26660299
0.22602978 0.252235 0.26921844
-0.11895727 -0.25184995 0.27457905
0.085743316 -0.252235 0.27572098
0.1475146 -0.252235 0.27325606
-0.079199612 -0.23129395 0.27687147
-0.10414704 -0.22555828 0.275433
-0.14088716 -0.21330738 0.27331457
-0.10587389 -0.21526454 0.27533343
0.25864023 -0.20538741 0.2727668
-0.18088004 -0.19333714 0.27100861
-0.075168997 -0.19620478 0.27710387
0.25942114 -0.1957199 0.27202326
-0.1137241 -0.17475404 0.2748808
-0.055333421 -0.17994571 0.27824759
-0.17588478 -0.15162456 0.27129662
-0.063917577 -0.15554743 0.27775261
-0.074197963 -0.13251962 0.27715987
-0.12788068 -0.12990279 0.27406451
-0.18320991 -0.081453867 0.27087426
-0.048973866 -0.081446089 0.27861428
0.25783318 -0.077690057 0.27341425
-0.12380449 -0.068034329 0.27429956
-0.048369132 -0.061344087 0.27864915
-0.15727639 -0.041071355 0.27236956
0.2611208 -0.020341359 0.27034348
-0.14537671 -0.01844012 0.27305573
-0.12401666 -0.015532175 0.27428731
-0.16217734 0.0049849749 0.27208698
-0.1535445 0.019491583 0.27258474
-0.09194319 0.013647562 0.27613667
0.25083357 0.010500059 0.27885294
0.2552442 0.028645582 0.27549124
-0.16954015 0.049679808 0.27166247
-0.062114228 0.055201657 0.27785662
-0.1064484 0.067085214 0.27530029
-0.047212217 0.11459622 0.27871585
-0.19226258 0.13991657 0.2703523
-0.16736734 0.1378116 0.27178773
-0.1120597 0.13856699 0.27497676
-0.0798086 0.13286206 0.27683637
-0.16780065 0.16382043 0.27176273
-0.15293409 0.20170052 0.27261996
-0.16291875 0.23257309 0.27204424
-0.14629506 0.23196808 0.27300274
-0.098897628 0.2365182 0.27573568
-0.089532375 0.23901364 0.27627569
-0.13856623 0.24791352 0.27344841
0.020829618 0.252235 0.27316865
0.12100451 0.252235 0.27092567
0.22516872 0.252235 0.27514309
-0.013834454 -0.25012532 0.28064042
0.11259717 -0.2429823 0.28793043
0.24208492 -0.24971622 0.28414783
0.24309979 -0.15617479 0.28363335
-0.024873 -0.12924519 0.28000391
0.07378041 -0.12094643 0.28569227
0.13725032 -0.10719036 0.28935191
0.096740671 -0.098004296 0.28701612
0.10235839 -0.09437532 0.28734004
0.11180397 -0.097198278 0.28788468
-0.0035984702 -0.085289009 0.2812306
0.088208944 -0.087575398 0.28652421
0.12696937 -0.086682864 0.28875911
0.063021012 -0.079733379 0.28507185
0.0092303231 -0.063447051 0.28197029
0.11304007 -0.036749937 0.28795594
0.072822496 -0.011453316 0.28563702
0.013718061 -0.0078744292 0.28222907
0.24371089 -0.0063230544 0.28332359
0.14757884 0.0036285818 0.28994745
0.11339347 0.035685629 0.28797632
0.071825072 0.055137001 0.2855795
0.0092356056 0.097826108 0.28197062
0.027239978 0.10398895 0.28300875
0.050994001 0.13954951 0.28437838
0.07457687 0.14071783 0.28573817
0.015148818 0.15219146 0.28231156
0.086051643 0.15206662 0.28639978
0.23368442 0.1654668 0.28802294
-0.020388225 0.18410629 0.28026253
0.12278516 0.18982676 0.28851783
0.027330615 0.19767389 0.28301397
0.23673308 0.2010756 0.28685611
0.10703538 0.21620938 0.28760973
0.037642501 0.22781053 0.28360853
0.11587733 0.24205521 0.28811955
-0.017992007 0.25099415 0.28040069
0.1590658 -0.12420703 0.29060978
0.19472426 -0.10237221 0.29266584
0.15207262 -0.053466342 0.29020655
0.18504569 -0.030344039 0.29210776
0.21642941 -0.005658729 0.29283684
0.17233509 0.016661771 0.29137486
0.1501486 0.023630045 0.29009563
0.20949867 0.08015655 0.29351771
0.150352 0.10237683 0.29010734
0.1823051 0.10823384 0.29194975
0.19275542 0.10950688 0.29255232
0.17673185 0.1133576 0.29162839
0.17150511 0.12507495 0.29132703
0.19697148 0.12751076 0.29279542
0.15228257 0.13261814 0.29021865
0.21195161 0.13180181 0.29355288
0.18105361 0.16371204 0.2918776
0.15905885 0.21207952 0.29060939
0.21064115 0.252235 0.29341978
