# .PCD v0.7 - Point Cloud Data file format
VERSION 0.7
FIELDS x y z
SIZE 4 4 4
TYPE F F F
COUNT 1 1 1
WIDTH 972
HEIGHT 1
VIEWPOINT 0 0 0 1 0 0 0
POINTS 972
DATA ascii
0.048849568 -0.35266799 -0.27132088
-0.092179835 -0.34579712 -0.27193701
-0.0050800666 -0.34000641 -0.27193701
-0.11341119 -0.33717453 -0.27193701
0.10347015 -0.33464265 -0.27193701
-0.16777463 -0.32643378 -0.27193701
0.071509793 -0.32912618 -0.27193701
-0.15505885 -0.31231797 -0.27193701
-0.060240872 -0.31594741 -0.27193701
0.12743589 -0.31863081 -0.27193701
-0.15089174 -0.30547959 -0.27193701
0.07406576 -0.30925626 -0.27193701
0.023968481 -0.29871771 -0.27193701
0.12254067 -0.29466861 -0.27193701
0.036622494 -0.28444862 -0.27193701
-0.13739359 -0.27601045 -0.27193701
-0.11972414 -0.27532181 -0.27193701
-0.072512895 -0.2705082 -0.27193701
0.18089528 -0.2727004 -0.27193701
-0.227322 -0.26971823 -0.27059254
-0.13452519 -0.26223829 -0.27193701
-0.22003789 -0.25214064 -0.27193701
-0.16530132 -0.25043136 -0.27193701
-0.12151486 -0.24145249 -0.27193701
-0.044336282 -0.24098231 -0.27193701
-0.018059991 -0.24969545 -0.27193701
0.028061107 -0.24507989 -0.27193701
0.056168701 -0.24237072 -0.27193701
0.210326 -0.24473158 -0.27065083
-0.13559571 -0.23329574 -0.27193701
0.08136218 -0.2210874 -0.27193701
-0.18067876 -0.21976459 -0.27193701
-0.15049079 -0.21223982 -0.27193701
-0.088135809 -0.21599422 -0.27193701
0.019670665 -0.21293676 -0.27193701
-0.16179934 -0.20102496 -0.27193701
-0.067228474 -0.20911595 -0.27193701
-0.030417189 -0.20864877 -0.27193701
0.013715118 -0.20567855 -0.27193701
0.13580535 -0.20334511 -0.27193701
-0.18484609 -0.19168119 -0.27193701
-0.18555361 -0.18963513 -0.27193701
-0.13292007 -0.18972611 -0.27193701
0.015283428 -0.18652165 -0.27193701
0.10240497 -0.18771812 -0.27193701
-0.095469803 -0.17874409 -0.27193701
0.038336042 -0.17078954 -0.27193701
0.12954615 -0.17684133 -0.27193701
0.1557804 -0.16740605 -0.27193701
-0.052658021 -0.1413593 -0.27193701
0.013895266 -0.1460032 -0.27193701
-0.22627659 -0.13048771 -0.27193701
0.012367301 -0.13873529 -0.27193701
0.19073497 -0.13301204 -0.27193701
0.066259332 -0.12137149 -0.27193701
-0.16226645 -0.10832032 -0.27193701
-0.066727325 -0.1002108 -0.27193701
0.020209612 -0.10868903 -0.27193701
-0.1722182 -0.091842234 -0.27193701
-0.040981553 -0.097727314 -0.27193701
0.10991026 -0.092734277 -0.27193701
0.11407655 -0.095556885 -0.27193701
0.12222463 -0.098095089 -0.27193701
-0.034124814 -0.08330863 -0.27193701
0.030062862 -0.087206021 -0.27193701
0.16493782 -0.070738986 -0.27193701
-0.056750342 -0.067238644 -0.27193701
-0.022450838 -0.068287678 -0.27193701
0.18480492 -0.066414632 -0.27193701
0.17473547 -0.051488176 -0.27193701
0.037801616 -0.037545271 -0.27193701
0.14757945 -0.037053093 -0.27193701
0.15165758 -0.029896319 -0.27193701
0.210326 -0.025340976 -0.2710332
-0.091934174 -0.00089526922 -0.27193701
0.036812305 -0.0049757287 -0.27193701
-0.18471813 0.0034112632 -0.27193701
0.17896472 8.7082386e-05 -0.27193701
0.010802202 0.017567292 -0.27193701
-0.036994494 0.024375588 -0.27193701
0.085514061 0.025069349 -0.27193701
0.11919807 0.029061019 -0.27193701
0.12066454 0.023528121 -0.27193701
-0.13697207 0.038581103 -0.27193701
-0.024873242 0.039728537 -0.27193701
-0.015233085 0.033072457 -0.27193701
0.010422475 0.036379267 -0.27193701
0.11601167 0.037096553 -0.27193701
0.18032892 0.031841829 -0.27193701
0.15645401 0.049333405 -0.27193701
-0.19266543 0.051104531 -0.27193701
-0.071674623 0.057091795 -0.27193701
-0.0078815818 0.058857538 -0.27193701
0.011934053 0.056843158 -0.27193701
0.1030984 0.050146468 -0.27193701
0.14649487 0.052692369 -0.27193701
0.16584058 0.062704951 -0.27193701
-0.06658221 0.073628433 -0.27193701
-0.19196913 0.08318878 -0.27193701
-0.14947955 0.094329849 -0.27193701
-0.21648836 0.10945938 -0.27193701
-0.20804742 0.11925308 -0.27193701
-0.20570597 0.12901112 -0.27193701
-0.15258774 0.12865174 -0.27193701
-0.11399131 0.12839495 -0.27193701
-0.037251405 0.12081528 -0.27193701
-0.21823488 0.13210882 -0.27193701
0.060895182 0.1390065 -0.27193701
0.135731 0.13402525 -0.27193701
-0.097380623 0.14863826 -0.27193701
-0.028172225 0.14546371 -0.27193701
-0.19237006 0.15698715 -0.27193701
-0.10370885 0.16933456 -0.27193701
-0.037041217 0.16875687 -0.27193701
0.10609811 0.1620532 -0.27193701
0.1839443 0.17048281 -0.27193701
-0.1480557 0.1845049 -0.27193701
0.15666331 0.18064305 -0.27193701
-0.16679956 0.19824329 -0.27193701
0.067769885 0.19280082 -0.27193701
0.084724985 0.1963919 -0.27193701
0.18811566 0.20209587 -0.27193701
-0.080906868 0.21374162 -0.27193701
-0.016317293 0.21831539 -0.27193701
0.033866029 0.21030816 -0.27193701
-0.15724541 0.2200392 -0.27193701
-0.14980169 0.22389576 -0.27193701
0.11659998 0.2284072 -0.27193701
0.13388479 0.2238169 -0.27193701
0.17797661 0.22142509 -0.27193701
-0.12247404 0.23170316 -0.27193701
0.074542835 0.23191977 -0.27193701
-0.11448511 0.24037236 -0.27193701
-0.029361449 0.2447985 -0.27193701
0.019027874 0.2426427 -0.27193701
0.1474327 0.24173398 -0.27193701
-0.16967133 0.26358905 -0.27193701
-0.085271224 0.27475008 -0.27193701
0.054693528 0.28140908 -0.27193701
0.15953496 0.2843174 -0.27193701
-0.15898137 0.29372042 -0.27193701
0.16899256 0.29852158 -0.27193701
-0.14509144 0.30031922 -0.27193701
-0.12398988 0.30618751 -0.27193701
-0.074079067 0.32425457 -0.27193701
0.026656494 0.32724142 -0.27193701
0.12252035 0.32427138 -0.27193701
0.15072741 0.32985553 -0.27193701
-0.13182238 0.3339889 -0.27193701
0.055666614 0.33066925 -0.27193701
0.080619238 0.33127582 -0.27193701
0.20885244 0.33212006 -0.27193701
0.13324322 0.34318304 -0.27193701
-0.13525891 0.35266799 -0.27120334
-0.18556757 -0.35266799 -0.2644181
0.0056542987 -0.35266799 -0.26087707
0.030564856 -0.35266799 -0.26312956
0.041424505 -0.35266799 -0.26841977
0.16510075 -0.35266799 -0.26433164
-0.227322 -0.16590035 -0.26584959
-0.22732201 0.05346407 -0.26602823
0.210326 0.10184713 -0.26099357
0.21032602 0.13486305 -0.26150638
0.210326 0.14585516 -0.26313031
-0.21556216 0.35266799 -0.26447535
0.16381106 0.35266799 -0.26160151
-0.19299401 -0.35266799 -0.25860474
-0.057181958 -0.35266799 -0.25861081
0.210326 -0.2726678 -0.25344446
0.210326 -0.26854724 -0.25475836
-0.227322 -0.24388424 -0.25358507
0.210326 -0.15629794 -0.25288758
0.210326 -0.071989097 -0.25792849
-0.22732198 -0.021415144 -0.25816578
0.21457499 0.26620784 -0.25439647
-0.227322 0.29357785 -0.25217146
-0.227322 0.30365273 -0.25495121
-0.067486674 0.32717401 -0.25471404
-0.14091437 0.35266799 -0.25923193
-0.13801584 0.35266799 -0.2566002
-0.054115504 0.35266799 -0.25165272
-0.019663572 0.35266799 -0.25260159
-0.22732201 -0.18861952 -0.2477823
0.210326 -0.041495599 -0.24390367
0.210326 0.061071839 -0.24270111
-0.22732198 0.11235128 -0.24282989
0.210326 0.17636564 -0.24329188
0.21457499 0.23957269 -0.24399166
-0.082963005 0.32717401 -0.24086875
0.19845991 0.32717401 -0.24952781
0.20322953 0.32717401 -0.2468674
-0.12750302 0.35266799 -0.24461004
-0.1050771 0.35266799 -0.24550651
-0.021907397 0.35266799 -0.24494752
0.15069465 -0.35266799 -0.23219053
0.20359272 -0.31161714 -0.238747
0.20921192 -0.28914025 -0.23445004
0.210326 -0.11471739 -0.23980205
-0.22732198 -0.061426401 -0.2355791
-0.227322 -0.050508797 -0.23878506
0.21032602 -0.052904241 -0.23342131
-0.22732201 0.0535594 -0.23811066
-0.227322 0.15304706 -0.23721847
0.210326 0.21750918 -0.23231813
0.21457499 0.32001027 -0.23757076
-0.17671378 0.35266799 -0.23073509
-0.13537802 0.35266799 -0.23739195
0.15721506 0.35266799 -0.23863652
-0.18619673 -0.35266799 -0.22068067
-0.17171806 -0.35266799 -0.22865321
-0.14411648 -0.35266799 -0.22360466
0.1041781 -0.35266799 -0.22752339
-0.22732201 -0.087689593 -0.22025454
0.21032602 0.18733916 -0.22279923
-0.22732201 0.22756195 -0.22367421
0.21876544 0.279715 -0.22269745
-0.2259554 0.32717401 -0.22357737
-0.1382615 0.32717401 -0.22062126
0.047068138 0.32717401 -0.22686097
0.13960785 0.32717401 -0.22477949
0.18461952 0.32717401 -0.22655252
0.10998575 0.35266799 -0.22745827
0.18980381 0.35266799 -0.22586241
0.12286716 -0.35266799 -0.21724254
0.19942135 -0.32830259 -0.21190105
-0.227322 -0.28781009 -0.21066666
-0.227322 -0.16748095 -0.21448825
-0.22732198 -0.12216143 -0.21142961
-0.22732201 0.028209388 -0.21912
-0.22732198 0.037736699 -0.21129188
0.210326 0.21576549 -0.21079279
-0.227322 0.26668116 -0.21546069
-0.15815693 0.32717401 -0.21703078
-0.13654941 -0.35266799 -0.20643704
-0.070903391 -0.35266799 -0.20557575
0.210326 -0.21806939 -0.20227984
-0.227322 -0.15393864 -0.20070781
0.21032602 -0.15466195 -0.2005432
-0.22732198 -0.12896343 -0.20017782
0.21032602 0.11368583 -0.20349132
0.22570416 0.26134112 -0.20465919
0.20846179 0.34384561 -0.20445703
-0.10004426 0.35266799 -0.2013571
0.088893957 0.35266799 -0.20703897
0.093811572 0.35266799 -0.20329984
0.099327922 -0.35266799 -0.19626686
0.12555067 -0.35266799 -0.19532603
0.15015385 -0.35266799 -0.19862929
-0.227322 -0.32406947 -0.1958213
0.210326 -0.18024577 -0.19492102
0.210326 -0.16926934 -0.1922508
-0.22732198 -0.049623162 -0.19775164
0.210326 -0.0088068452 -0.19036308
-0.227322 0.077972636 -0.19901294
0.210326 0.16809171 -0.19144137
0.086848184 0.32717401 -0.19344617
0.062101588 0.35266799 -0.19107074
0.20695254 -0.29817784 -0.18134837
0.210326 -0.26025468 -0.18584336
-0.22732201 -0.20122707 -0.18537971
-0.22732201 0.04362528 -0.18271688
-0.22732201 0.14910524 -0.18656406
0.21032599 0.15021804 -0.18427408
-0.22732198 0.25586891 -0.18063021
-0.17212802 0.32717401 -0.18775313
-0.10125667 0.32717401 -0.18572162
-0.0045336336 0.32717401 -0.18898913
0.029731993 0.35266799 -0.18665625
0.09832821 0.35266799 -0.18276599
-0.21884744 -0.35266799 -0.17322481
-0.0088882521 -0.35266799 -0.17280366
0.19785199 -0.33458006 -0.17207474
-0.227322 -0.31393972 -0.17193519
-0.227322 -0.27636433 -0.17768031
0.210326 -0.27566701 -0.17042001
-0.227322 -0.21012169 -0.17627692
0.210326 -0.21588522 -0.17666373
0.210326 -0.14190805 -0.17739826
0.21032602 -0.077214569 -0.17032424
-0.227322 -0.028782174 -0.17795539
-0.22732198 -0.0019648448 -0.17748472
-0.22732201 0.017619774 -0.17376062
0.21032599 0.053266075 -0.17382148
-0.13685629 0.32717401 -0.17353058
-0.227322 0.33705157 -0.17555287
-0.227322 0.34712154 -0.17605601
-0.090998664 0.35266799 -0.17308728
-0.0022026151 0.35266799 -0.17681201
-0.21960665 -0.35266799 -0.16073567
-0.15246178 -0.35266799 -0.16173865
-0.0066143163 -0.35266799 -0.16098982
0.16867387 -0.35266799 -0.16481306
0.1985691 -0.33171162 -0.16532023
0.20897713 -0.29007944 -0.16507967
-0.22732198 -0.21529192 -0.16251904
0.210326 -0.14167351 -0.16552268
-0.227322 0.17403176 -0.16541396
0.210326 0.19409209 -0.16950384
0.210326 0.21703489 -0.16809854
-0.22732198 0.28368264 -0.16462609
-0.14128448 0.32717401 -0.16807729
-0.022148997 0.32717401 -0.1685185
0.21032599 -0.28385285 -0.15115316
0.218824 -0.046330757 -0.15776846
-0.227322 0.017638072 -0.15507716
0.21425232 0.0348766 -0.15319392
-0.22732198 0.056237034 -0.15172616
-0.227322 0.11839016 -0.1548515
0.21318811 0.225198 -0.15620093
0.14193654 0.35266799 -0.1535525
-0.1929587 -0.35266799 -0.14293346
-0.11048104 -0.35266799 -0.14471859
-0.016689602 -0.35266799 -0.14649004
0.218824 0.022880528 -0.14636467
0.218824 0.048579983 -0.14397
-0.22732201 0.14270544 -0.14508213
0.21368158 0.225198 -0.14399301
-0.22732198 0.26883796 -0.14359492
0.22679247 0.26172489 -0.14703932
-0.22732201 0.32673818 -0.14990588
-0.16474122 0.32717401 -0.14738902
-0.098203726 0.32717401 -0.14988689
-0.06092494 0.32717401 -0.14375336
0.1376183 0.35266799 -0.14920816
-0.22520496 -0.35266799 -0.13491237
0.19959575 -0.32760501 -0.13498986
0.210326 -0.2440941 -0.13517195
0.21032599 -0.20069617 -0.13405278
0.218824 -0.06780079 -0.13074738
0.218824 -0.0061919596 -0.13340156
0.21032599 0.11756688 -0.13931847
0.22431198 0.28179914 -0.13660571
0.21457499 0.31591439 -0.13753764
-0.227322 0.32530421 -0.13856044
0.21185905 0.33821094 -0.13317315
0.065791368 0.35266799 -0.13683935
-0.10165598 -0.35266799 -0.12788872
0.15979697 -0.35266799 -0.12664843
0.20706114 -0.29774341 -0.12913135
0.210326 -0.15685377 -0.1238832
-0.227322 -0.14740703 -0.12337241
0.218824 -0.11640951 -0.12905203
-0.22732198 -0.085120395 -0.12786879
-0.22732201 -0.01529476 -0.12012992
-0.227322 0.011686355 -0.12068892
0.218824 0.048702907 -0.12913278
-0.18741828 0.32717401 -0.12686937
0.030634383 0.32717401 -0.12012291
0.050198175 0.32717401 -0.12335099
0.12561804 0.35266799 -0.12508605
0.19746198 0.35266799 -0.12458199
-0.21594848 -0.35266799 -0.11161531
-0.00079269707 -0.35266799 -0.11467066
-0.22732201 -0.31560946 -0.11643162
0.210326 -0.25365505 -0.11847629
-0.227322 -0.23486575 -0.11891657
0.210326 -0.14943439 -0.11886559
0.218824 0.041864492 -0.11634706
0.210326 0.13572873 -0.11360212
-0.227322 0.17918837 -0.11040629
0.21457499 0.23574346 -0.11462314
0.21457499 0.2403819 -0.11396584
-0.0488251 0.32717401 -0.11146626
-0.079171203 0.35266799 -0.11728536
0.19838905 -0.33243179 -0.10510775
-0.22732198 -0.28340212 -0.10991187
0.210326 -0.16461889 -0.10565388
0.218824 -0.063755579 -0.10898387
0.218824 -0.002703297 -0.10981697
0.210326 0.12223461 -0.10144551
-0.22732198 0.1599448 -0.10178347
0.21032602 0.15502019 -0.10857485
-0.227322 0.25804669 -0.10114251
0.21457499 0.25151691 -0.10757411
-0.227322 0.31283206 -0.10739666
-0.1114787 0.32717401 -0.10445161
-0.047953226 0.32717401 -0.10990795
0.057447344 0.32717401 -0.10081025
0.071770765 0.32717401 -0.10007978
-0.22732201 0.33823872 -0.10542249
-0.17432061 0.35266799 -0.10540569
-0.040218621 -0.35266799 -0.092212141
-0.227322 -0.17901495 -0.091046229
-0.227322 -0.071456179 -0.097644344
0.218824 0.105326 -0.092200115
-0.227322 0.14157622 -0.099143676
0.210326 0.14938621 -0.090417437
0.21032602 0.15531091 -0.091029406
-0.227322 0.21576338 -0.097878471
-0.22732198 0.25692773 -0.093715698
0.043224361 0.32717401 -0.095229328
0.086715825 0.32717401 -0.092226259
0.19250768 0.32717401 -0.098400779
0.10614806 0.35266799 -0.0994417
0.20152454 0.35038817 -0.092763528
0.073832177 -0.35266799 -0.088127464
-0.22732201 -0.32785326 -0.08575245
-0.227322 -0.18751955 -0.080853477
-0.227322 -0.10312327 -0.083925396
0.21882401 0.088653192 -0.085552096
-0.227322 0.19900605 -0.083096147
0.210326 0.21352056 -0.080386378
0.19992439 0.225198 -0.082959138
-0.227322 0.28909466 -0.088808879
-0.16138247 0.32717401 -0.085495725
-0.050540164 0.32717401 -0.085630961
0.0096229929 0.32717401 -0.089363776
0.048420936 0.32717401 -0.087524757
0.18484737 0.32717401 -0.086520672
-0.227322 0.33050078 -0.080026522
0.21317808 0.33486223 -0.082681745
0.063979261 0.35266799 -0.082957909
0.13881171 -0.35266799 -0.071798772
0.18958826 -0.35266799 -0.075941011
0.21032602 -0.21057171 -0.072917737
-0.227322 -0.14704797 -0.074270755
-0.22732198 0.087726444 -0.072990105
-0.22732201 0.29464129 -0.073830143
-0.22732201 0.30684918 -0.074113913
-0.044223599 0.32717401 -0.077930883
-0.03004951 0.32717401 -0.071822576
0.011804588 0.32717401 -0.074286222
0.070589438 0.32717401 -0.071918003
0.10841504 0.32717401 -0.079876982
0.15360834 0.32717401 -0.078476533
0.19877042 0.32717401 -0.070385933
-0.19831239 0.35266799 -0.075828746
-0.18424572 0.35266799 -0.072311834
0.17841911 0.35266799 -0.076931879
0.094357237 -0.35266799 -0.064643718
0.17972863 -0.35266799 -0.06297332
-0.227322 -0.19599238 -0.063063443
-0.227322 -0.15441902 -0.069991618
0.218824 -0.037605707 -0.069149844
-0.227322 0.079560354 -0.067906395
0.21457499 0.27755958 -0.063096575
-0.22732201 0.32675606 -0.065549009
0.056178443 0.32717401 -0.06779588
-0.227322 0.34280407 -0.060269412
0.19144264 0.35266799 -0.066092819
-0.227322 -0.34103879 -0.055613086
0.19641721 -0.34031919 -0.052401099
0.21415108 -0.18165493 -0.053699881
-0.227322 -0.13129006 -0.054976329
0.218824 -0.022277813 -0.051276736
-0.22732198 0.075539917 -0.057038367
0.21457499 0.22757728 -0.056934856
-0.16260147 0.35266799 -0.05812759
0.091174975 0.35266799 -0.053952236
-0.10637662 -0.35266799 -0.048884064
-0.227322 -0.26688102 -0.046280071
0.21032599 -0.26071256 -0.044309378
0.218824 -0.16706082 -0.047363937
0.218824 -0.0098112999 -0.040386796
0.218824 0.067698717 -0.041299012
0.210326 0.16957512 -0.045041203
-0.227322 0.25378269 -0.048386224
-0.227322 0.31124023 -0.043685973
-0.075577319 0.32717401 -0.049560539
0.037922308 0.32717401 -0.048356414
0.099009037 0.32717401 -0.042315163
-0.058798239 0.35266799 -0.047022767
0.12186753 0.35266799 -0.042423461
0.13464664 0.35266799 -0.049122527
-0.227322 -0.33793372 -0.03815081
-0.227322 0.11034218 -0.034745857
0.21457499 0.28241062 -0.03221193
0.065357037 0.32717401 -0.03245692
0.1220709 0.32717401 -0.037668917
0.13530391 0.32717401 -0.032966338
-0.227322 0.35001329 -0.037996944
0.18017985 0.35266799 -0.031114453
0.038388278 -0.35266799 -0.029113501
0.054652296 -0.35266799 -0.024916235
0.20541419 -0.30433124 -0.028361037
-0.227322 -0.20201039 -0.022344522
-0.227322 -0.11743637 -0.023344852
-0.22732201 0.057284493 -0.025834357
-0.22732201 0.080289751 -0.022404753
-0.22732198 0.23496228 -0.027852796
-0.1904451 0.32717401 -0.021286055
0.19362047 0.32717401 -0.023563951
0.018898269 0.35266799 -0.027781736
0.12946819 0.35266799 -0.028073296
-0.21413347 -0.35266799 -0.017513558
0.13003904 -0.35266799 -0.01366508
0.19495001 -0.34618792 -0.010175467
-0.227322 -0.157739 -0.011753909
0.218824 -0.15221895 -0.017619247
0.218824 0.10904914 -0.018721115
-0.22732198 0.15867752 -0.016314
0.210326 0.1981566 -0.019720145
0.21457499 0.2469608 -0.017543143
0.16266495 0.35266799 -0.012825707
-0.10036606 -0.35266799 -0.0086372942
-0.061578862 -0.35266799 -0.009853296
0.021473181 -0.35266799 -0.0037795603
0.097398624 -0.35266799 -0.0071853101
0.21032602 -0.27129644 -0.0026780516
-0.227322 -0.23898052 -0.00087061524
0.218824 -0.10422724 -0.0023059044
-0.227322 0.0066669136 -0.0063880035
-0.227322 0.13450858 -0.00067128241
-0.22732201 0.1490183 -0.0036014169
-0.22732201 0.18719023 -0.0016254596
0.210326 0.2110731 -0.0055088699
-0.028246664 0.32717401 -0.0090446323
-0.017692341 0.32717401 -0.0045966804
0.20547199 0.34718627 -0.0039120018
-0.14777523 0.35266799 -0.0031665415
0.048334774 -0.35266799 0.0020259023
0.11729422 -0.35266796 0.0052702352
-0.227322 -0.30738133 0.0083020255
-0.22732201 -0.26466876 0.0042637605
-0.22732201 -0.23835734 0.0036407746
0.210326 -0.2209855 0.008617904
0.218824 -0.03603863 0.004961282
0.218824 -0.003499544 0.0038939426
0.21457499 0.23569344 0.0072192308
-0.11894 0.32717401 0.0061801299
-0.023044482 0.32717401 0.00082273036
0.020021047 0.32717401 0.0079812109
-0.047792166 0.35266799 0.0083231479
-0.023923825 0.35266799 0.0068180058
-0.17740789 -0.35266799 0.017411694
-0.046831816 -0.35266799 0.011892699
0.1698149 -0.35266799 0.016448066
0.210326 -0.20475484 0.013276884
-0.22732198 -0.19050309 0.014751874
-0.227322 -0.015126714 0.011583087
0.218824 0.032953739 0.010767058
0.210326 0.16321565 0.015891692
-0.227322 0.23058055 0.013293967
-0.227322 0.31241825 0.012283656
-0.17739631 0.32717401 0.018939026
0.1304177 0.32717401 0.015590362
0.18040717 0.32717401 0.018554183
-0.094443187 0.35266799 0.011267275
0.13251196 0.35266799 0.016179223
-0.066779502 -0.35266799 0.027539626
-0.055884544 -0.35266799 0.028622307
-0.049094953 -0.35266799 0.024768874
0.1466902 -0.35266799 0.022313859
0.210326 -0.26892543 0.027197972
-0.227322 -0.015582995 0.023468014
0.218824 0.13174042 0.026520176
0.210326 0.15829968 0.021456176
-0.22732201 0.26458976 0.023605399
-0.027277648 0.32717401 0.021284238
0.076777041 0.35266799 0.021724377
-0.22645 -0.35266799 0.038447037
-0.024041303 -0.35266799 0.037441902
0.10383292 -0.35266799 0.039312437
-0.22732198 -0.067757085 0.032413431
-0.22732201 0.034210652 0.039840609
-0.227322 0.13526003 0.039667953
0.21455887 0.13610616 0.034673668
0.20086589 0.225198 0.034439057
-0.21807602 0.32717401 0.032467723
-0.22732201 0.33469722 0.0342796
-0.19083533 0.35266799 0.039669275
0.021443546 0.35266799 0.037981547
0.18565956 0.35266799 0.034021147
-0.20986032 -0.35266799 0.048662819
0.062616847 -0.35266799 0.044136547
0.19880196 -0.33078021 0.04031745
0.20002998 -0.32586804 0.043884672
-0.227322 -0.1244359 0.044421248
-0.227322 -0.060206123 0.040382463
-0.227322 0.31438851 0.045463748
0.0027406029 0.32717401 0.044898909
0.21392046 0.32717401 0.040226832
0.19674431 0.35266799 0.043165006
-0.19938147 -0.35266799 0.056000464
-0.078086987 -0.35266799 0.056378882
-0.013970315 -0.35266799 0.052483559
0.031780213 -0.35266799 0.05266346
0.1470965 -0.35266799 0.054982055
0.15950204 -0.35266799 0.054421917
-0.22732201 -0.17474762 0.050385512
0.218824 -0.11440281 0.059266575
-0.22732198 0.11601923 0.056888051
-0.22525123 0.32717401 0.051950082
-0.19141775 0.35266799 0.051203482
-0.05168049 0.35266799 0.056745827
0.12665449 0.35266799 0.052120525
-0.22408022 -0.35266799 0.066085152
-0.21930575 -0.35266799 0.060721621
0.072150812 -0.35266799 0.063596494
0.087023519 -0.35266799 0.065935239
0.1696749 -0.35266799 0.067184851
0.18599166 -0.35266799 0.061382949
-0.22732201 -0.29100204 0.063284241
0.21032599 -0.27024367 0.061950095
-0.227322 -0.25677544 0.068224601
-0.227322 -0.18766272 0.063601427
0.21587369 -0.17781605 0.061836161
0.218824 -0.029449278 0.067799017
0.218824 0.038688313 0.060437229
-0.22732201 0.040257655 0.063286245
0.218824 0.095245138 0.06472981
0.2132982 0.1251168 0.064139985
0.1986461 0.225198 0.062433161
0.21457499 0.2970314 0.068047561
0.13661069 0.32717401 0.065514594
-0.028681558 0.35266799 0.068620756
0.11814402 0.35266799 0.060480557
-0.14812014 -0.35266799 0.074671648
0.065507814 -0.35266799 0.07524547
0.14167516 -0.35266799 0.073035941
0.20710947 -0.29755008 0.073176816
-0.227322 -0.096896544 0.077698886
-0.18546039 0.32717401 0.070682637
-0.029699612 0.32717401 0.074008666
0.0023735091 0.32717401 0.072299376
-0.067757264 0.35266799 0.074922226
0.1746569 -0.35266799 0.084773809
-0.227322 -0.29173088 0.086144529
0.210326 -0.18346688 0.089300558
-0.22732201 -0.10174153 0.08087258
-0.22732198 0.0022494718 0.089601003
0.218824 0.032746784 0.080993213
0.210326 0.15014921 0.088643469
0.20251329 0.225198 0.087865308
0.016738117 0.32717401 0.086196609
-0.20737347 0.35266799 0.084139116
-0.10329664 0.35266799 0.08297082
0.15256578 0.35266799 0.087839365
-0.12476704 -0.35266799 0.095840305
0.20414525 -0.309407 0.098217756
-0.227322 0.0070731826 0.095361143
0.218824 0.012701663 0.093544647
0.21457499 0.25598553 0.095251009
-0.22194049 0.32717401 0.097437471
-0.18366842 0.35266799 0.092701867
-0.227322 -0.30658567 0.1052267
-0.22732198 -0.19619454 0.10585426
-0.22732198 0.14463134 0.10840102
-0.18744051 0.32717401 0.10205038
0.0088948458 0.32717401 0.10377493
0.074316263 -0.35266799 0.11295782
0.20235123 -0.3165831 0.11807135
0.210326 -0.19629979 0.11280243
-0.227322 -0.1796806 0.1130629
-0.22732201 -0.15331094 0.11633598
-0.227322 -0.096447282 0.1190154
0.210326 0.15633874 0.11634529
0.21457499 0.26532674 0.11863208
0.21457499 0.31594869 0.11758621
-0.065530956 0.32717401 0.11048622
-0.058447823 0.32717401 0.11243854
0.11825678 0.32717401 0.1167645
-0.034112945 0.35266799 0.11820738
0.012038119 -0.35266799 0.1217128
-0.22732198 -0.29010525 0.1231215
-0.227322 -0.21103573 0.12450738
-0.227322 -0.17584237 0.12911266
0.19890317 0.225198 0.12658453
0.20020947 0.225198 0.12846786
-0.227322 0.31426755 0.12003907
0.21457499 0.31713173 0.12111271
0.10111935 0.32717401 0.12489387
0.1749673 0.32717401 0.1288736
-0.025033183 0.35266799 0.12062985
-0.0002489537 0.35266799 0.12302376
-0.21017684 -0.35266799 0.13729605
-0.085462339 -0.35266799 0.13771331
-0.041408908 -0.35266799 0.13573675
0.210326 -0.22312191 0.13383766
0.21882398 -0.11203493 0.13906759
-0.227322 -0.02705197 0.13009949
-0.227322 -0.0076885521 0.1376567
-0.227322 0.087165914 0.13896564
-0.227322 0.23192117 0.13058205
-0.227322 0.32677448 0.1305604
-0.16219437 -0.35266799 0.14515534
-0.097890638 -0.35266799 0.14107969
0.071339332 -0.35266799 0.14740679
-0.227322 -0.13699234 0.14456314
0.218824 -0.052219775 0.14726931
-0.22732201 -0.02353429 0.14648825
-0.22732198 0.00053049624 0.14991251
-0.22732201 0.066813633 0.14162959
0.21032599 0.10795701 0.14197659
0.21457499 0.2911779 0.14030081
-0.032058306 0.32717401 0.1460017
0.21308494 0.33516073 0.14274104
-0.087560602 0.35266799 0.14315766
0.017088816 -0.35266799 0.15651396
0.21032599 -0.17228995 0.1521924
-0.227322 -0.16185197 0.15750054
0.210326 -0.094255954 0.15954779
0.218824 -0.081545949 0.15273213
0.218824 -0.01790664 0.15758058
-0.227322 0.230133 0.15168963
0.21457499 0.27846691 0.15667039
-0.227322 0.3233875 0.15823992
-0.17059074 0.32717401 0.15785015
-0.093652591 0.35266799 0.1540499
0.051951982 0.35266799 0.15827185
0.12834214 0.35266799 0.15037616
0.14783019 -0.35266799 0.16772713
0.20520149 -0.30518204 0.16804257
0.20761022 -0.29554716 0.16525194
-0.227322 -0.28901291 0.16457057
-0.22732201 -0.25988156 0.16727807
0.210326 -0.159106 0.16225198
0.21032599 -0.0865964 0.16946591
-0.227322 0.1007346 0.16176662
0.17778316 0.32717401 0.16604614
0.20463756 0.32717401 0.16571268
0.015725076 0.35266799 0.16111055
0.12279205 0.35266799 0.16961887
-0.17759742 -0.35266799 0.17438039
-0.025243763 -0.35266799 0.17177652
0.11951519 -0.35266799 0.17979942
0.20869134 -0.29122263 0.17971267
-0.22732201 -0.1845355 0.1749205
-0.22732198 -0.0847409 0.1731607
-0.227322 0.077188298 0.17599276
0.210326 0.070809186 0.17235266
0.21032602 0.2082862 0.17563504
-0.227322 0.22282669 0.17424032
0.21457499 0.27326658 0.178645
0.21457499 0.32261077 0.17297775
-0.017444171 0.35266799 0.17664815
0.19855234 0.35215297 0.17450847
0.028979957 -0.35266799 0.1825844
0.17363328 -0.35266799 0.18783286
0.210326 -0.05161617 0.18556036
0.21032602 0.19580752 0.18413529
0.21457499 0.24166267 0.18764523
0.21457499 0.29892382 0.18250284
-0.227322 0.32750607 0.18354221
0.17196696 0.32717401 0.18881983
-0.070997439 0.35266799 0.18376236
-0.12464214 -0.35266799 0.19016066
0.071830742 -0.35266799 0.19096236
-0.227322 -0.23006609 0.19130312
-0.22732198 -0.01513762 0.19432035
-0.22732198 0.027480692 0.19271347
-0.22732198 0.10155019 0.19396612
0.20002829 0.225198 0.19876248
0.21457499 0.24915962 0.19460921
0.21457499 0.2680783 0.19563359
-0.16371389 0.32717401 0.19930278
0.028546205 0.32717401 0.19493721
-0.01478377 0.35266799 0.19871622
0.062759377 0.35266799 0.19686079
0.19214532 -0.35266799 0.20958117
-0.22732201 -0.22940762 0.20898181
0.210326 -0.22654212 0.20392561
0.210326 -0.065936476 0.20212351
-0.227322 0.14124179 0.20468633
-0.22732198 0.33488306 0.20658636
0.08999081 0.35266799 0.20607559
0.091433063 0.35266799 0.20827129
0.1530764 0.35266799 0.20778762
-0.082996592 -0.35266799 0.2100004
0.0041340385 -0.35266799 0.21492991
-0.22732198 -0.26767588 0.21097066
0.210326 -0.23447537 0.21012273
-0.227322 -0.21255781 0.21850441
-0.227322 -0.15439186 0.21614057
0.210326 -0.068120517 0.21604139
-0.227322 0.015932038 0.21706688
0.10708986 0.32717401 0.21281718
0.11160376 0.32717401 0.21958438
-0.082860224 0.35266799 0.21169385
-0.066706017 0.35266799 0.21585438
-0.14342804 -0.35266799 0.22878982
-0.227322 -0.23301607 0.22599998
-0.227322 -0.16934752 0.22127716
-0.22732201 -0.11856644 0.22127351
0.21032599 -0.10829578 0.22687823
-0.22732201 0.075617887 0.22964874
0.21032602 0.17485578 0.22502565
0.21457499 0.2733888 0.22578272
-0.227322 0.3288368 0.22729984
-0.20090556 0.32717401 0.22154772
0.15965523 0.32717401 0.22624508
-0.227322 0.34458175 0.22313438
-0.15226161 0.35266799 0.22558342
-0.0027536303 0.35266799 0.22035044
0.20506482 -0.30572873 0.23164925
-0.227322 -0.15099752 0.23825805
0.21032602 -0.095154367 0.23172489
-0.227322 -0.085586846 0.2316283
-0.22732201 0.03469041 0.23896766
0.210326 0.053575207 0.23349549
-0.227322 0.14899822 0.23484886
0.210326 0.1420244 0.2326992
0.21457499 0.24353683 0.23870367
-0.011140689 0.32717401 0.23041695
0.055073544 0.32717401 0.23224854
0.21457499 0.32710707 0.23083547
-0.22732201 0.34203047 0.23992042
0.16740273 0.35266799 0.23413274
0.11483366 -0.35266799 0.24965045
0.13528611 -0.35266799 0.24124345
0.21032599 0.072392195 0.24220949
-0.227322 0.15565148 0.24505141
-0.15408503 0.32717401 0.24245979
-0.1434048 0.32717401 0.24698402
-0.027101107 0.32717401 0.24408177
-0.13099165 0.35266799 0.2431533
0.210326 -0.26049751 0.25060403
0.210326 -0.2079739 0.25260124
0.210326 -0.094388612 0.25468868
0.21032602 -0.086922169 0.2575112
-0.22732201 0.0054058954 0.25145155
-0.22732201 0.10223401 0.25595346
0.210326 0.2243371 0.25852305
0.21457499 0.26023802 0.25589541
0.21457499 0.27679235 0.251333
0.032129727 0.32717401 0.25895363
0.07239233 0.32717401 0.25664163
-0.065573029 0.35266799 0.25966418
0.056641214 0.35266799 0.2522136
0.12852737 0.35266799 0.25559559
-0.16684844 -0.35266799 0.26962274
0.1084941 -0.35266799 0.26602125
0.20295922 -0.31415111 0.26921803
0.210326 -0.22308652 0.26974061
-0.227322 -0.12329836 0.26991343
0.210326 -0.083898447 0.26758185
-0.22732201 -0.036836848 0.26260629
0.21032599 0.09323965 0.26256001
-0.227322 0.27349859 0.26314816
0.21457499 0.28310943 0.2641024
-0.092603296 0.32717401 0.26580545
-0.227322 -0.35156748 0.27175474
0.025745459 -0.34499618 0.27193701
-0.13673507 -0.33400694 0.27193701
-0.062256135 -0.33500606 0.27193701
-0.047607578 -0.32933697 0.27193701
0.037400864 -0.32926339 0.27193701
0.07384868 -0.32928759 0.27193701
0.1109132 -0.3250474 0.27193701
-0.13243549 -0.31512076 0.27193701
0.027088881 -0.31560791 0.27193701
-0.15462607 -0.30121338 0.27193701
-0.12017253 -0.29820946 0.27193701
-0.098423228 -0.27920777 0.27193701
-0.088417783 -0.27371216 0.27193701
0.13538294 -0.27644512 0.27193701
0.17161718 -0.27212858 0.27193701
0.15323234 -0.26041201 0.27193701
-0.098295085 -0.25991508 0.27193701
0.19301721 -0.25248793 0.27193701
-0.016387273 -0.24386376 0.27193701
-0.13656706 -0.23796113 0.27193701
-0.010060366 -0.23280272 0.27193701
-0.068057008 -0.22592673 0.27193701
-0.019635469 -0.22433496 0.27193701
0.11852706 -0.22958031 0.27193701
-0.14541112 -0.21965194 0.27193701
-0.087753721 -0.21760726 0.27193701
-0.029315818 -0.21217169 0.27193701
0.0085120052 -0.21758948 0.27193701
0.1557644 -0.21353205 0.27193701
-0.1386331 -0.20320925 0.27193701
-0.18140846 -0.19787998 0.27193701
-0.045917578 -0.19395116 0.27193701
0.09450826 -0.17356263 0.27193701
0.12709233 -0.17805433 0.27193701
-0.02506092 -0.16065377 0.27193701
-0.13763253 -0.15397049 0.27193701
-0.13244921 -0.14484027 0.27193701
-0.10318737 -0.14505082 0.27193701
0.15162148 -0.14602868 0.27193701
-0.16988686 -0.13233599 0.27193701
-0.22732201 -0.12091833 0.27159125
0.069088623 -0.12883568 0.27193701
-0.11523757 -0.11888801 0.27193701
-0.069269016 -0.11512607 0.27193701
0.085660085 -0.11555685 0.27193701
0.16153583 -0.11244268 0.27193701
-0.19398148 -0.10851072 0.27193701
-0.14048685 -0.1092224 0.27193701
-0.18876582 -0.095097199 0.27193701
-0.078653827 -0.093261838 0.27193701
0.1531097 -0.092255518 0.27193701
0.19642538 -0.086199731 0.27193701
-0.01401151 -0.072743885 0.27193701
0.040863581 -0.079243645 0.27193701
0.099990636 -0.072311856 0.27193701
0.18434246 -0.07910195 0.27193701
-0.03712298 -0.069771774 0.27193701
0.20574485 -0.065368347 0.27193701
-0.097460113 -0.047902547 0.27193701
0.13370946 -0.044171393 0.27193701
-0.21550256 -0.029803574 0.27193701
-0.16064961 -0.029630952 0.27193701
-0.15722646 -0.021226376 0.27193701
0.14431038 -0.025004297 0.27193701
0.041004129 -0.01428506 0.27193701
0.095340759 -0.019566491 0.27193701
0.19353551 -0.016655669 0.27193701
-0.20156908 -0.0016787797 0.27193701
0.093460336 -0.00047761947 0.27193701
-0.090280913 0.00033579022 0.27193701
-0.044362165 0.0049058497 0.27193701
0.079115391 0.0022042394 0.27193701
-0.14843702 0.019981652 0.27193701
-0.019602206 0.018012749 0.27193701
-0.12113133 0.02231656 0.27193701
-0.1019817 0.028614316 0.27193701
-0.049204726 0.031699982 0.27193701
-0.039347313 0.03493008 0.27193701
0.14289561 0.038034547 0.27193701
-0.044619799 0.046989903 0.27193701
0.13856648 0.042224638 0.27193701
0.085049354 0.05663117 0.27193701
-0.18309608 0.06886711 0.27193701
0.025131375 0.063938975 0.27193701
-0.073435217 0.07282114 0.27193701
0.074305244 0.07176584 0.27193701
0.14169645 0.079336211 0.27193701
0.18475655 0.079063021 0.27193701
-0.08284118 0.10485256 0.27193701
0.063295506 0.10514679 0.27193701
-0.058358811 0.1165738 0.27193701
-0.091376662 0.12943125 0.27193701
0.13659683 0.12216547 0.27193701
-0.039016671 0.13571778 0.27193701
0.052878693 0.13795777 0.27193701
-0.12751174 0.14771181 0.27193701
-0.21156764 0.15090288 0.27193701
0.090282254 0.15714878 0.27193701
0.14934371 0.15556061 0.27193701
0.0070686229 0.16779563 0.27193701
-0.078291647 0.17887588 0.27193701
-0.011753418 0.17944364 0.27193701
0.019334719 0.19155422 0.27193701
-0.20908073 0.21298169 0.27193701
-0.17479512 0.21732362 0.27193701
-0.13616423 0.21315603 0.27193701
-0.089964204 0.21252574 0.27193701
-0.1213116 0.22355564 0.27193701
-0.072362289 0.23910742 0.27193701
0.073472507 0.23139946 0.27193701
-0.056922883 0.2467504 0.27193701
0.20008945 0.245931 0.27193701
-0.10800187 0.25893947 0.27193701
-0.081817158 0.25970104 0.27193701
0.14278682 0.25331962 0.27193701
0.023100533 0.26855683 0.27193701
0.12501782 0.26347339 0.27193701
-0.19981071 0.28765115 0.27193698
-0.11421539 0.28070772 0.27193701
-0.08337611 0.28418666 0.27193701
0.098482549 0.28244999 0.27193701
0.16828039 0.28045589 0.27193701
0.17733076 0.28577471 0.27193701
-0.17166902 0.29116046 0.27193701
-0.025412709 0.29315588 0.27193701
0.14105669 0.29570562 0.27193701
-0.042100415 0.30494297 0.27193701
0.059951536 0.30545846 0.27193701
0.18315417 0.30618888 0.27193701
-0.023432277 0.31326619 0.27193701
0.026135571 0.32611507 0.27193701
-0.227322 0.33288717 0.27103776
-0.21386099 0.3316671 0.27193701
0.18954125 0.33831418 0.27193701
0.20231254 0.33135447 0.27193701
-0.21859112 0.34207588 0.27193701
-0.18003286 0.3435607 0.27193701
-0.16463043 0.34969053 0.27193701
-0.14271426 0.34444875 0.27193701
0.031464871 0.34969142 0.27193701
