# .PCD v0.7 - Point Cloud Data file format
VERSION 0.7
FIELDS x y z
SIZE 4 4 4
TYPE F F F
COUNT 1 1 1
WIDTH 981
HEIGHT 1
VIEWPOINT 0 0 0 1 0 0 0
POINTS 981
DATA ascii
-0.20450521 -0.33843899 -0.249957
-0.12452854 -0.33355638 -0.249957
-0.024856545 -0.33982301 -0.24598965
0.032066174 -0.33982301 -0.24860501
-0.013223566 -0.3256464 -0.249957
0.10001642 -0.32398096 -0.249957
0.23719425 -0.32233715 -0.249957
0.22943301 -0.31947559 -0.249957
-0.085896477 -0.30030447 -0.249957
-0.042386279 -0.30433637 -0.249957
0.044533476 -0.30500084 -0.249957
0.08982414 -0.30985901 -0.249957
0.12520358 -0.30213323 -0.249957
0.25531399 -0.30009183 -0.24385583
-0.22671825 -0.27236053 -0.249957
-0.090834014 -0.27753431 -0.249957
0.032344386 -0.27739257 -0.249957
0.21333963 -0.27535218 -0.249957
0.063340358 -0.26475215 -0.249957
0.073074058 -0.26785365 -0.249957
0.23863417 -0.26366293 -0.249957
-0.09682849 -0.25159198 -0.249957
0.11813774 -0.25193676 -0.249957
-0.15859464 -0.24134684 -0.249957
-0.018898785 -0.24307467 -0.249957
0.0017600879 -0.24259016 -0.249957
-0.174876 -0.23504519 -0.249957
-0.00081503391 -0.23491412 -0.249957
0.017950282 -0.23495468 -0.249957
-0.20361634 -0.22566359 -0.249957
-0.11801673 -0.22176912 -0.249957
0.21007942 -0.22915977 -0.249957
-0.0070579499 -0.21009283 -0.249957
-0.23100568 -0.20538814 -0.249957
-0.039698996 -0.20455998 -0.24995698
0.2103745 -0.2077027 -0.249957
-0.0085087009 -0.1835469 -0.249957
0.14621688 -0.18707559 -0.249957
-0.16441533 -0.17837474 -0.249957
0.019693471 -0.17919019 -0.249957
-0.15263347 -0.16360268 -0.249957
-0.051772952 -0.16039938 -0.249957
0.11233772 -0.16194284 -0.249957
-0.23338577 -0.15882908 -0.249957
0.19888112 -0.15657386 -0.249957
0.12970744 -0.14087926 -0.249957
0.15657911 -0.14542291 -0.249957
-0.10358389 -0.13043523 -0.249957
0.23025225 -0.13588412 -0.249957
0.064563461 -0.12978598 -0.249957
0.2244702 -0.12507384 -0.249957
0.25499204 -0.12735918 -0.249957
-0.11450304 -0.10266352 -0.249957
0.19877659 -0.10969116 -0.249957
-0.16454493 -0.08709801 -0.249957
-0.072863601 -0.085543461 -0.249957
0.0084095988 -0.066456556 -0.249957
0.11807077 -0.063587949 -0.249957
0.22788888 -0.06623368 -0.249957
-0.2671178 -0.044434145 -0.249957
-0.19767758 -0.041349374 -0.249957
0.0014483631 -0.045928523 -0.249957
-0.054764315 -0.034361437 -0.249957
0.20710188 -0.035580203 -0.249957
-0.268406 -0.01399821 -0.24064645
0.055706702 0.0051906258 -0.249957
0.12440532 0.0052585155 -0.249957
-0.063854106 0.012366571 -0.249957
-0.0084252208 0.017051652 -0.249957
0.21782762 0.029808756 -0.249957
-0.14447795 0.035145421 -0.249957
-0.10681497 0.035575908 -0.249957
0.079734713 0.043937016 -0.249957
0.12329567 0.04009115 -0.249957
0.16298713 0.044599034 -0.249957
0.11469124 0.051711708 -0.249957
0.21827498 0.061094943 -0.249957
0.24537143 0.063692369 -0.249957
0.012597769 0.11955451 -0.249957
0.082570195 0.11117593 -0.249957
-0.24736574 0.12073676 -0.249957
-0.02678138 0.13006935 -0.249957
-0.14961635 0.14786415 -0.249957
-0.011721209 0.1411828 -0.249957
-0.072448179 0.15559542 -0.249957
0.10004822 0.15670647 -0.249957
0.16019797 0.15035841 -0.249957
-0.20230821 0.16006015 -0.24995701
0.16189258 0.16679342 -0.24995701
-0.17627856 0.17462705 -0.249957
-0.15180163 0.17991303 -0.249957
-0.037897207 0.18115193 -0.249957
-0.10452259 0.19936721 -0.249957
0.1711999 0.19907197 -0.249957
-0.045557484 0.20876169 -0.249957
0.048761003 0.2068453 -0.249957
-0.14087862 0.21357322 -0.249957
-0.11309706 0.21999228 -0.249957
-0.044698283 0.21311827 -0.249957
-0.0045008138 0.21152698 -0.249957
0.14763305 0.21254812 -0.249957
0.17171954 0.22145757 -0.249957
-0.00037333369 0.23105016 -0.249957
0.031115413 0.24428529 -0.249957
-0.073686339 0.25758174 -0.249957
-0.26429027 0.26362213 -0.249957
-0.091901809 0.26088995 -0.249957
-0.0099548921 0.26336682 -0.249957
0.25498104 0.2731401 -0.24995701
-0.17603202 0.28838322 -0.249957
0.014588885 0.28564379 -0.249957
-0.20667131 0.30067551 -0.249957
-0.096512809 0.30277359 -0.249957
0.10581791 0.3022866 -0.249957
-0.13878953 0.31573981 -0.249957
-0.099096574 0.31642514 -0.249957
-0.15329808 0.32116732 -0.249957
-0.077419594 0.32665592 -0.24995698
-0.017765246 0.33377749 -0.249957
0.069529109 0.33982301 -0.2417666
0.14467973 0.33982301 -0.24909481
-0.13308859 -0.33982301 -0.2309873
-0.029261421 -0.33982301 -0.2353808
-0.015098512 -0.33982301 -0.23217416
-0.268406 -0.31607717 -0.23452581
-0.268406 -0.18763636 -0.23670226
-0.268406 -0.11352358 -0.23642379
-0.268406 -0.034390792 -0.23360965
0.25531399 -0.028482348 -0.23844019
-0.268406 -0.0036068559 -0.23973003
-0.268406 0.13389388 -0.23398872
0.25531399 0.21588741 -0.23550442
-0.16521055 0.33982301 -0.23905139
-0.072863102 0.33982301 -0.23679438
0.14751697 0.33982301 -0.23562236
0.1127229 -0.33982301 -0.22720501
0.15560918 -0.33982301 -0.22199553
0.19899634 -0.33982301 -0.22036012
0.25531399 -0.10935599 -0.22069965
-0.268406 0.17910677 -0.22040465
-0.268406 0.28405386 -0.22347488
-0.24515764 0.33982301 -0.22496188
-0.18937489 0.33982301 -0.22472796
0.023494013 -0.33982301 -0.21498474
0.081789464 -0.33982301 -0.21597043
-0.268406 -0.16169859 -0.2158666
0.25531399 0.025702998 -0.21815343
-0.268406 0.13821068 -0.21900022
-0.268406 0.14542979 -0.21834674
0.25531399 0.18667409 -0.21913524
-0.268406 0.19976205 -0.21578851
-0.268406 0.3274534 -0.2195145
-0.23326004 0.33982301 -0.21947038
-0.16497765 0.33982301 -0.21236427
0.035607092 0.33982301 -0.21553025
0.094018094 -0.33982301 -0.20954253
-0.26840603 -0.1791213 -0.2073078
-0.048066564 -0.020813132 -0.20143923
-0.036120668 -0.025071515 -0.2004068
0.05790209 -0.014780685 -0.20290175
0.093579322 -0.016047336 -0.20259467
-0.213653 0.0090521639 -0.20177339
-0.037584186 0.0094896108 -0.20878598
0.021942176 0.0025070207 -0.20709309
0.037176944 0.0050136764 -0.20770082
0.091989063 0.00012770842 -0.20651624
0.13706249 0.0044177775 -0.20755634
0.191322 0.0068187239 -0.20813844
0.23494646 0.0026541618 -0.20712876
-0.025423698 0.016863752 -0.20972361
0.089542799 0.013139438 -0.20967084
0.20803657 0.018121867 -0.20969348
0.09013322 0.025193688 -0.20952417
0.10104858 0.020186737 -0.20964405
0.2315836 0.02248395 -0.20958902
0.10433689 0.037363552 -0.20923281
-0.21306753 0.045122229 -0.20904706
-0.08387249 0.049443603 -0.20894361
0.033505119 0.04755798 -0.20898874
0.17859204 0.048758432 -0.20896001
-0.20614962 0.075983271 -0.20612411
0.029475849 0.076886058 -0.20585889
0.047003224 0.070832908 -0.20763725
-0.268406 0.10578895 -0.20338851
-0.268406 0.15655541 -0.20339185
-0.268406 0.19975321 -0.20084321
-0.268406 0.24118882 -0.20311548
0.24817201 0.26537913 -0.20739663
-0.268406 -0.2533868 -0.19115375
-0.268406 -0.19665697 -0.19564903
0.25531399 -0.15167257 -0.19732125
0.25531399 -0.12139053 -0.19630902
-0.065212898 -0.032078698 -0.19870795
-0.024255164 -0.039032601 -0.19134557
0.268406 -0.037332211 -0.19347613
0.25877747 0.011406139 -0.19513142
0.237459 0.021167029 -0.19677454
-0.213653 0.073085368 -0.19538245
-0.0081119798 0.10303181 -0.19817749
0.054584876 0.1171125 -0.1940407
0.13431832 0.11665808 -0.19417422
0.081893861 0.1244364 -0.19046304
0.10196854 0.12239063 -0.1917104
0.25531399 0.19004934 -0.19102031
-0.268406 0.21127784 -0.19978151
0.25531399 0.21790741 -0.19547561
-0.21084437 0.33982301 -0.19871199
-0.019147001 0.33982301 -0.19985422
0.040500186 0.33982301 -0.19511622
0.17269593 0.33982301 -0.19282989
-0.020891547 -0.33982301 -0.18324539
0.2054036 -0.33982301 -0.18501231
0.078318246 -0.039032601 -0.18267252
0.268406 0.017695982 -0.18666545
-0.213653 0.045610107 -0.18346685
0.237459 0.10019181 -0.18992241
-0.06131053 0.12923184 -0.18753912
-0.044210888 0.1255189 -0.189803
-0.15651989 0.13381933 -0.18474197
0.065212034 0.13824925 -0.18204091
0.16893379 0.13726196 -0.18264289
-0.062993675 0.33982301 -0.18167409
0.1641691 0.33982301 -0.18821618
-0.12827574 -0.33982301 -0.17401177
0.25531399 -0.32195854 -0.17031786
-0.032176569 -0.085032508 -0.17028151
-0.0014700517 -0.086192705 -0.17082921
0.068425789 -0.086489566 -0.17096934
-0.268406 -0.060443163 -0.17953028
-0.268406 -0.040216088 -0.1771369
0.017529534 -0.039032601 -0.1780979
0.059540149 -0.039032601 -0.17400548
-0.268406 0.0023899376 -0.17861389
0.237459 0.10594931 -0.17367086
-0.19187838 0.14702483 -0.17669016
-0.1599922 0.15605663 -0.1711832
-0.12343472 0.15499228 -0.17183217
-0.268406 0.26859933 -0.17376241
0.0043818653 0.33982301 -0.17184931
0.036879037 0.33982301 -0.17410155
0.078389727 0.33982301 -0.17599596
0.2032721 -0.33982301 -0.16127437
-0.268406 -0.30488896 -0.16175668
0.25531399 -0.09617807 -0.16553447
0.23212725 -0.077911094 -0.16691974
0.14679059 -0.067041233 -0.16178831
0.15967155 -0.069803886 -0.16309251
0.1705198 -0.067961872 -0.16222292
0.237459 -0.05703209 -0.16615397
0.0040387362 -0.039032601 -0.16448323
0.268406 -0.032518487 -0.16590461
0.268406 0.017369203 -0.16096745
-0.213653 0.033499952 -0.16016769
-0.15056878 0.16998559 -0.16103891
-0.268406 0.22793387 -0.16565171
-0.268406 0.30348808 -0.16611518
-0.268406 0.3176257 -0.16185109
-0.21532416 0.33982301 -0.16696903
0.14247528 0.33982301 -0.16176671
-0.14962 -0.33982301 -0.15038857
0.023199692 -0.33982301 -0.15258744
0.25531399 -0.28486833 -0.15008946
-0.268406 -0.26290786 -0.15222801
-0.268406 -0.2387066 -0.15475062
0.076530874 -0.10769439 -0.15096357
0.12677625 -0.1041144 -0.15437615
-0.0053351894 -0.060234483 -0.15857491
0.047631495 -0.044176273 -0.15099421
-0.17031737 -0.039032601 -0.15538098
-0.268406 0.066916361 -0.15023054
0.268406 0.11948228 -0.15704012
0.237459 0.12336105 -0.15725327
-0.1910675 0.17143779 -0.1595154
-0.0057076961 0.17269337 -0.15819816
-0.095872052 0.33982301 -0.15847744
0.0086534843 0.33982301 -0.15666337
0.019531548 -0.33982301 -0.14660826
-0.268406 -0.21312758 -0.14669475
0.25531399 -0.19745818 -0.14837205
-0.14441289 -0.11883858 -0.1403406
-0.094563439 -0.11359194 -0.14534187
0.016963197 -0.10916028 -0.14956626
-0.268406 -0.094070479 -0.14090768
-0.213653 -0.05015853 -0.14334737
-0.268406 0.089297503 -0.14187001
0.061310615 0.18959406 -0.14046776
0.25531399 0.20514911 -0.1483846
-0.088525034 0.33982301 -0.14400335
0.0081152171 0.33982301 -0.14443417
-0.19909194 -0.33982301 -0.13274935
-0.268406 -0.23177549 -0.13844804
-0.268406 -0.18415332 -0.13013957
-0.027548321 -0.12304558 -0.13633037
0.065869659 -0.11967772 -0.13954073
0.268406 -0.077651598 -0.13743724
-0.268406 -0.013273664 -0.13779545
-0.268406 0.010784194 -0.13464795
-0.268406 0.112643 -0.13275994
0.268406 0.12509403 -0.13803098
0.066851854 0.19722137 -0.132466
0.077322155 0.19691446 -0.13278797
-0.049497858 0.33982301 -0.13789327
-0.16214111 -0.13247862 -0.12281333
0.043419279 -0.12882993 -0.12879738
0.268406 -0.033405151 -0.12632996
0.23973824 0.010104923 -0.12882726
-0.268406 0.10586271 -0.12778319
-0.268406 0.18390952 -0.1249309
-0.15695891 0.20024966 -0.12928905
-0.10967989 0.20356441 -0.12581155
0.020312376 0.20396069 -0.12514868
-0.17232512 0.33982301 -0.12455703
-0.15741012 0.33982301 -0.12701458
-0.0091890618 0.33982301 -0.12709779
0.11803553 0.33982301 -0.12488517
0.24540693 0.33982301 -0.12197457
-0.20568866 -0.33982301 -0.11488004
-0.1498611 -0.33982301 -0.11409488
-0.13976671 -0.33982301 -0.11463562
-0.12874877 -0.33982301 -0.11239967
0.099500775 -0.33982301 -0.11710654
0.25531399 -0.20148735 -0.11019342
-0.20441583 -0.13546908 -0.11790885
0.25531399 -0.1309903 -0.11720307
0.237459 0.020026997 -0.11660259
0.25228131 0.12405936 -0.11332922
0.268406 0.14119434 -0.11834764
0.25531399 0.17908661 -0.11715899
0.25531399 0.19730929 -0.11660987
-0.213653 0.2078719 -0.11708268
0.24698199 0.24936354 -0.11027651
-0.19332442 0.33982301 -0.1118274
-0.066623643 0.33982301 -0.11665236
0.021214761 0.33982301 -0.11010505
0.15751396 -0.14318419 -0.10525569
0.237459 0.054729071 -0.10933539
-0.213653 0.1454927 -0.10869686
0.25531399 0.20474081 -0.10959891
-0.11994638 0.21662931 -0.10194089
-0.07651972 0.21442202 -0.10598446
0.069939986 0.21376997 -0.10717893
0.25531399 0.22756277 -0.10327232
-0.16777577 -0.33982301 -0.098820731
-0.05965168 -0.33982301 -0.091060586
0.25531399 -0.24875653 -0.098763496
0.25531399 -0.18125336 -0.090433002
-0.13412526 -0.14798065 -0.097389266
0.0019820593 -0.1468813 -0.099192247
0.051427517 -0.14831127 -0.096847013
0.080122903 -0.14732961 -0.098456979
0.237459 -0.059787408 -0.097718909
0.268406 0.14743336 -0.093238905
-0.268406 0.15844399 -0.092644066
-0.087011963 0.22085914 -0.094192222
0.0067463443 0.22029783 -0.095220506
-0.268406 0.25293219 -0.096901439
-0.23770864 0.33982301 -0.091973253
-0.18130018 0.33982301 -0.099832982
-0.034746066 0.33982301 -0.098914362
0.20760427 0.33982301 -0.093824737
-0.268406 -0.33809912 -0.086579293
-0.24127349 -0.33982301 -0.084357984
-0.17204346 -0.33982301 -0.08133731
0.20508017 -0.33982301 -0.08750847
-0.18265298 -0.15298919 -0.089174993
-0.091067284 -0.15408298 -0.087381124
0.073005192 -0.15572292 -0.081869669
0.12358422 -0.15543927 -0.08283513
0.237459 -0.017787037 -0.082438499
0.237459 0.010170822 -0.088929772
0.24961677 0.013686252 -0.089369759
-0.213653 0.11587693 -0.081457078
0.268406 0.16215198 -0.084807724
0.26034197 0.19310477 -0.08511433
-0.268406 0.32383007 -0.086475484
-0.17721051 0.33982301 -0.086628601
-0.15137157 0.33982301 -0.082624093
0.15739319 0.33982301 -0.082975365
-0.21400125 -0.33982301 -0.072178103
0.25531399 -0.30703914 -0.07457833
-0.268406 -0.23254576 -0.070278749
0.13051134 -0.15794906 -0.074292257
0.237459 -0.061092775 -0.078931801
-0.213653 -0.051911626 -0.078588277
0.23745902 0.090585142 -0.071624674
0.237459 0.17933327 -0.071612999
0.10034263 0.23065962 -0.073877908
0.21123345 0.23048292 -0.074606709
0.06193541 0.33982301 -0.079987876
0.094832681 0.33982301 -0.079274759
0.1139417 0.33982301 -0.075375922
0.21826638 0.33982301 -0.075498834
0.25531399 -0.26556003 -0.06124926
0.022234922 -0.16185001 -0.061014198
0.11402518 -0.16081907 -0.064523309
0.25531399 -0.16667868 -0.061547313
-0.268406 0.097771265 -0.062145527
-0.088097781 0.23372094 -0.06125088
0.25531399 0.32120994 -0.066944703
-0.17215437 -0.33982301 -0.051616676
-0.086867779 -0.33982301 -0.054723505
0.25531399 -0.30242798 -0.054716781
-0.19339728 -0.16351584 -0.055343997
-0.038982294 -0.16348661 -0.055443473
0.051541671 -0.16263348 -0.0583474
-0.268406 -0.10211471 -0.05011145
0.237459 -0.066066027 -0.058239661
-0.213653 0.052787572 -0.058740404
-0.268406 0.17055842 -0.050956115
-0.268406 0.18764776 -0.055397961
0.268406 0.19300243 -0.058429521
-0.17475733 0.23464414 -0.057442911
0.021984776 0.23574103 -0.052918624
0.25531399 0.2557148 -0.053455152
0.089765862 0.33982301 -0.059918061
0.16564216 -0.16762842 -0.041345544
-0.213653 -0.047174077 -0.041031428
-0.21365301 0.013282771 -0.04187791
-0.213653 0.074316636 -0.045394171
-0.213653 0.20878156 -0.04099049
-0.213653 0.22399074 -0.041990228
0.25531399 0.22291003 -0.043225601
-0.268406 0.2635307 -0.040422745
-0.11962887 0.33982301 -0.045379236
0.088417113 0.33982301 -0.0477129
-0.04085521 -0.16950999 -0.031108558
0.237459 -0.026764054 -0.037434217
-0.213653 0.010119786 -0.030205188
-0.213653 0.072382107 -0.036774442
0.237459 0.10012857 -0.039464109
-0.213653 0.14582317 -0.036718465
0.237459 0.16747504 -0.031457778
0.045599312 0.24110785 -0.030782141
0.22235698 0.33982301 -0.03387383
-0.25403893 -0.33982301 -0.02328936
-0.16033173 -0.33982301 -0.022794664
0.25531399 -0.30884326 -0.027279038
-0.268406 -0.16154641 -0.029859908
0.12434778 -0.16959596 -0.027520183
0.1956469 -0.16960576 -0.027111342
0.237459 -0.14247344 -0.02444071
0.237459 -0.063525684 -0.021601692
-0.268406 -0.053706765 -0.020564705
-0.268406 0.0027089734 -0.022618815
-0.213653 0.14132096 -0.024975793
-0.213653 0.17222451 -0.029183727
0.26080838 0.2078191 -0.020261914
0.237459 0.23119205 -0.028095884
-0.251472 0.33982301 -0.029480323
-0.22456294 -0.33982301 -0.01936245
-0.268406 -0.19709069 -0.010310695
-0.08661142 -0.1700035 -0.010511186
0.268406 -0.11130707 -0.018544655
0.237459 0.13834991 -0.012006244
0.26027915 0.17478377 -0.019336471
-0.20006433 0.21896654 -0.010838198
0.079837076 0.22028884 -0.011660735
0.075447425 0.23179229 -0.018816207
0.25531399 0.253833 -0.014379346
-0.268406 0.33333117 -0.015956722
-0.268406 0.061193794 -0.0049033687
-0.213653 0.076883167 -0.009639075
-0.268406 0.10426994 -0.00041341782
-0.268406 0.18915023 -0.0090221465
-0.13185465 0.20739731 -0.0036418205
0.15190651 0.20786205 -0.0039309296
0.23552179 0.20716317 -0.0034962252
-0.049868017 0.21645437 -0.0092755603
0.14279032 0.21057302 -0.0056172274
0.25531399 0.31082997 -0.00064624101
0.064583324 -0.33982301 0.0055383146
0.13901652 -0.33982301 0.0081452057
0.10624596 -0.17028053 0.0010518655
0.23684448 -0.17028679 0.0013128119
0.25531399 -0.16193508 0.0088836998
0.237459 -0.15572119 0.0047820825
-0.213653 -0.036822889 0.0086491806
-0.213653 0.13268228 0.0060833842
-0.213653 0.15768881 0.0077782385
-0.01088351 0.19788781 0.0077424524
0.029192328 0.20137858 0.009442959
0.25531399 0.22162819 0.0018368438
-0.268406 0.27300245 0.0090132579
0.071311325 0.33982301 0.0028211344
-0.04780487 -0.33982301 0.017621845
0.19504575 -0.33982301 0.017944612
-0.268406 -0.2695688 0.011881769
0.072823919 -0.17070666 0.018944152
-0.268406 -0.12621018 0.018859733
0.237459 -0.084139779 0.012575136
-0.213653 0.082248718 0.017794997
0.237459 0.12991937 0.017708056
-0.078001305 0.20296016 0.010213405
0.0158742 0.20823786 0.012784407
0.237459 0.2148762 0.010959938
-0.17165078 0.2218633 0.019421613
0.13474877 0.22220747 0.019589551
-0.25942105 0.33982301 0.014389753
0.21965753 0.33982301 0.012169207
-0.13338229 -0.33982301 0.028590947
-0.268406 -0.21358788 0.02638861
-0.213653 -0.16441754 0.028316237
0.10142472 -0.16921344 0.025102809
-0.268406 -0.11069164 0.024744898
-0.268406 -0.031137079 0.026784435
-0.213653 0.11178926 0.029140286
-0.268406 0.14207745 0.026674487
0.23745902 0.16605708 0.022924898
0.25519946 0.17123866 0.028140381
0.268406 0.19110724 0.025263213
-0.10268736 0.2260451 0.021458708
0.1055913 0.23480359 0.02572524
0.22194484 0.23663253 0.026616283
-0.268406 0.25552142 0.023107581
0.25531399 0.29096293 0.022041282
-0.016640317 0.33982301 0.026804831
-0.26633066 -0.33982301 0.035557017
-0.20549858 -0.33982301 0.031419218
-0.01837302 -0.33982301 0.036524534
0.18115948 -0.33982301 0.03718362
0.21472651 -0.33982301 0.037022389
0.2411876 -0.33982301 0.03961245
0.25531399 -0.21826775 0.034044161
-0.268406 -0.19083509 0.037743524
0.25531399 -0.17325339 0.036689121
-0.19137268 -0.16612205 0.037853085
-0.15521604 -0.16590442 0.03875073
-0.213653 -0.099351987 0.036730815
0.237459 -0.078582451 0.035093609
-0.213653 0.0026536044 0.031297199
0.237459 0.19871084 0.032428857
0.25531399 0.22257927 0.030461747
0.19631411 0.33982301 0.030317409
-0.15828601 -0.33982301 0.045192063
0.077239074 -0.33982301 0.041712381
0.25531399 -0.22049567 0.043292876
0.25531399 -0.20719215 0.046499997
-0.19141375 -0.16334318 0.049314376
-0.16028759 -0.1654257 0.040725116
-0.213653 -0.11174186 0.046068467
0.268406 -0.11585428 0.042160247
-0.268406 -0.014817983 0.04281947
-0.268406 -0.0013248324 0.049965337
-0.268406 0.027427346 0.047038771
-0.268406 0.067143112 0.048793375
-0.213653 0.092787035 0.042666137
0.237459 0.12844437 0.041463498
-0.268406 0.19765484 0.046247985
-0.21295032 0.23522386 0.048832282
-0.0341876 0.23751523 0.041033067
0.06298881 0.23632783 0.045074638
0.25531399 0.29460412 0.04424464
-0.268406 0.32542568 0.042255029
0.25531399 0.32523125 0.040861331
-0.11857098 0.33982301 0.047922924
-0.019471403 0.33982301 0.040593825
0.20397481 0.33982301 0.042406816
-0.11762621 -0.33982301 0.057345241
-0.268406 -0.24399431 0.058911189
0.09771435 -0.16316877 0.050033711
0.237459 -0.15123838 0.051204912
0.25531399 -0.14566155 0.050368749
-0.268406 -0.083158948 0.051355157
-0.213653 -0.067977354 0.058142833
0.237459 -0.027017064 0.051456459
-0.268406 0.054712582 0.051172309
-0.268406 0.10943825 0.057403482
-0.20052963 0.33982301 0.051354147
0.21257497 0.33982301 0.054564536
-0.13797429 -0.33982301 0.060370263
-0.12225375 -0.33982301 0.062491708
0.033727355 -0.15984824 0.063729063
0.26840603 -0.092905238 0.06813965
-0.213653 -0.023676759 0.060624268
-0.268406 0.14163122 0.064334355
0.0073779002 0.22914228 0.069532573
0.25531399 0.22703731 0.065149419
-0.0066082738 0.23139447 0.061866686
-0.25162083 0.33982301 0.061948143
-0.11541921 0.33982301 0.066147387
-0.0069274791 0.33982301 0.066881388
-0.268406 -0.28152579 0.070545264
-0.268406 -0.21146004 0.078737713
-0.11642177 -0.15615413 0.074894011
0.1581637 -0.15619786 0.074813895
0.21661061 -0.15345594 0.07983695
-0.268406 0.13808259 0.073310085
0.25531399 0.31099576 0.074175
0.1089706 0.33982301 0.070652246
0.14230035 0.33982301 0.075744644
0.18608601 0.33982301 0.072296731
0.25531399 0.33373171 0.077888481
-0.097461551 -0.33982301 0.081591845
-0.15266328 -0.15299851 0.080674909
0.15911461 -0.15023813 0.085731804
-0.019375494 -0.14840427 0.089091323
0.237459 -0.09909904 0.080091268
0.237459 0.010675494 0.085926428
0.268406 0.16816713 0.089069821
-0.213653 0.18153526 0.088013664
-0.268406 0.20030403 0.088784628
0.091944084 0.22336623 0.084859803
0.15578365 0.22128104 0.08827962
0.22005117 0.22174394 0.087520443
-0.21467717 0.33982301 0.084277175
0.25531399 0.33762988 0.082475856
-0.13336158 -0.33982301 0.095140129
-0.036537319 -0.33982301 0.093452796
0.25531399 -0.32778037 0.096146174
-0.268406 -0.30803904 0.097064734
0.25531399 -0.27963531 0.096910208
0.25531399 -0.19339418 0.097284473
-0.0082121491 -0.1469584 0.091740087
-0.049700305 -0.08093892 0.099968307
0.0028987303 -0.084498689 0.098867238
0.268406 0.13906202 0.098231889
0.22717825 0.21801999 0.0936279
-0.026719434 0.33982301 0.096908599
-0.12325898 -0.33982301 0.10045847
-0.065677203 -0.33982301 0.10736606
0.25531399 -0.32894963 0.10622257
0.25531399 -0.31981078 0.10453538
0.25531399 -0.28115806 0.10037328
-0.268406 -0.1529396 0.1037871
-0.16104457 -0.13795325 0.10823704
0.11587086 -0.13918285 0.10598448
-0.065927707 -0.095175073 0.10345188
0.1745026 -0.097572982 0.1044816
-0.19825318 -0.088612214 0.10063365
0.19301969 -0.089705825 0.10110328
-0.213653 0.0042519439 0.10334728
0.237459 0.054889515 0.10018177
-0.213653 0.067606747 0.10079555
0.268406 0.16577415 0.10596721
0.037518725 0.21224041 0.10310664
-0.268406 0.22205472 0.10930483
0.25531399 0.25816491 0.10752984
0.18575831 -0.33982301 0.11746717
-0.061758824 -0.13340141 0.11657576
-0.268406 -0.12554839 0.1186728
0.041212983 -0.12058335 0.11436266
-0.040345639 -0.1141728 0.11160986
0.268406 -0.09060131 0.11071901
0.027065884 -0.083405688 0.11059354
0.071982734 -0.084255561 0.11425424
0.099702969 -0.085425138 0.11929201
0.19194743 -0.08422941 0.11414159
0.268406 -0.066494294 0.11190228
-0.213653 -0.035645258 0.11646655
0.237459 -0.036424849 0.11500263
-0.213653 0.034324419 0.11761776
0.1726912 0.20461452 0.11561348
0.25531399 0.23942803 0.11946489
0.25531399 0.26729307 0.1199794
-0.268406 0.30971402 0.11825395
-0.18673864 0.33982301 0.11864457
0.043486297 0.33982301 0.11713547
0.14388837 0.33982301 0.11291239
0.048759043 -0.33982301 0.12533429
0.25531399 -0.33196893 0.12454094
0.25531399 -0.24941957 0.12798795
-0.13753879 -0.085809246 0.12094691
-0.093078353 -0.087633677 0.12880552
-0.042740822 -0.087000385 0.1260777
0.24306992 -0.016471023 0.12475258
-0.213653 0.066254616 0.12125351
-0.213653 0.092699274 0.12074434
-0.213653 0.1576668 0.1228352
0.25531399 0.17335336 0.12190939
-0.213653 0.18068808 0.12779722
-0.057569757 0.2015495 0.12064022
0.021292485 0.20188782 0.12008539
-0.268406 0.30458277 0.1285373
0.062408503 0.33982301 0.12948376
-0.14308959 -0.33982301 0.13090505
-0.087103456 -0.33982301 0.13543408
0.25531399 -0.16397069 0.1302208
0.268406 -0.090658627 0.13459086
-0.213653 0.0090601481 0.13276938
0.26243874 0.055906896 0.13354111
-0.213653 0.15680897 0.13323914
-0.20383114 0.1881889 0.13609564
-0.12249653 0.18969257 0.13466224
0.13926251 0.18593125 0.13824776
0.1915893 0.18526262 0.13888513
-0.12778065 0.19011514 0.13425943
0.050047092 0.19123426 0.13319263
-0.21598879 0.33982301 0.13534123
-0.1896075 0.33982301 0.13373497
-0.067485146 0.33982301 0.13027065
0.033620227 -0.0908112 0.14249247
0.066058375 -0.090637356 0.14174369
0.15998341 -0.09155225 0.14568438
0.23440698 -0.091054574 0.14354001
0.268406 -0.0026235243 0.14152296
0.237459 0.009952452 0.14754182
0.268406 0.012762852 0.14730483
0.268406 0.028069353 0.1460782
0.26032901 0.15408736 0.14150195
-0.268406 0.16141278 0.14761399
-0.18259262 0.18154711 0.14242695
0.25531399 0.22458482 0.1439653
-0.268406 0.29189026 0.14764498
0.25531399 0.31598818 0.14525491
-0.23912926 0.33982301 0.14415334
-0.18067838 0.33982301 0.14599726
0.025712281 0.33982301 0.14720824
0.21870461 0.33982301 0.14638916
-0.2593199 -0.33982301 0.15837675
-0.17223598 -0.33982301 0.15538669
-0.1384359 -0.33982301 0.15234599
-0.268406 -0.24810696 0.15798222
0.25531399 -0.13256727 0.15171845
0.25531399 -0.12417623 0.15661964
0.268406 -0.0049294578 0.15521926
0.237459 0.046967767 0.15652746
0.237459 0.06807065 0.15945432
-0.213653 0.13875037 0.15444107
-0.268406 0.15731174 0.15262353
0.068832353 0.1658804 0.1573613
0.16957594 0.16423827 0.15892667
-0.268406 0.17474554 0.15378788
-0.12510505 0.33982301 0.15093066
-0.10651599 -0.33982301 0.16845965
0.069353327 -0.33982301 0.16671863
0.18611854 -0.33982301 0.1601932
0.25531399 -0.20417821 0.16115567
-0.268406 -0.098383017 0.16654579
0.042064339 -0.090733305 0.16081114
0.062232964 -0.084749721 0.16445956
0.16001965 -0.088350333 0.16226412
0.17306703 -0.084289499 0.16474015
0.026000261 -0.076181032 0.16968417
0.13813335 -0.079918295 0.16740543
0.268406 -0.030953731 0.16484755
-0.268406 0.0081258416 0.16990906
-0.213653 0.015675779 0.16039145
-0.268406 0.090878643 0.16402104
-0.18596481 0.15533414 0.16619195
-0.089619234 0.15969434 0.16325822
0.035091303 0.15188871 0.16807257
0.13903031 0.1627613 0.1603346
0.15637055 0.16230163 0.16077279
0.25531399 0.25001448 0.16665795
-0.21033855 0.33982301 0.16865093
-0.17373997 0.33982301 0.16776375
-0.14896956 0.33982301 0.1659604
-0.042550519 0.33982301 0.16679187
-0.19737089 -0.33982301 0.17511599
0.039257228 -0.33982301 0.17924246
0.1254248 -0.33982301 0.17216149
0.15562877 -0.33982301 0.17947063
0.25531399 -0.25330967 0.17663178
-0.268406 -0.21199124 0.17401253
-0.26840603 -0.1669277 0.1797536
0.14457218 -0.071236707 0.17269887
-0.21311827 -0.069944456 0.17348681
-0.10692421 -0.068757609 0.17421047
0.070486151 -0.066519029 0.17557541
0.114204 -0.064805284 0.17662033
0.268406 0.074680492 0.17992017
0.22766776 0.13345836 0.17813234
0.032065146 0.14810675 0.17013687
-0.268406 0.1579551 0.17991287
-0.268406 0.22806656 0.17452058
-0.268406 0.31123272 0.17999354
-0.079280674 0.33982301 0.17538238
0.1874965 -0.33982301 0.18622248
0.2481897 -0.33982301 0.18276328
-0.012566335 -0.054539122 0.18287995
0.018846713 -0.055492587 0.1822986
0.25531399 0.017629014 0.18483078
-0.213653 0.078998782 0.18148257
0.065243907 0.11655178 0.18736042
-0.091916025 0.33982301 0.18037303
0.12296034 0.33982301 0.18435693
-0.17198209 -0.33982301 0.1921794
-0.091248102 -0.036086794 0.19029634
-0.00036727637 -0.034635298 0.19072276
0.15732245 -0.03325218 0.19112909
0.097346373 -0.027649123 0.19277512
0.12565246 -0.020645766 0.19483252
-0.13184848 -0.015620956 0.19630867
-0.10345835 -0.018351734 0.19550644
-0.19632912 -0.0085159717 0.19839592
0.17425358 0.071725011 0.19999395
-0.049831912 0.082208171 0.1974524
0.17336401 0.083091073 0.19723834
0.2012928 0.085454032 0.19666547
-0.14146909 0.10895356 0.19096819
-0.268406 0.31803161 0.19073324
-0.25926962 0.33982301 0.1911224
0.092573546 0.33982301 0.19619173
-0.26441732 -0.33982301 0.20689744
-0.18419163 -0.33982301 0.20920745
-0.1705244 -0.33982301 0.20232821
-0.085487008 -0.33982301 0.20772111
0.14169039 -0.33982301 0.20439285
0.20141664 -0.33982301 0.20830072
-0.268406 -0.24527726 0.20446782
-0.268406 -0.15196562 0.20483944
-0.268406 -0.11398072 0.20259933
-0.20016637 0.023530286 0.20248911
-0.13742912 0.02098923 0.20242828
-0.056688573 0.02349354 0.20248824
0.1348204 0.024899265 0.20252189
0.18248193 0.02315693 0.20248017
-0.00080277026 0.047468908 0.20306224
0.01248271 0.048562288 0.20308842
0.095835894 0.042165831 0.20293528
0.1658289 0.04050345 0.20289548
-0.098110333 0.061391179 0.20249932
0.061631493 0.063035101 0.20210075
-0.2124123 0.070951842 0.20018139
-0.22628953 0.33982301 0.20130074
-0.070305027 0.33982301 0.20666099
-0.069811434 0.33982301 0.20265661
0.079746075 0.33982301 0.20678279
-0.10908824 -0.33982301 0.21476576
-0.26840597 -0.10557989 0.21140766
0.25531399 -0.063714623 0.21892118
0.25531399 0.054852381 0.21042988
0.25531399 0.1272248 0.21107343
-0.23895495 0.33982301 0.21058185
0.20010892 0.33982301 0.21418686
0.23886077 -0.33982304 0.22985181
0.25531399 -0.26155806 0.22593039
-0.268406 -0.22712864 0.22535728
0.25531399 -0.20946464 0.22983922
0.25531399 0.029384699 0.22201414
0.25531399 0.20609874 0.22988203
-0.12293671 0.33982301 0.22805566
0.19866581 0.33982301 0.22705343
-0.17605877 -0.33982301 0.23298633
-0.15716963 -0.33982301 0.23530224
-0.065975688 -0.33982301 0.23497209
0.14644961 -0.33982301 0.23657672
0.166814 -0.33982301 0.23442431
0.17953184 -0.33982301 0.23797816
-0.268406 -0.046238869 0.23949713
-0.02785892 0.33982301 0.23708594
0.096172847 0.33982301 0.23815548
-0.085858807 -0.33982301 0.2445268
-0.057548836 -0.33663815 0.24995698
0.20810106 -0.33772114 0.249957
0.065883055 -0.30404535 0.249957
-0.23235816 -0.29919404 0.24995698
0.20034373 -0.29327187 0.249957
-0.25495976 -0.28774539 0.249957
-0.0034624785 -0.28310564 0.249957
0.084225044 -0.27528426 0.249957
0.096778989 -0.27845034 0.249957
-0.048358776 -0.26303637 0.249957
-0.18533601 -0.25256929 0.249957
0.14818633 -0.2549336 0.249957
-0.2329039 -0.24554487 0.249957
-0.22849992 -0.24199252 0.24995698
-0.17955771 -0.24186173 0.249957
-0.01536382 -0.24618563 0.249957
0.10582983 -0.24357256 0.249957
0.044644058 -0.23840675 0.249957
0.14976278 -0.23322378 0.249957
0.1749956 -0.22076951 0.249957
-0.063676514 -0.17312942 0.249957
-0.021706253 -0.17677239 0.249957
0.19999409 -0.1746617 0.249957
-0.25700614 -0.16072604 0.249957
-0.0087265521 -0.16751367 0.249957
0.039332289 -0.16165379 0.249957
0.20831981 -0.15149108 0.249957
0.076815285 -0.14123665 0.249957
0.22187155 -0.14595491 0.249957
0.21654463 -0.1385752 0.249957
-0.19078831 -0.12498966 0.249957
0.11259645 -0.11514974 0.249957
-0.030477814 -0.10643679 0.249957
0.20985956 -0.10761958 0.249957
-0.18933783 -0.090985291 0.249957
0.05330551 -0.083901145 0.249957
0.11986497 -0.088944726 0.249957
0.20276085 -0.070290126 0.249957
0.01650117 -0.065291367 0.249957
0.070903741 -0.062224988 0.249957
0.15395017 -0.067723162 0.249957
0.17034589 -0.054776639 0.249957
0.14376819 -0.04973045 0.249957
-0.23934343 -0.039503708 0.249957
-0.12150507 -0.032150969 0.249957
-0.073592663 -0.031162269 0.249957
-0.050406381 -0.024456523 0.249957
0.02657208 -0.024682486 0.249957
-0.1011095 -0.017408594 0.249957
0.2363793 -0.01753851 0.24995698
0.24962416 -0.0040511638 0.249957
-0.18463144 0.013453081 0.249957
-0.09915971 0.017179482 0.249957
-0.082184121 0.015662059 0.249957
-0.24225265 0.020667322 0.249957
-0.23062688 0.027255455 0.249957
-0.21802007 0.023482993 0.249957
-0.032382231 0.024602929 0.249957
-0.016432822 0.02080074 0.249957
0.0066650733 0.027920961 0.249957
0.012178332 0.026306137 0.249957
0.055072647 0.021812201 0.249957
0.13955772 0.023401823 0.249957
0.14767128 0.024229094 0.249957
-0.20479685 0.035546102 0.249957
-0.11687204 0.033493757 0.249957
0.17598855 0.038735703 0.249957
-0.074103564 0.044303197 0.249957
0.11520294 0.041008458 0.249957
-0.14258915 0.059147172 0.249957
-0.040895246 0.05069311 0.249957
0.022336287 0.051653989 0.249957
-0.19615059 0.062056355 0.249957
0.063739337 0.066672653 0.249957
-0.24967501 0.078863114 0.249957
-0.097759649 0.075680524 0.249957
0.14256725 0.073899925 0.249957
-0.080680251 0.084243484 0.249957
0.10930005 0.080864385 0.249957
-0.06274157 0.096866146 0.249957
0.25444806 0.094790138 0.24995701
-0.268406 0.11678257 0.24386892
-0.11349866 0.11032295 0.249957
-0.056957588 0.11749909 0.249957
0.039169315 0.11438498 0.249957
0.026837781 0.12333307 0.249957
0.067363471 0.12771466 0.249957
-0.13144149 0.13717513 0.249957
-0.044744007 0.13062629 0.249957
-0.038753048 0.1309555 0.249957
-0.15877356 0.14682685 0.249957
-0.044943258 0.14331725 0.249957
-0.22116421 0.15659559 0.249957
0.19572994 0.15122102 0.249957
0.21896215 0.16341113 0.249957
0.22423014 0.16223547 0.249957
-0.24357146 0.17612734 0.249957
0.060465742 0.18609357 0.249957
0.16851461 0.18447876 0.249957
0.18565099 0.18440706 0.249957
0.092531197 0.19403988 0.249957
0.083492257 0.20398007 0.24995698
-0.11961278 0.21343048 0.249957
0.12133075 0.21482296 0.249957
0.036240071 0.22605589 0.249957
-0.268406 0.23707043 0.24782255
-0.22065452 0.23048443 0.249957
0.15597968 0.24240968 0.249957
0.14922614 0.25289264 0.249957
0.15453334 0.25207123 0.249957
0.22356635 0.25159517 0.249957
0.23584375 0.25304595 0.249957
-0.22791155 0.26362023 0.249957
0.085281387 0.26854441 0.249957
-0.050325021 0.2794241 0.249957
0.0046078586 0.27902049 0.249957
0.015207075 0.27765986 0.249957
0.212836 0.27474642 0.249957
0.25531399 0.27931535 0.24945554
-0.21331988 0.28052053 0.249957
-0.043836884 0.28790149 0.249957
0.24685083 0.28248617 0.249957
0.036229156 0.29220861 0.249957
-0.26763028 0.30864125 0.249957
-0.18878429 0.3057043 0.249957
-0.13226831 0.30836287 0.249957
0.063909881 0.30788833 0.249957
0.14995499 0.30128708 0.249957
-0.089120768 0.31891024 0.249957
0.0086753033 0.31463301 0.249957
0.034947544 0.31562114 0.249957
0.22235128 0.32812709 0.249957
-0.24633344 0.33269575 0.249957
-0.11381119 0.33820814 0.249957
0.00048780441 0.3375349 0.249957
0.12503341 0.33708704 0.249957
0.17648441 0.33627391 0.249957
0.18715876 0.33982301 0.24915701
