# .PCD v0.7 - Point Cloud Data file format
VERSION 0.7
FIELDS x y z
SIZE 4 4 4
TYPE F F F
COUNT 1 1 1
WIDTH 976
HEIGHT 1
VIEWPOINT 0 0 0 1 0 0 0
POINTS 976
DATA ascii
-0.053223751 -0.2890228 -0.360286
0.043525305 -0.28509611 -0.360286
0.1002586 -0.28687853 -0.360286
0.13146225 -0.27556688 -0.360286
0.0135951 -0.26830316 -0.360286
0.038452581 -0.25690117 -0.360286
0.049602699 -0.2559233 -0.360286
-0.049623132 -0.24156588 -0.360286
0.096023113 -0.24673238 -0.360286
0.041476734 -0.23633367 -0.360286
0.16845775 -0.23244065 -0.360286
0.079152018 -0.22181417 -0.360286
0.14417921 -0.22324678 -0.360286
-0.095768109 -0.21654759 -0.360286
0.1019581 -0.21574701 -0.360286
-0.11404766 -0.19675338 -0.360286
0.12302072 -0.19846532 -0.360286
0.0043674111 -0.18504564 -0.360286
-0.088472247 -0.17115027 -0.360286
0.020518288 -0.17218857 -0.360286
0.091678724 -0.16362049 -0.360286
0.10878129 -0.160698 -0.360286
-0.11133001 -0.15002324 -0.360286
0.063819632 -0.15761897 -0.360286
0.028239086 -0.14037041 -0.360286
0.048319206 -0.14541142 -0.360286
-0.17468604 -0.13133891 -0.360286
0.14751317 -0.13577265 -0.360286
-0.017109148 -0.12676582 -0.360286
0.13399646 -0.12373635 -0.360286
-0.14827318 -0.1108482 -0.360286
-0.14372441 -0.10367869 -0.360286
-0.08219444 -0.09319222 -0.360286
-0.14604121 -0.087468304 -0.360286
-0.12735887 -0.089461461 -0.360286
-0.014963794 -0.080906853 -0.360286
0.062600747 -0.085818321 -0.360286
0.10970946 -0.08418981 -0.360286
0.13159972 -0.088481896 -0.360286
-0.078355119 -0.077856131 -0.360286
0.18132401 -0.053333942 -0.36015996
-0.12806514 -0.031522594 -0.360286
0.071958154 -0.034581214 -0.360286
0.12864257 -0.030714639 -0.360286
-0.090853281 -0.025941148 -0.360286
-0.054971073 -0.029292189 -0.360286
0.0098893046 -0.029395763 -0.360286
-0.11333346 -0.012410019 -0.360286
0.097031921 -0.019350003 -0.360286
-0.010474049 0.0070434436 -0.360286
-0.0034709722 0.012847746 -0.360286
-0.10968188 0.026386857 -0.360286
-0.00087722391 0.02646948 -0.360286
0.030025549 0.0250239 -0.360286
0.11847904 0.022361675 -0.360286
0.17981935 0.027679628 -0.360286
-0.0077454112 0.035112962 -0.360286
-0.168054 0.054046087 -0.360286
-0.088944189 0.073628411 -0.360286
0.034298811 0.078514852 -0.360286
0.15258761 0.089187667 -0.360286
-0.13687563 0.09509261 -0.360286
0.13569033 0.10701942 -0.360286
0.1305362 0.12397344 -0.360286
-0.15079691 0.1333579 -0.360286
-0.14373583 0.1329442 -0.360286
-0.16485392 0.14613901 -0.360286
-0.13342193 0.14051861 -0.360286
-0.042428989 0.14316273 -0.360286
0.0039440542 0.15448608 -0.360286
0.11780486 0.15628988 -0.360286
0.13553575 0.1580435 -0.360286
0.041933469 0.16870156 -0.360286
0.10858938 0.16491579 -0.360286
0.11247071 0.17439142 -0.360286
-0.15015095 0.23156744 -0.360286
-0.15121043 0.26781872 -0.360286
-0.14965546 0.29382664 -0.360286
-0.18132401 -0.23555824 -0.35859019
-0.18132401 -0.21187273 -0.35540295
-0.18132401 -0.18864852 -0.35885847
0.18132401 -0.15683235 -0.3505156
-0.18132401 -0.13569418 -0.35567108
-0.18132401 -0.10627655 -0.35840827
-0.18132401 0.13191377 -0.35165471
-0.18132401 0.18570188 -0.35293156
-0.18132399 0.2822139 -0.35774159
0.073434792 -0.29549104 -0.34358341
0.18132401 -0.26195338 -0.34500661
-0.18132401 -0.18583626 -0.34077811
-0.18132401 -0.14517608 -0.3443023
0.18132401 -0.0037922449 -0.34218863
0.18132401 0.12761343 -0.34120142
-0.068820924 0.18132401 -0.34002101
0.038166113 0.18804 -0.34821004
-0.18132399 0.23279308 -0.34171677
-0.13027155 0.26680169 -0.34037048
-0.18132401 -0.29450914 -0.33657828
0.0052196607 -0.29549101 -0.33736193
0.047021814 -0.29549101 -0.33627868
-0.18132402 -0.16408756 -0.33152357
-0.18132401 -0.13991158 -0.33258781
0.18132401 -0.13594475 -0.3301602
-0.15144561 -0.29549101 -0.32123351
-0.13212399 -0.29549101 -0.32691306
-0.082355365 -0.29549101 -0.32454839
-0.18132401 0.059646636 -0.32788444
-0.18132401 0.06627389 -0.32668537
-0.18132401 0.074927904 -0.32011116
-0.18132401 0.17038479 -0.32891849
-0.18132401 0.23249009 -0.32687992
-0.15007724 0.29549101 -0.32789049
0.056305341 -0.29549101 -0.31103215
-0.18132401 -0.24186465 -0.31302163
0.18132401 -0.078451633 -0.31138295
-0.18132401 -0.02435872 -0.3110458
0.18132401 -0.017498683 -0.31378323
-0.070802152 0.18132401 -0.31687298
-0.056011952 0.18132401 -0.31410375
-0.18132401 0.23585063 -0.31815425
-0.077446908 -0.29549098 -0.30898798
0.079661861 -0.29549101 -0.30043304
-0.18132401 -0.21339403 -0.30178699
-0.18132401 -0.1732918 -0.30406615
0.18132401 -0.16239612 -0.30897623
0.18132401 -0.010125633 -0.30452895
-0.18132401 0.099070698 -0.30975172
-0.078743547 0.18804 -0.30886707
0.093444481 0.18132401 -0.30947763
-0.15422504 0.29549101 -0.30008382
-0.040725328 -0.29549101 -0.29778808
0.18040696 -0.29549101 -0.29951814
0.18132401 -0.24225502 -0.29683158
-0.18132401 -0.20478258 -0.2927303
-0.18132401 0.13848448 -0.2982423
0.042472191 0.18132401 -0.294153
-0.18132401 0.20782268 -0.29311174
-0.18132401 -0.2921994 -0.28166628
-0.10568456 -0.29549101 -0.28662702
-0.18132401 -0.17147367 -0.28553477
0.18132401 -0.031088291 -0.28604379
-0.18132401 -0.015621491 -0.28851888
0.18132401 0.069312237 -0.28115502
-0.18132401 0.17625117 -0.2856462
-0.10214506 0.1917977 -0.28581369
-0.18121637 -0.29485458 -0.27475488
-0.014970575 -0.29549101 -0.27256787
0.07786151 -0.29549101 -0.27018052
0.13297543 -0.29549101 -0.27111214
-0.18132401 -0.25510028 -0.27922687
0.18132401 -0.10171229 -0.27119705
-0.18132401 -0.096570492 -0.27074787
0.18132401 0.022973243 -0.27220899
0.072230235 -0.29549101 -0.26479173
-0.18132401 -0.21268839 -0.26254126
-0.18132401 -0.043006748 -0.26240104
0.18132401 -0.02748269 -0.26833841
0.18132401 0.068956241 -0.26743329
-0.18132401 0.1424962 -0.26942649
0.12028105 0.18132401 -0.26075882
-0.18132401 0.27810001 -0.26450452
-0.025499538 -0.29549101 -0.25570035
-0.18132401 -0.072148062 -0.25805372
-0.18132401 -0.034168586 -0.25638628
0.18132401 -0.0033580512 -0.25834078
-0.18132401 0.019501917 -0.25446838
0.18132401 0.14509228 -0.25208023
-0.16253138 0.29549101 -0.25391394
-0.098726779 -0.29549101 -0.24262756
-0.0086734034 -0.29549101 -0.24112085
0.18132401 -0.22267479 -0.24543476
0.18132401 -0.18261974 -0.24641714
0.18132401 -0.11754929 -0.24246512
-0.18132401 -0.10792039 -0.24422532
-0.18132401 0.12714809 -0.2418848
0.18132401 0.13658068 -0.24379693
-0.18132401 0.16027725 -0.24227345
-0.13760497 0.286358 -0.24894331
-0.007385334 -0.29549101 -0.23873377
0.058871448 -0.29549101 -0.23200224
0.15937614 -0.29549101 -0.23623927
0.18132401 0.083780251 -0.23181346
-0.18132401 0.23361918 -0.23164546
0.022287279 -0.29549101 -0.22349449
0.086622529 -0.29549104 -0.22751649
-0.18132401 -0.23157316 -0.22911903
0.18132401 -0.23091248 -0.22888076
-0.18132401 -0.21837202 -0.22758296
0.18132401 -0.16010983 -0.22522122
0.18132401 0.013872769 -0.228168
0.18132401 0.037232105 -0.22597343
0.18132401 0.15857604 -0.22608432
-0.18132401 0.18275794 -0.22149923
0.085206203 0.18132401 -0.22771241
0.12716514 0.18132401 -0.2263293
-0.18132401 0.19842511 -0.22971959
-0.16654341 0.29549101 -0.22516799
-0.10250248 -0.29549101 -0.21168703
0.18132401 -0.2728743 -0.217801
0.18132401 -0.20828365 -0.21678573
0.18132401 -0.10016736 -0.21984449
-0.18132401 -0.037810013 -0.21367079
-0.18132401 0.082532607 -0.21497968
0.18132401 0.13303269 -0.21399838
-0.0013064966 0.18132401 -0.21694601
-0.18132401 0.23729639 -0.21630801
-0.14624968 0.29549101 -0.21888915
-0.17345405 -0.29549101 -0.20245405
0.18132401 -0.27839798 -0.20543544
-0.18132401 -0.1734322 -0.20519644
-0.18132401 -0.094656892 -0.20658801
0.18132401 -0.097640336 -0.20010731
-0.18132401 -0.024980035 -0.20963313
-0.090562873 0.23176159 -0.20717439
-0.1337169 0.27599031 -0.20574576
-0.18132401 -0.15308036 -0.19316542
-0.18132401 -0.019837454 -0.19643821
0.18132401 -0.019754058 -0.19465926
-0.18132401 0.041950289 -0.19767614
-0.18132401 0.088051684 -0.19998273
-0.073873103 0.18480901 -0.19207601
-0.050358877 0.18132401 -0.1910727
0.055900097 0.18132401 -0.19144143
0.143847 0.18132401 -0.19188517
0.15006056 0.18132401 -0.19742985
-0.11309735 0.23099111 -0.19172813
-0.11309712 0.24976605 -0.1935472
-0.13389036 0.27645281 -0.19487706
-0.12153907 -0.29549101 -0.18773842
-0.086582482 -0.29549101 -0.18352675
0.036864027 -0.29549101 -0.18466718
0.11020037 -0.29549101 -0.18846211
0.16027197 -0.29549098 -0.1887638
-0.18132401 -0.28266391 -0.18073986
-0.18132401 -0.21152297 -0.18143846
-0.18132401 -0.045952044 -0.18901537
0.18132401 0.065007314 -0.18908064
-0.18132401 0.074723057 -0.1874103
0.18132401 0.080717653 -0.18201122
0.15882131 0.18132401 -0.18205407
0.17074719 0.18804 -0.18875159
-0.18132401 0.25358829 -0.18260354
-0.083865814 -0.29549101 -0.17303997
0.020469226 -0.29549104 -0.17604885
-0.18132401 -0.21899894 -0.17654486
0.18132401 -0.013295781 -0.17164388
0.18132401 0.10765311 -0.17948315
0.064614929 -0.29549101 -0.16358507
0.1201103 -0.29549101 -0.16637555
0.18132401 -0.19365066 -0.16612311
0.18132401 -0.16015521 -0.16457745
-0.18132401 -0.13858862 -0.16397506
0.18132401 0.14893067 -0.1629059
0.18132401 0.15981258 -0.16934884
-0.18132401 0.21921137 -0.16411072
-0.18132401 0.22918919 -0.16753209
-0.18132401 0.26845151 -0.16054858
0.18132401 -0.24929288 -0.15349498
-0.18132401 -0.084666133 -0.15852781
-0.18132401 -0.060261391 -0.157258
0.18132401 0.067499161 -0.15594871
0.18132401 0.11713904 -0.1534853
-0.0093030091 0.18132401 -0.15147616
0.18132401 0.18445385 -0.15238714
-0.18132401 -0.12109357 -0.14854211
-0.18132401 -0.10700057 -0.14821969
-0.18132401 -0.020251269 -0.14597161
0.18132401 0.016077183 -0.14024396
-0.18132401 0.021886071 -0.14016543
-0.18132401 0.046555609 -0.14213146
0.18132401 0.07647121 -0.1407005
0.042605527 0.18132401 -0.14469227
-0.15284668 -0.29549101 -0.1329087
-0.18132401 -0.073569633 -0.13105607
-0.18132401 0.018468201 -0.13321206
0.18132401 0.16552967 -0.13452467
-0.077998944 0.18804 -0.13381648
0.14386657 0.18132401 -0.13054949
-0.18132401 0.22216418 -0.13830511
-0.12938903 0.26444951 -0.13271292
-0.041166402 -0.29549101 -0.12901233
0.083015166 -0.29549101 -0.1249464
0.1211617 -0.29549104 -0.12651415
-0.18132401 -0.28467578 -0.12386198
0.18132401 -0.26954851 -0.12709799
-0.18132401 -0.24991819 -0.12523583
-0.18132401 -0.20571914 -0.12503238
-0.18132401 -0.19403574 -0.12643649
0.18132401 -0.12359513 -0.12074241
-0.18132401 0.074132346 -0.12944937
0.17927946 0.18804 -0.12486892
0.037095137 -0.29549101 -0.11280501
0.10709561 -0.29549101 -0.11152819
0.11578219 -0.29549101 -0.11634185
0.14608791 -0.29549101 -0.11557338
0.17100383 -0.29549101 -0.11352999
0.18132401 -0.14285466 -0.11888579
-0.18132401 -0.075593211 -0.11215617
-0.18132401 0.078563489 -0.11421283
0.18132401 0.13710341 -0.1188769
0.18132401 0.16289382 -0.11574122
-0.073873103 0.18226589 -0.11846553
0.055399198 0.18132401 -0.11436607
-0.10389274 0.1964584 -0.11461364
-0.18132401 0.24594513 -0.11522667
-0.13874966 0.28941032 -0.11823405
0.0754731 -0.29549101 -0.10866331
-0.18132401 -0.23539911 -0.10230746
-0.18132401 0.149939 -0.10480728
-0.11190593 0.21782689 -0.10650265
-0.062945962 -0.29549101 -0.095927857
0.035276957 -0.29549101 -0.095104814
-0.18132401 -0.16684809 -0.09590172
-0.18132401 -0.12926514 -0.098530211
0.18132401 -0.0063334834 -0.096243598
0.18132401 0.11213966 -0.094226688
0.10982068 0.18132401 -0.093597256
-0.14579667 0.29549098 -0.095201373
0.14574742 -0.29549101 -0.089818731
0.18132401 -0.29021835 -0.083482072
0.18132401 -0.11804985 -0.082414836
-0.18132401 0.062913716 -0.083826669
0.17316306 0.18804 -0.085937828
-0.11440039 0.22447875 -0.084038466
0.037538625 -0.29549101 -0.072642058
0.086423591 -0.29549101 -0.073453091
0.12244835 -0.29549101 -0.075403921
-0.18132401 0.0339102 -0.075454034
-0.13097227 0.26867113 -0.072964258
-0.15501402 -0.29549101 -0.067354947
-0.083256513 -0.29549101 -0.06299752
0.17554352 -0.29549101 -0.066884533
-0.18132401 -0.13834682 -0.063875452
-0.18132401 -0.02641353 -0.065012522
-0.18132401 0.065935075 -0.063617021
-0.18132401 0.095386975 -0.066809379
0.18132401 0.1611076 -0.069832616
0.063331023 -0.29549101 -0.056285959
-0.18132401 -0.26773539 -0.050241046
-0.18132401 -0.17124869 -0.050853878
0.18132401 0.049702197 -0.058929555
-0.18132401 0.062731437 -0.050505981
0.18132401 0.060347922 -0.057441235
-0.18132401 0.095913835 -0.059812035
-0.18132399 0.17607093 -0.059866585
-0.080665357 0.18804 -0.05474969
0.0040530302 0.18132401 -0.05999545
0.036612973 0.18132401 -0.05340853
-0.18132401 0.2086347 -0.053341132
-0.18132401 -0.29543403 -0.040761843
-0.18132401 -0.2877939 -0.045329403
0.18132401 -0.14037393 -0.043247864
-0.18132401 -0.13019788 -0.04598894
-0.18132401 -0.070699342 -0.043722205
-0.18132401 -0.049970895 -0.045096491
-0.18132401 -0.025152862 -0.049539533
0.18132401 0.06746804 -0.04985686
0.18132401 0.095196061 -0.047323
0.11902075 -0.29549101 -0.036891811
0.18132401 -0.06692344 -0.035051323
-0.18132401 0.10102615 -0.033826135
-0.10419966 0.19727664 -0.037769314
-0.12726401 -0.29549101 -0.024149679
0.041259877 -0.29549101 -0.025976071
-0.18132401 -0.23318179 -0.026611809
0.18132401 -0.21140254 -0.028064068
-0.18132401 -0.1167857 -0.029394729
-0.18132401 -0.035603106 -0.020727923
-0.18132401 0.073512331 -0.029655574
-0.07042136 0.18132401 -0.023957051
0.094131254 0.18132401 -0.027091254
-0.11288837 0.22044656 -0.026433548
-0.18132401 0.23586072 -0.023793148
-0.18132401 0.29169583 -0.027368324
-0.013127709 -0.29549101 -0.010854632
0.047087517 -0.29549101 -0.011767107
0.053751022 -0.29549101 -0.013151609
0.070763841 -0.29549101 -0.013226166
0.13669834 -0.29549101 -0.013039707
-0.15252717 -0.28865722 -0.0157935
-0.013216451 -0.2702781 -0.0157935
0.077967033 -0.27457106 -0.0157935
0.11924226 -0.26392242 -0.015793499
-0.18132401 -0.25694597 -0.015071693
-0.093589723 -0.25838915 -0.015793499
0.051339258 -0.25500965 -0.0157935
0.15635553 -0.25700691 -0.0157935
0.14480229 -0.24412601 -0.0157935
-0.10416643 -0.23286106 -0.0157935
-0.072653934 -0.23860252 -0.0157935
0.1231733 -0.23523074 -0.0157935
0.014917195 -0.21110088 -0.0157935
-0.063777603 -0.20941259 -0.0157935
0.16041633 -0.19807737 -0.0157935
0.14814602 -0.18575229 -0.0157935
-0.035618432 -0.170123 -0.0157935
-0.095103316 -0.16026857 -0.0157935
0.038647722 -0.16199043 -0.0157935
-0.052516676 -0.15573747 -0.0157935
-0.13842337 -0.14133514 -0.0157935
0.084502429 -0.12319025 -0.0157935
0.11252618 -0.12674712 -0.0157935
-0.11310104 -0.11272779 -0.0157935
-0.14859256 -0.10127081 -0.0157935
0.044605408 -0.10608031 -0.0157935
0.076538771 -0.10514514 -0.0157935
0.055821635 -0.090515733 -0.0157935
0.091949619 -0.097734638 -0.0157935
0.11573283 -0.093165256 -0.0157935
-0.062576085 -0.072857991 -0.0157935
0.087244682 -0.078833915 -0.0157935
0.14859976 -0.072444811 -0.0157935
-0.074960098 -0.06630455 -0.0157935
0.14635524 -0.066096738 -0.0157935
-0.0095612966 -0.052762568 -0.0157935
0.12360606 -0.05311922 -0.0157935
-0.13602014 -0.041114189 -0.0157935
-0.057990313 -0.042976044 -0.0157935
-0.032582257 -0.031849332 -0.0157935
0.06023708 -0.034824312 -0.0157935
-0.014339877 -0.027070411 -0.0157935
0.13153565 -0.024313796 -0.0157935
0.10521983 -0.012184642 -0.0157935
-0.062347479 -0.0006755963 -0.0157935
0.16729994 -0.0083864182 -0.0157935
-0.17970008 0.0069412896 -0.0157935
-0.15691729 0.0062590241 -0.0157935
-0.092782915 0.0022226442 -0.0157935
0.037140477 0.0095307305 -0.0157935
0.14195563 0.0022675097 -0.0157935
-0.18132401 0.017932385 -0.014050419
-0.15609442 0.011417158 -0.0157935
0.1596469 0.015318241 -0.0157935
-0.14911151 0.049999855 -0.0157935
-0.043137614 0.04008285 -0.0157935
0.041756012 0.044805057 -0.0157935
-0.16194209 0.052577242 -0.0157935
0.02920218 0.053664118 -0.0157935
0.13840255 0.064187735 -0.0157935
0.10038412 0.070413835 -0.0157935
-0.15763536 0.080224991 -0.015793502
-0.060557671 0.083621003 -0.0157935
-0.045153379 0.089581236 -0.0157935
0.18132401 0.088707097 -0.019963901
-0.17372754 0.090293571 -0.0157935
-0.071251348 0.099850193 -0.0157935
-0.053653259 0.094096705 -0.0157935
0.18132401 0.10128739 -0.01119569
0.094681621 0.1198827 -0.0157935
-0.13301286 0.1231029 -0.0157935
0.10305914 0.12174314 -0.0157935
-0.13344654 0.13171607 -0.0157935
0.056772318 0.13437405 -0.0157935
0.1673775 0.13596204 -0.0157935
-0.12638925 0.14313543 -0.015793499
0.07572151 0.14587027 -0.0157935
0.094157405 0.14499724 -0.0157935
-0.017533924 0.15900967 -0.0157935
-0.0012619644 0.16974196 -0.0157935
0.020162877 0.16051413 -0.0157935
0.1027639 0.16051611 -0.0157935
0.12480308 0.16788973 -0.0157935
0.18132401 0.16824184 -0.013446531
-0.12331229 0.17815875 -0.0157935
-0.10218468 0.17191161 -0.0157935
0.17455465 0.17004594 -0.0157935
-0.16683951 0.18479811 -0.0157935
-0.061203338 0.18804 -0.013072853
-0.0075466484 0.18004075 -0.0157935
0.022302356 0.18804 -0.015294181
0.03824757 0.181995 -0.0157935
0.096063137 0.18132401 -0.01146872
-0.16753563 0.19285765 -0.0157935
-0.10316227 0.19451018 -0.017065227
-0.18132401 0.20866641 -0.014187796
-0.14267725 0.20698109 -0.0157935
-0.18132401 0.23114614 -0.010049691
-0.1232138 0.23497316 -0.0157935
-0.15829179 0.25598395 -0.0157935
-0.17992991 0.27703398 -0.0157935
-0.13338523 0.27510494 -0.019003348
-0.18132401 0.28236887 -0.019130474
-0.14594641 0.2940301 -0.0157935
-0.14066343 -0.29549101 -0.0027057575
0.085760795 -0.29549101 -0.0076073483
0.18132401 -0.23973191 -0.0051522655
-0.18132401 -0.087836608 -0.0045191776
0.17460801 -0.081791848 -0.0011112175
-0.18132401 -0.045983255 -0.0054797716
0.18132401 -0.022918124 -0.0034969908
0.18132401 0.0021221377 -0.0069495528
-0.18132401 0.044553395 -0.0071347081
0.18132401 0.1397001 -0.0067231054
-0.18132401 0.1836032 -0.0030347442
-0.083987132 0.18589464 -0.0059992415
-0.18132401 0.29467884 -0.0048027961
0.021078534 -0.29549101 0.0050761048
0.16709617 -0.29549101 0.0028877677
-0.18132401 -0.26925245 0.0014608122
-0.18132402 -0.23291208 0.0012817439
0.18132401 -0.18919876 0.0067389905
-0.18132401 -0.14562422 0.0072234021
-0.18132401 -0.10888721 0.0095230397
0.18132401 0.011376385 0.0028604567
-0.18132401 0.1125351 0.0027711676
0.18132401 0.15980422 0.0042282823
-0.18132401 0.19749829 0.0027125794
-0.18132401 0.20092605 0.0031041149
0.028516926 -0.29341459 0.015794201
0.12912324 -0.29549098 0.012862769
0.13602842 -0.29549101 0.014160868
0.062397677 -0.28056458 0.015794201
0.077386461 -0.27639082 0.015794201
0.13962503 -0.26529801 0.015794201
-0.12635666 -0.24904107 0.015794201
0.17621045 -0.24945444 0.015794201
-0.03774083 -0.23690224 0.015794201
0.029673986 -0.23456156 0.015794199
0.042136375 -0.22374125 0.015794201
-0.11153601 -0.21615031 0.015794201
0.052740954 -0.21228051 0.015794201
0.056755304 -0.20379029 0.015794201
-0.16841844 -0.19197389 0.015794201
0.036327459 -0.19401899 0.015794201
-0.060028341 -0.18281835 0.015794201
0.062101193 -0.17444725 0.015794201
0.18132401 -0.17298046 0.01075145
-0.15098546 -0.16165869 0.015794201
0.0024646446 -0.16625132 0.015794201
0.062464479 -0.15454957 0.015794201
0.07383468 -0.15675279 0.015794201
0.090041295 -0.15261555 0.015794201
0.13245746 -0.15892994 0.015794201
0.063909702 -0.1406436 0.015794201
-0.10000283 -0.12491365 0.015794201
0.075406536 -0.12148516 0.015794201
-0.071670085 -0.11515918 0.015794201
0.061325852 -0.1189802 0.015794201
-0.18132401 -0.10768529 0.011993328
-0.0073571503 -0.10478607 0.015794201
-0.11837594 -0.091048211 0.015794201
0.022595931 -0.099139273 0.015794201
0.061428405 -0.093915865 0.015794201
-0.12872839 -0.086314142 0.015794201
-0.1031831 -0.084501088 0.015794201
0.0096307732 -0.08012858 0.015794201
0.083433591 -0.08351022 0.015794201
0.15928969 -0.078155205 0.015794201
-0.0321334 -0.06215493 0.015794201
0.05564864 -0.053792611 0.015794201
-0.18132401 -0.046234585 0.013206708
-0.14615999 -0.020493276 0.015794201
-0.16748932 -0.017459078 0.015794203
0.0043954253 -0.014968827 0.015794201
0.077505521 -0.009114502 0.015794201
0.11285897 -0.0056950189 0.015794201
0.17518283 0.004174605 0.015794201
-0.1335367 0.017619096 0.015794201
0.024302613 0.017087772 0.015794201
-0.16909319 0.022951365 0.015794201
-0.13254896 0.021864375 0.015794201
0.045924712 0.024498925 0.015794201
-0.15036026 0.033530414 0.015794201
-0.12280518 0.031811859 0.015794201
0.049286354 0.038381509 0.015794201
0.077920869 0.050394207 0.015794201
0.18098965 0.059687544 0.015794201
-0.023168378 0.060550805 0.015794201
0.039243396 0.064141914 0.015794201
-0.074238494 0.072812088 0.015794201
0.043457918 0.0850043 0.015794201
-0.18132401 0.099111237 0.019833116
0.11859632 0.092353851 0.015794201
0.050125711 0.10221756 0.015794201
-0.17196891 0.11824381 0.015794201
-0.14145657 0.11103661 0.015794201
-0.068934761 0.11654089 0.015794201
-0.022178961 0.12287705 0.015794201
-0.1381039 0.13720635 0.015794201
-0.054531723 0.13938896 0.015794201
0.0046986453 0.14156905 0.015794201
0.078074478 0.14623894 0.015794201
0.097827591 0.14605275 0.015794201
0.16252133 0.14554313 0.015794201
-0.052316651 0.15578987 0.015794201
0.0069423355 0.15848261 0.015794201
0.024025165 0.16447437 0.015794201
0.082261816 0.16823208 0.015794201
-0.00098838657 0.17515585 0.015794199
0.015626874 0.17052169 0.015794201
0.1327574 0.17686668 0.015794201
-0.11538904 0.18177822 0.015794201
-0.064699315 0.18132401 0.011792307
-0.026620749 0.18132401 0.014214265
0.054566178 0.18132401 0.011008156
0.07548359 0.18804 0.015642628
0.17200993 0.18803999 0.017191838
-0.18132401 0.21327932 0.018427484
-0.12837252 0.22546837 0.015794201
-0.01574849 -0.29549101 0.025136027
0.013049598 -0.29549101 0.029235234
0.18132401 -0.28042024 0.027512098
0.18132401 -0.10049339 0.028139021
0.17460801 0.048425373 0.029571405
-0.074174099 0.18208484 0.027294423
-0.0057034548 0.18132401 0.028670225
0.11956786 0.18132401 0.028578371
-0.106153 0.20248485 0.023826323
-0.11483739 0.22564447 0.024669109
0.18132401 -0.28950217 0.035363875
-0.18132401 -0.22413708 0.038625102
-0.18132401 -0.19765402 0.038842976
-0.18132401 -0.13734888 0.036899883
-0.18132401 0.14515094 0.037019696
-0.058091927 0.1770425 0.032810502
-0.087303996 0.18261145 0.033481475
-0.098194234 0.24282235 0.036581293
-0.008172513 -0.29549101 0.042784959
0.048548259 -0.29549101 0.040984772
-0.18132401 -0.24160674 0.044708565
-0.18132401 -0.19897376 0.043069914
-0.18132401 -0.079022944 0.048855126
0.17460801 -0.06563662 0.043433972
-0.18132401 -0.0070657656 0.044425629
0.17460801 -0.0015416921 0.041312892
-0.18132401 0.085548356 0.046955783
0.17460801 0.12743257 0.04715294
-0.18132401 0.18433566 0.041338641
-0.08307153 0.18132401 0.040645853
-0.036165841 0.18132401 0.040563561
0.12022644 0.18132401 0.048194338
0.14737059 0.18132401 0.048824161
0.16344105 0.18132401 0.042467352
-0.1754984 -0.29549101 0.059625939
0.18132401 -0.23548986 0.056264035
-0.18132401 -0.15194893 0.056553412
-0.18132401 -0.13678947 0.057429329
-0.18132401 -0.12763721 0.058539942
-0.18132401 -0.10701029 0.053398062
-0.051288702 0.18026334 0.055544522
0.024462901 0.18132401 0.059461441
-0.10281602 0.239004 0.055789325
-0.091808967 0.24074152 0.052220426
-0.18132401 -0.1403555 0.061197959
0.16503866 0.059604779 0.064794697
0.17460802 0.10988076 0.06165326
-0.071967006 0.18300299 0.062152874
-0.14072996 0.29469097 0.060124915
-0.11000438 -0.29549101 0.075109147
-0.18132401 -0.18117453 0.074786849
0.18132401 -0.18956752 0.075063825
0.17460802 0.1238005 0.077181436
0.17460801 0.16225415 0.07034681
0.17460801 0.17015558 0.077125683
0.080806732 0.18132401 0.076066419
0.017155234 -0.29549101 0.089694984
0.18132401 -0.25632003 0.086808234
-0.18132401 -0.22714362 0.084833011
-0.18132401 -0.18947585 0.085594684
-0.18132401 -0.16521996 0.081376947
0.18132401 -0.15622032 0.08196599
-0.18132401 0.046030067 0.082970075
0.17460801 0.1612425 0.088521525
-0.075477391 0.18132401 0.085477754
0.15362711 0.18132401 0.08350186
-0.058866527 -0.29549101 0.095444322
-0.18132401 -0.27383479 0.096340939
-0.18132401 -0.25138503 0.091000184
0.17460801 -0.057012886 0.097876638
-0.18132401 0.13298769 0.09416841
0.12176437 0.18132401 0.093709454
0.14300323 0.18132401 0.097787321
-0.18132401 0.26785347 0.099225588
0.0092889387 -0.29549101 0.10434088
0.17460801 -0.091273628 0.10577025
0.17460801 0.13572887 0.10189494
0.17460801 0.16188368 0.10866006
-0.028712988 0.18132401 0.10859837
0.12514532 0.18132401 0.10608137
-0.13246244 0.27264571 0.10396205
-0.17916754 0.29549101 0.10304356
-0.11954081 -0.29549101 0.11105713
-0.064283192 -0.29549101 0.11937736
0.18132401 -0.25039238 0.1178387
0.17460801 0.018532081 0.11785543
-0.18132401 0.18387377 0.11301278
-0.02231561 0.18132401 0.11917289
-0.18132401 0.24479903 0.11917584
-0.10984553 0.25003564 0.11684651
-0.18132401 -0.28508902 0.12563044
0.18132401 -0.19064988 0.12845534
-0.18132401 -0.089711584 0.12860765
0.17460801 -0.019087568 0.12225333
0.17460801 0.0061456682 0.12352061
-0.087304004 0.18640853 0.12033079
0.12809834 0.18132401 0.12271412
0.18132401 0.18269747 0.12247503
-0.18132401 0.21216378 0.12792806
-0.13476819 0.27879399 0.12864657
-0.03894205 -0.29549101 0.13411146
0.17962462 -0.29549101 0.13562147
-0.18132401 -0.25837022 0.13036874
-0.18132401 -0.19340673 0.13951738
0.18132401 -0.17382646 0.13183303
-0.18132401 -0.13549601 0.13790759
-0.18132401 -0.047574982 0.1337499
-0.18132401 0.0011520088 0.1346579
-0.18132401 0.072310366 0.13361236
-0.065412104 0.18132401 0.13587922
0.15971397 0.18132401 0.13582602
-0.16852227 0.29549101 0.13813217
-0.064044811 -0.29549098 0.14733286
-0.038187847 -0.29549101 0.1455362
-0.18132401 -0.25778052 0.14773124
0.18132401 -0.13467394 0.14481655
0.17460802 -0.068792365 0.14890732
-0.18132401 0.012884885 0.14003366
0.17460801 0.085005462 0.14854291
-0.18132401 0.16593948 0.14385222
0.11086474 0.18132401 0.14477819
0.17361125 0.18803999 0.14214945
-0.15321386 -0.29549101 0.15768009
0.056792937 -0.29549101 0.15506098
0.14035191 -0.29549101 0.1597821
-0.18132401 -0.20011997 0.1537126
-0.18132401 -0.06633094 0.15716454
-0.18132401 -0.02535224 0.1590976
-0.18132401 0.027075052 0.15209661
-0.18132401 0.096251227 0.15363096
-0.18132401 0.10974529 0.1580583
0.17936215 0.17460801 0.15598387
-0.077527627 -0.29549101 0.16176802
-0.18132401 -0.22375745 0.1635797
0.18132401 -0.20918415 0.16797876
-0.18132401 -0.095052235 0.16194482
0.17460801 -0.066198327 0.16906108
-0.18132401 -0.047483396 0.16081005
-0.18132401 -0.030673206 0.16610476
-0.18132401 0.047042854 0.16330773
-0.033623163 0.18132401 0.16587734
0.15106055 -0.29549101 0.1744605
0.17460802 -0.093560815 0.17968014
0.17460801 -0.0013761856 0.17027274
-0.087187216 0.18132401 0.17742054
-0.045685098 0.18132401 0.17889144
-0.13076718 0.26812357 0.17020451
-0.18132401 -0.19273651 0.18948977
-0.18132401 0.046700381 0.18771684
0.17427242 0.18804 0.18895453
-0.17436117 0.29549101 0.18111669
-0.14205027 0.29549101 0.18656392
0.0011325669 -0.29549101 0.19952352
0.18132401 -0.20685428 0.19837885
0.18132401 -0.13738753 0.19298641
-0.18132401 -0.081541121 0.19360641
0.17460801 -0.039364435 0.19137162
-0.18132401 -0.0074449778 0.19381776
-0.18132401 0.1404717 0.19470952
0.15964144 0.18132401 0.1997546
-0.11273757 0.22004563 0.19657575
-0.16813587 0.29549101 0.19667196
-0.11072017 -0.29549101 0.20624371
0.086255834 -0.29549101 0.20519111
0.18132401 -0.15954328 0.2050741
0.17460802 0.00089584291 0.20031886
-0.18132401 0.088793226 0.2099445
-0.018493921 0.18132401 0.20695291
-0.11293564 0.22057378 0.20143642
-0.14552301 0.29549101 0.20017317
-0.084650986 -0.29549101 0.21538642
0.033283018 -0.29549101 0.21470794
0.044768281 -0.29549101 0.21522519
0.015914885 0.18132401 0.21777737
-0.18132401 0.21647841 0.21600068
-0.16603333 0.29549101 0.21734104
-0.15530118 -0.29549101 0.22924334
-0.14268281 -0.29549101 0.22902395
0.18132401 -0.21642132 0.22786233
0.18132401 -0.16047704 0.22271764
0.00041140243 0.18132401 0.22649218
-0.18132401 0.20220873 0.22511612
-0.071722344 -0.29549101 0.23362686
0.045031387 -0.29549101 0.2356793
0.075361565 -0.29549101 0.23210739
0.18132401 -0.28244773 0.23939808
0.18132401 -0.24505293 0.23249131
0.18132401 -0.21520166 0.23690206
0.17460799 -0.086694956 0.23592332
0.17460801 -0.036962938 0.23347358
0.17460801 -0.017491132 0.23760363
-0.10273224 0.19336314 0.233161
-0.12389699 0.24980384 0.23685162
-0.18132401 0.29399201 0.23737884
-0.09473978 -0.29549101 0.24381906
-0.088262454 -0.29549101 0.24781998
-0.18132401 -0.037384957 0.24839766
0.17460801 -0.018198036 0.24459322
-0.18132401 0.021097746 0.2414088
0.17460801 0.038393233 0.24196887
-0.18132401 0.065703027 0.2444606
-0.094384328 0.18804 0.24540184
0.18132401 0.18699563 0.24932581
-0.11828285 0.23483267 0.24821463
0.12996635 -0.29549101 0.25294253
0.13476683 -0.29549101 0.25235254
0.18132401 -0.28219229 0.25350648
0.18132401 -0.16541521 0.25543445
-0.18132401 0.1076901 0.25789237
0.045213234 0.18132401 0.25604385
0.022027526 -0.29549101 0.26653379
0.08608152 -0.29549101 0.26695544
-0.18132401 -0.14736994 0.26493931
0.095397249 0.18132401 0.26469713
0.12345549 0.18132401 0.26999947
0.18132401 0.18242107 0.26216614
-0.14735502 0.29549101 0.26178074
0.18132401 -0.17898962 0.27716225
-0.18132401 -0.1408627 0.27677363
-0.18132401 -0.12467236 0.27006257
0.17460801 0.046260454 0.27292415
-0.015994146 0.18132401 0.27698806
0.18059188 0.18804 0.27252483
-0.18132401 0.20153897 0.27639914
-0.12126083 0.24277377 0.27507186
-0.18132401 0.28920838 0.27014872
-0.11966424 -0.29549101 0.28914183
0.092366643 -0.29549104 0.28535143
0.18132401 -0.2066289 0.28018579
0.18132401 -0.10757442 0.28895473
-0.18132401 0.14992584 0.28868869
-0.18132401 0.18532379 0.28260303
-0.18132401 0.2286099 0.28676561
0.098469764 -0.29549101 0.29116839
0.17460802 -0.067635998 0.29281873
0.12107494 0.18132401 0.29848945
-0.11383685 0.22297622 0.29688323
0.072760656 -0.29549104 0.30061772
-0.18132401 -0.26907644 0.30129969
0.18132401 -0.26167485 0.30260995
-0.18132401 -0.071471512 0.3084721
-0.18132401 0.11005019 0.30607951
-0.18132401 0.17345029 0.30811757
-0.053570766 0.18132401 0.30732825
0.16789299 0.18792413 0.30751374
0.18132401 0.18545525 0.30637324
-0.10787269 0.20707166 0.30668345
0.081610806 -0.29549098 0.31297112
-0.18132401 -0.26745752 0.31059724
-0.18132401 -0.21735467 0.31033862
0.18132401 -0.10512335 0.31876308
0.17460799 0.0023435913 0.31080166
-0.070710227 0.18132401 0.31244451
-0.069395103 0.18132401 0.31826225
0.1096943 0.18132401 0.31904906
-0.18132401 0.19695193 0.31984469
-0.021014437 -0.29549101 0.32431608
0.12634163 -0.29549101 0.32121834
0.13098261 -0.29549104 0.32421347
0.1802025 -0.29549101 0.32638273
0.18132401 -0.23584804 0.32653981
0.18132401 -0.22099537 0.32764548
-0.18132401 -0.15854816 0.32457373
0.18132401 -0.13881011 0.32056117
-0.18132401 0.13192761 0.32291511
-0.18132401 0.16239506 0.32444572
-0.13532357 0.28027415 0.32033318
-0.079176843 -0.29549101 0.33381203
-0.18132401 -0.2739391 0.33452711
0.18132401 -0.23087852 0.33244601
0.17460801 0.057490632 0.33654922
0.17460801 0.071543597 0.33654934
0.17460801 0.12024918 0.33804184
-0.062287573 0.18132401 0.33551264
0.05403576 0.18132401 0.33675507
0.069148257 0.18132401 0.33881205
0.13984452 0.18132401 0.334562
0.15656459 0.18132401 0.33888766
-0.18132401 0.23503406 0.331469
-0.12211523 -0.29549101 0.34751916
-0.051535062 -0.29549101 0.34901303
0.18132401 -0.18870445 0.34668911
-0.18132401 -0.11284146 0.34048858
0.17513826 -0.089679137 0.34685501
0.17460801 -0.039528564 0.34300387
0.18132401 0.1803818 0.34447759
-0.12327655 0.24814844 0.3461583
-0.095314354 -0.29549101 0.35397515
-0.18132401 -0.22409603 0.3551701
0.18132401 -0.21774167 0.35620016
0.18132401 -0.14959064 0.3596642
-0.18132401 -0.062769212 0.35014194
0.18132401 0.13001189 0.35017666
-0.0066927597 0.18804002 0.35985699
-0.11152916 0.21682186 0.35774356
-0.15178776 -0.29180843 0.360286
-0.036995292 -0.2935749 0.360286
0.0044223741 -0.28222644 0.360286
0.14348839 -0.28030035 0.36028603
0.047405574 -0.27044058 0.360286
-0.024855379 -0.23741093 0.360286
0.073382452 -0.23758644 0.360286
0.086400099 -0.23149593 0.360286
-0.12012377 -0.22990695 0.360286
0.022954807 -0.22702694 0.360286
0.08605434 -0.21773903 0.360286
0.13141647 -0.21188639 0.360286
-0.12767829 -0.20646644 0.360286
0.074773923 -0.20512061 0.360286
0.081445619 -0.18604293 0.360286
-0.082075328 -0.17979109 0.360286
-0.033911008 -0.17506832 0.360286
-0.011858702 -0.17082867 0.360286
0.11638069 -0.17575768 0.360286
-0.032916941 -0.16055411 0.360286
0.15135315 -0.16327181 0.360286
0.041987583 -0.1310811 0.360286
0.1314293 -0.13275789 0.360286
-0.076502487 -0.12810118 0.360286
0.051259886 -0.12788358 0.360286
0.019637402 -0.11939655 0.360286
-0.17497416 -0.10187758 0.360286
0.091870032 -0.10848479 0.360286
0.13920541 -0.10272951 0.360286
0.0086774081 -0.091818258 0.360286
0.051378436 -0.090387374 0.360286
0.17048419 -0.094997317 0.360286
-0.040523347 -0.081415348 0.360286
-0.075624853 -0.077801928 0.360286
0.15779449 -0.076370567 0.360286
-0.14644748 -0.067464329 0.360286
0.17330815 -0.062527195 0.360286
0.14772144 -0.023499534 0.360286
-0.17614448 -0.013879091 0.360286
-0.086484052 -0.011437103 0.360286
-0.17198753 -0.00057768822 0.360286
0.083478391 0.0086349063 0.360286
-0.073440909 0.016349502 0.360286
0.061965823 0.018941946 0.360286
0.093680434 0.011851504 0.360286
0.10807122 0.018630173 0.360286
-0.16976354 0.029609442 0.360286
0.061875191 0.02091413 0.360286
0.10255674 0.022122793 0.360286
0.17730868 0.034716208 0.360286
0.031130265 0.057133231 0.360286
0.10627285 0.059130155 0.360286
-0.087477207 0.065845013 0.360286
0.15910593 0.06443508 0.360286
-0.15649393 0.070247889 0.360286
-0.052135654 0.078369357 0.360286
0.14176446 0.07810358 0.360286
-0.13090575 0.080359325 0.360286
-0.1085003 0.087529622 0.360286
0.068663701 0.081995383 0.360286
-0.068730496 0.096004382 0.360286
0.14946167 0.0961954 0.360286
-0.17394418 0.10162114 0.360286
-0.06804502 0.10633127 0.360286
0.081068635 0.10898715 0.360286
0.16144237 0.10751653 0.360286
0.14348879 0.11161755 0.360286
0.16324957 0.11244456 0.360286
-0.11440467 0.12057844 0.360286
-0.068361938 0.12542665 0.360286
-0.055711344 0.12624092 0.360286
-0.13049403 0.13767046 0.360286
-0.081049621 0.13827859 0.360286
0.11051382 0.13084894 0.360286
0.15505654 0.13970056 0.360286
0.042473678 0.14328334 0.360286
0.13977897 0.15442175 0.360286
0.10552048 0.16917124 0.360286
0.14859651 0.16752973 0.360286
0.14861114 0.17050201 0.360286
-0.15365776 0.1913065 0.360286
-0.17282787 0.25039786 0.360286
