# .PCD v0.7 - Point Cloud Data file format
VERSION 0.7
FIELDS x y z
SIZE 4 4 4
TYPE F F F
COUNT 1 1 1
WIDTH 965
HEIGHT 1
VIEWPOINT 0 0 0 1 0 0 0
POINTS 965
DATA ascii
-0.053261239 -0.35486999 -0.24760245
0.14379469 -0.35486999 -0.24748984
-0.010503739 -0.34364232 -0.247981
-0.004293561 -0.34253722 -0.24798101
-0.19103479 -0.33626139 -0.247981
-0.11427488 -0.33888599 -0.247981
-0.069982961 -0.33855015 -0.24798101
-0.022690929 -0.33515656 -0.24798101
0.07788083 -0.3356137 -0.24798101
0.16762075 -0.32293496 -0.247981
-0.098773733 -0.31376007 -0.247981
0.082617834 -0.3171449 -0.24798101
0.10490135 -0.31923258 -0.247981
0.11724553 -0.3136659 -0.247981
0.19355756 -0.3181591 -0.247981
-0.10918604 -0.30343893 -0.247981
-0.018408075 -0.29437637 -0.24798101
0.061084509 -0.29871261 -0.247981
0.091424003 -0.29871663 -0.24798101
0.11724026 -0.29564324 -0.24798098
0.12412769 -0.2943629 -0.24798101
0.14200337 -0.29838336 -0.247981
-0.19755512 -0.28727755 -0.247981
-0.15356924 -0.28395858 -0.247981
-0.11966587 -0.28937951 -0.247981
0.16352694 -0.27468133 -0.247981
-0.038260572 -0.26994175 -0.24798101
-0.02617228 -0.26705557 -0.24798098
-0.00070971251 -0.26883668 -0.24798101
0.15838468 -0.26298624 -0.247981
0.21044484 -0.26541469 -0.24798098
0.226603 -0.26653886 -0.24684274
-0.012531057 -0.25706372 -0.247981
0.13408183 -0.25320545 -0.24798098
0.17923521 -0.25376436 -0.247981
0.20970511 -0.253434 -0.247981
0.22232708 -0.25133419 -0.24798098
0.040875226 -0.2453825 -0.24798101
0.18768424 -0.24862225 -0.247981
-0.17890801 -0.23034507 -0.247981
-0.16077913 -0.23701771 -0.247981
0.037853137 -0.23460892 -0.24798098
0.041023105 -0.23096311 -0.24798101
-0.16373236 -0.22040032 -0.247981
-0.058357235 -0.22336639 -0.247981
0.051228754 -0.22452688 -0.24798098
-0.17862557 -0.21038102 -0.24798098
-0.010070726 -0.21961331 -0.24798098
0.0043069348 -0.21581772 -0.24798101
0.02576495 -0.21354096 -0.247981
0.061128594 -0.20753944 -0.24798101
0.10777162 -0.20409985 -0.247981
-0.19568351 -0.19234593 -0.247981
-0.11174699 -0.18370369 -0.24798098
0.226603 -0.18402362 -0.24158332
0.14902155 -0.17029887 -0.24798098
-0.205226 -0.16329277 -0.24659333
-0.13238879 -0.16594186 -0.247981
0.092552677 -0.16516483 -0.24798101
-0.17264898 -0.15785126 -0.247981
-0.011097735 -0.15276171 -0.247981
0.19139217 -0.15772609 -0.24798101
0.22256222 -0.14219959 -0.24798098
-0.10799527 -0.13819429 -0.247981
-0.16707385 -0.12350923 -0.247981
-0.12660439 -0.12358233 -0.247981
0.023908131 -0.12437335 -0.24798101
0.056292921 -0.12838638 -0.24798098
0.11000569 -0.12024944 -0.24798098
-0.058299832 -0.11387436 -0.247981
0.099792607 -0.11489297 -0.24798098
0.21574065 -0.11710518 -0.24798098
0.15535551 -0.10219067 -0.247981
0.226603 -0.10462581 -0.24584937
-0.00051904283 -0.080720745 -0.24798101
0.020052403 -0.074997984 -0.247981
0.19707029 -0.072686866 -0.24798098
-0.17313945 -0.068682827 -0.24798098
0.020309269 -0.068651699 -0.24798098
0.11090361 -0.064324394 -0.247981
0.17389321 -0.062646784 -0.247981
0.034433171 -0.059357516 -0.247981
0.060176719 -0.053943042 -0.24798101
0.16101611 -0.042575322 -0.24798098
-0.16421935 -0.031751387 -0.24798101
-0.024413951 -0.039116144 -0.247981
-0.047630802 -0.023604386 -0.247981
-0.011077188 -0.021144882 -0.247981
0.082771569 -0.021277487 -0.247981
0.15056896 -0.025578849 -0.24798098
-0.039185144 -0.0079292357 -0.24798101
-0.00053988397 -0.001808092 -0.24798098
0.19234577 -0.0024887472 -0.247981
-0.13987321 0.0082646757 -0.247981
-0.077063486 0.0084851645 -0.24798101
0.0069831982 0.0068091601 -0.24798098
0.037988648 0.0053958744 -0.247981
0.11598623 0.0023263842 -0.24798101
-0.10156665 0.017597059 -0.247981
0.063265443 0.015778892 -0.247981
0.082504883 0.02413692 -0.247981
-0.11636032 0.031626694 -0.24798098
0.1779917 0.034960829 -0.24798101
0.0034961179 0.041506052 -0.24798098
-0.18851741 0.057422236 -0.24798101
0.11756944 0.053621724 -0.247981
0.062280804 0.063606769 -0.24798101
-0.053001694 0.073367223 -0.24798101
0.13056828 0.078367218 -0.247981
-0.20005228 0.089120671 -0.247981
-0.003102906 0.089664139 -0.24798098
0.18295601 0.089159042 -0.24798098
-0.20399004 0.1033539 -0.24798098
-0.047912415 0.10829525 -0.247981
0.17988943 0.10155986 -0.247981
0.226603 0.11233052 -0.24510296
-0.1048856 0.12086758 -0.24798101
0.093988352 0.12882535 -0.24798098
0.172304 0.12460198 -0.247981
-0.11105265 0.13200974 -0.247981
-0.024428444 0.13756903 -0.24798098
0.084537253 0.13706775 -0.24798101
0.17781153 0.1371351 -0.24798098
0.023447134 0.14739464 -0.247981
0.071084112 0.14435001 -0.247981
-0.070753336 0.15297903 -0.247981
-0.0646227 0.15639886 -0.247981
-0.022227399 0.15145044 -0.247981
-0.082195207 0.16351414 -0.24798101
0.065331206 0.16332208 -0.24798101
0.13567965 0.16039938 -0.24798101
0.18386361 0.1636114 -0.247981
-0.18674646 0.17058629 -0.24798101
-0.12750101 0.17268348 -0.247981
0.041253075 0.17048866 -0.247981
0.12942216 0.17856264 -0.247981
0.18792686 0.17656253 -0.247981
0.20115159 0.18039024 -0.247981
-0.073824205 0.19312517 -0.247981
-0.014514923 0.19087195 -0.24798101
0.063167937 0.20149399 -0.24798098
0.096867852 0.20739889 -0.247981
0.0020087585 0.21186168 -0.24798101
0.12974451 0.21831597 -0.247981
0.21678486 0.21511793 -0.247981
0.226603 0.21321221 -0.24639104
-0.10901181 0.24798101 -0.24307506
-0.062976256 0.24540707 -0.247981
0.0069386736 0.24798101 -0.24409625
0.019286476 0.247981 -0.2419309
0.041681699 0.247981 -0.24156003
0.059923731 0.247981 -0.24308813
-0.11371039 0.25559497 -0.24798101
-0.20095 0.31845817 -0.24313498
-0.17875862 0.31044436 -0.24798101
-0.1761601 0.34890026 -0.247981
-0.20095 0.35112607 -0.24336258
-0.18835601 0.36051279 -0.24798098
0.12488684 -0.35486999 -0.23888434
0.226603 -0.22062021 -0.2370376
0.226603 -0.10337942 -0.23978436
0.226603 -0.098748878 -0.23131043
-0.205226 0.034948923 -0.2376972
0.226603 0.14890654 -0.23338133
-0.011442782 0.247981 -0.23652568
-0.0049416912 0.24798101 -0.23642069
-0.199892 0.25889266 -0.2379491
-0.089153014 -0.35486999 -0.22776635
-0.022673391 -0.35486999 -0.22739312
0.226603 -0.11289996 -0.22953618
0.226603 -0.0031975508 -0.22654155
-0.205226 0.10562815 -0.22522455
0.226603 0.17866497 -0.22993861
-0.205226 0.21191576 -0.22402577
-0.18393207 0.247981 -0.22317405
-0.16490695 0.24798101 -0.22507617
-0.12360919 0.2946232 -0.22389951
0.22232801 -0.34893137 -0.21529788
0.226603 -0.26566139 -0.21714839
0.226603 -0.20671839 -0.21531811
0.226603 0.17313534 -0.21018197
0.0086345561 0.243705 -0.21579109
0.050998308 0.243705 -0.2111268
-0.11763931 0.27549767 -0.21235047
-0.028321698 -0.35486999 -0.20213586
0.22232801 -0.34282401 -0.20140237
-0.205226 -0.33118835 -0.2081586
0.226603 -0.096734062 -0.20369685
0.226603 -0.085036434 -0.20611936
-0.205226 0.0068933368 -0.20172919
0.226603 0.036712885 -0.2068693
0.226603 0.08033812 -0.20618565
-0.205226 0.19736758 -0.20286976
-0.20389521 0.24618867 -0.20335865
-0.053566612 0.24798098 -0.20404898
0.11257946 0.243705 -0.2017765
0.21626206 0.24798098 -0.20318666
-0.13513069 0.33153516 -0.20731269
-0.20339446 -0.35486996 -0.19768442
0.19989887 -0.35486999 -0.19949301
0.22010811 -0.35486999 -0.19156732
-0.205226 -0.33620566 -0.19224633
-0.205226 -0.20322438 -0.19702233
0.226603 -0.16433603 -0.19789624
0.226603 -0.1024965 -0.19060811
0.226603 -0.067656502 -0.19222674
-0.205226 0.15837497 -0.1923597
-0.205226 0.18269072 -0.1940455
-0.068083689 0.24798098 -0.1972964
0.12997028 0.243705 -0.19032297
-0.199892 0.30305189 -0.19946849
-0.087356195 -0.35486999 -0.18935414
0.030042715 -0.35486996 -0.18913069
0.22232801 -0.32617003 -0.18699974
0.226603 -0.28227961 -0.1858481
0.226603 -0.2780332 -0.18579572
0.226603 -0.24137205 -0.18701409
-0.205226 -0.18207866 -0.18865734
-0.205226 -0.14708145 -0.18420142
0.226603 -0.13724314 -0.18398085
-0.205226 -0.053076409 -0.18632013
0.226603 -0.021486305 -0.18084103
0.226603 0.16218872 -0.18065225
-0.205226 0.17229645 -0.18400438
0.03511766 0.243705 -0.1863818
0.094062291 0.243705 -0.18936425
0.16192658 0.243705 -0.1823411
-0.19989201 0.30731845 -0.18532822
-0.1999522 -0.35486999 -0.17780714
-0.205226 -0.33590931 -0.17645833
0.226603 -0.19268195 -0.1734571
0.226603 -0.15746306 -0.17804599
0.226603 -0.049771629 -0.17435655
0.226603 0.12910299 -0.17599072
-0.20522602 0.16001353 -0.1733577
0.226603 0.21964647 -0.17874028
-0.052389104 0.247981 -0.17320272
0.022937262 0.243705 -0.17609867
0.15184745 0.243705 -0.17858388
0.21412082 0.24798101 -0.17422585
-0.199892 0.28023949 -0.17161457
-0.12971573 0.31418797 -0.1741661
-0.13373573 0.32706639 -0.17375758
-0.19989198 0.35002345 -0.17050131
0.10222414 -0.35486999 -0.16073647
-0.205226 -0.10551432 -0.16388255
-0.205226 -0.039012652 -0.16094801
-0.205226 -0.0038119107 -0.16569978
0.226603 0.1481221 -0.16999805
-0.205226 0.16132358 -0.16369674
-0.205226 0.1854704 -0.16295752
-0.1314026 0.247981 -0.1634547
-0.20368424 -0.35486999 -0.158317
-0.184157 -0.35486999 -0.15595688
0.18641795 -0.35487002 -0.15971844
-0.205226 -0.32672963 -0.15424393
-0.205226 -0.20643309 -0.15413778
-0.205226 -0.19336021 -0.15573469
0.226603 -0.18710172 -0.15448783
0.226603 -0.04790942 -0.15656628
-0.205226 0.0049577579 -0.15472215
-0.205226 0.18414082 -0.15386778
-0.20378372 0.24798098 -0.15698829
-0.205226 -0.35230047 -0.14286193
-0.14450715 -0.35486999 -0.14542937
-0.12449279 -0.35486999 -0.14390357
-0.097058848 -0.35486999 -0.14906737
0.226603 -0.23079182 -0.14414243
-0.205226 -0.04197092 -0.14002436
-0.205226 -0.0016686991 -0.14553542
0.226603 0.0028887391 -0.14661926
0.226603 0.02053294 -0.14587885
0.226603 0.13268052 -0.14960071
-0.205226 0.18014006 -0.14273311
0.18946283 0.243705 -0.14418276
-0.11237949 0.25864774 -0.14454311
-0.17416187 -0.35486999 -0.13770503
-0.12983029 -0.35487002 -0.13668863
0.12178504 -0.35486999 -0.13004503
0.226603 -0.20632984 -0.13509512
0.226603 -0.088198319 -0.13010509
0.226603 -0.022258457 -0.1395777
0.226603 0.054490477 -0.13460833
0.226603 0.12086016 -0.13763992
0.226603 0.15930603 -0.13360429
0.086674057 0.243705 -0.1362209
-0.1879632 -0.35486996 -0.1218342
0.01912318 -0.35486996 -0.12706544
0.22509378 -0.30507261 -0.12074988
-0.21121255 -0.24007234 -0.12911679
-0.205226 -0.10108146 -0.12055064
0.226603 -0.084142849 -0.12966253
0.226603 -0.06302686 -0.1255499
0.226603 -0.039920665 -0.12065215
-0.082342446 0.2441218 -0.12622064
0.20406505 0.2467961 -0.12781276
-0.12818748 0.30929068 -0.12726247
-0.2027339 -0.35386598 -0.11634706
-0.17531127 -0.35486999 -0.11741614
0.22232801 -0.35474065 -0.1176401
0.22232801 -0.31442767 -0.11227901
0.226603 -0.29099339 -0.11618093
-0.205226 -0.26436242 -0.11696351
0.22660299 -0.2369082 -0.1168889
-0.205226 -0.19453862 -0.11243235
0.226603 -0.1867227 -0.11281449
-0.205226 -0.15458658 -0.11083812
-0.205226 -0.1431569 -0.11086872
-0.205226 -0.12485516 -0.11869872
-0.205226 -0.10932916 -0.11328585
0.226603 -0.062554032 -0.11474873
0.226603 0.06638974 -0.11168303
-0.20279919 0.24798098 -0.11965093
-0.047953241 0.247981 -0.11910132
0.20596021 0.247981 -0.11240689
0.226603 0.24313225 -0.11892368
0.14385393 -0.35486996 -0.10538258
0.226603 -0.21295436 -0.10571943
-0.205226 -0.20109876 -0.10751543
0.226603 -0.12343617 -0.10065782
-0.205226 -0.00024852157 -0.10456028
-0.09053953 0.24659292 -0.10844635
0.20693748 0.24798101 -0.10365364
-0.14646645 0.35916442 -0.10055877
-0.079877578 -0.35486999 -0.090568587
0.009667024 -0.35486996 -0.095377341
0.1181237 -0.35486999 -0.095539808
0.12427661 -0.35486999 -0.095559008
-0.205226 -0.34656459 -0.092264332
-0.205226 -0.030331783 -0.092958353
-0.205226 -0.028519958 -0.091792352
-0.205226 0.13535751 -0.094827443
0.226603 0.16149992 -0.091379248
0.226603 0.18073735 -0.09359099
-0.17480694 0.247981 -0.096227638
-0.12677145 0.24798101 -0.094658859
0.0051289243 0.243705 -0.099812835
0.016391633 0.243705 -0.093948886
0.2163254 0.24798098 -0.090163477
-0.19989201 0.28629565 -0.099511467
-0.19909701 0.35858616 -0.097434662
-0.20319802 -0.35486999 -0.08918906
-0.10852259 -0.35486999 -0.081043579
0.02343167 -0.35486999 -0.080723979
0.1061236 -0.35486999 -0.086098403
0.13594422 -0.35486999 -0.085220948
0.226603 -0.29798877 -0.085826091
-0.205226 -0.27227086 -0.089220941
0.226603 -0.15005516 -0.088152103
-0.205226 -0.096756116 -0.083357945
0.226603 0.022573741 -0.082913138
-0.205226 0.039376851 -0.086474106
-0.205226 0.08504203 -0.083665043
-0.205226 0.14346296 -0.08569359
0.226603 0.23069255 -0.082047388
-0.17383346 0.24798101 -0.082934394
0.12503903 0.243705 -0.088201098
0.013792252 -0.35486999 -0.073929846
0.22232801 -0.3522357 -0.075400203
0.226603 -0.27377221 -0.070593514
-0.20524128 -0.2357612 -0.074584894
-0.205226 -0.17425473 -0.0752756
-0.205226 -0.14697297 -0.079870664
-0.205226 -0.055567712 -0.070951626
0.226603 0.026156597 -0.078539729
-0.1703485 0.24798098 -0.078146383
-0.066844389 0.24798101 -0.078081012
-0.11241523 0.25876224 -0.074775636
-0.17181286 0.36658877 -0.075888142
-0.094812572 -0.35486999 -0.060547858
0.090850294 -0.35486999 -0.062409256
0.22232801 -0.31323516 -0.065923795
-0.205226 -0.3054204 -0.060612775
0.226603 -0.27109492 -0.067355722
-0.205226 -0.18041499 -0.06808655
0.226603 -0.11591617 -0.064521298
-0.205226 -0.10374716 -0.062868617
0.226603 0.22412424 -0.068715259
-0.20021386 0.24798101 -0.060049694
0.10327245 0.243705 -0.065713398
0.13178565 0.243705 -0.069886275
-0.11120456 0.25488317 -0.065351181
-0.199892 0.30556506 -0.064105749
-0.040229533 -0.35486999 -0.055963129
0.15525758 -0.35486999 -0.052564614
0.226603 -0.30270389 -0.054085456
-0.205226 -0.25811857 -0.050258424
0.226603 -0.25600791 -0.051708154
-0.205226 -0.16174453 -0.057264414
-0.205226 -0.13310461 -0.059477229
0.226603 -0.090004995 -0.057886191
0.226603 0.12312377 -0.056959148
-0.18086049 0.24798098 -0.05739871
0.062739469 0.243705 -0.059771039
0.1446196 0.243705 -0.058878735
-0.199892 0.29120281 -0.059114456
0.13167796 -0.35486999 -0.045850825
0.22232801 -0.3112857 -0.046675801
-0.205226 -0.25080386 -0.043895505
-0.205226 -0.15272659 -0.047133684
0.226603 -0.13589944 -0.043997332
-0.205226 -0.028317079 -0.042862609
0.226603 0.04813673 -0.042585127
0.226603 0.076021239 -0.043553088
0.226603 0.095633693 -0.041088577
0.226603 0.20549718 -0.041068047
-0.12601471 0.247981 -0.049442828
0.21288028 0.24798101 -0.042597298
-0.13031806 0.31611791 -0.041407101
-0.1899083 0.36128125 -0.045570698
-0.099507809 -0.35486999 -0.03609198
-0.046877932 -0.35486999 -0.031730793
0.12262399 -0.35486999 -0.036943804
0.14070196 -0.35486999 -0.037845679
-0.205226 -0.34698808 -0.031409331
-0.205226 -0.089037701 -0.039296027
0.226603 0.12355504 -0.039989933
-0.205226 0.24611583 -0.034695581
0.22651362 0.24798101 -0.034417719
-0.19989201 0.28712815 -0.035463169
-0.13496225 0.3309958 -0.035028335
-0.15204535 -0.35487002 -0.02044224
-0.0930117 -0.35486996 -0.028674856
-0.042517141 -0.35486999 -0.020963652
0.15236683 -0.35486999 -0.024145201
0.226603 -0.21627864 -0.020194784
0.226603 -0.094973229 -0.028302429
-0.205226 -0.010551378 -0.024036348
-0.205226 0.039597578 -0.027875617
0.226603 0.10496323 -0.02211953
-0.205226 0.11663205 -0.021128528
-0.205226 0.13076031 -0.023419857
-0.12805796 0.24798101 -0.021834664
-0.12547041 0.30058727 -0.026749138
-0.19989201 0.32769066 -0.022652704
-0.13456523 0.32972398 -0.027689002
-0.12771574 -0.35486999 -0.013109818
-0.028266288 -0.35486999 -0.016647913
0.22232801 -0.33779073 -0.019022003
-0.205226 -0.27227858 -0.013861503
-0.205226 -0.21834958 -0.013685605
-0.205226 -0.14056748 -0.019650711
0.226603 -0.097032428 -0.017200859
-0.205226 -0.082353614 -0.015492357
0.226603 0.1136463 -0.016025301
-0.205226 0.19144526 -0.013579763
-0.13735867 0.24798098 -0.013341859
-0.033055462 0.24370499 -0.011032373
0.13975579 0.243705 -0.012708251
-0.10972312 0.25013721 -0.017378911
-0.199892 0.32343352 -0.012265623
-0.13945921 0.34540147 -0.010917351
-0.17286703 0.36627954 -0.011982523
-0.15589458 0.36192995 -0.014481671
0.052504718 -0.35486999 -0.0097243804
0.15391701 -0.35487002 -0.0083066449
0.22232801 -0.32436338 -0.0024712309
0.22232801 -0.31685305 -0.009979248
-0.205226 -0.29094458 -0.0098728649
0.226603 0.092740238 -0.0033277422
0.226603 0.2101694 -0.0083570387
0.12286316 0.243705 -0.0024850089
-0.13816576 0.34125888 -0.0078093633
0.15180025 -0.35486999 0.0035673752
0.22232801 -0.32563549 0.0036200043
0.226603 -0.27416408 0.0066894852
-0.205226 -0.097375765 0.0056105629
0.226603 -0.04032135 0.0094786435
-0.205226 -0.039766885 0.0031534508
-0.205226 0.0017975718 0.0049706846
-0.205226 0.034224756 0.0030170754
-0.205226 0.12663342 0.0093923137
0.22103937 0.24798101 0.00042141229
-0.19989198 0.34086689 0.0094786659
-0.090940341 -0.35486999 0.01636634
0.22232801 -0.33631194 0.010857914
-0.205226 -0.25628895 0.012140702
0.226603 -0.25979409 0.013253354
-0.205226 -0.2354503 0.0132457
-0.205226 -0.20604239 0.012070846
0.226603 -0.14823788 0.016667441
0.226603 -0.074838907 0.012098314
0.226603 -0.066470571 0.015143119
-0.205226 0.10794962 0.0121966
0.226603 0.13068448 0.014962382
-0.205226 0.1831345 0.011826515
-0.085125588 0.24370502 0.018137146
-0.050765872 0.24370502 0.013467975
-0.0070683965 0.243705 0.013688994
0.041285407 0.243705 0.016265811
-0.19989198 0.34783602 0.016545482
-0.199892 0.35691741 0.017334536
0.046870802 -0.35486999 0.02491297
0.15377733 -0.35486999 0.023231521
-0.205226 -0.16227759 0.02998749
0.226603 -0.16974203 0.02387435
0.226603 -0.076254509 0.021387078
-0.205226 -0.045696989 0.021172754
-0.205226 -0.017314985 0.021048315
0.226603 0.1234844 0.02197862
-0.205226 0.23506913 0.027122773
0.20947263 0.24798098 0.022605792
-0.11890918 0.2795676 0.024464071
-0.199892 0.34507596 0.025044829
-0.15297343 0.36107311 0.027791061
-0.029603293 -0.35486999 0.035205379
0.12549949 -0.35486999 0.035083786
-0.205226 -0.2872026 0.032045927
-0.205226 -0.26098737 0.03085833
0.226603 -0.23780373 0.037041128
-0.205226 -0.13902491 0.038424801
0.226603 -0.13270672 0.038377553
0.226603 -0.071955606 0.031663492
0.226603 -0.046164148 0.034107849
0.226603 0.090694308 0.038178131
-0.205226 0.12865193 0.035064213
0.226603 0.19068232 0.036699608
0.226603 0.23226225 0.037723571
-0.1555769 0.24798101 0.034859143
-0.059205726 0.243705 0.030981123
0.0098572467 0.243705 0.035654645
-0.14013587 0.34756926 0.038736157
-0.19310403 0.36034393 0.030313224
-0.15958494 0.36301243 0.033913173
0.22232801 -0.32340312 0.042778123
0.226603 -0.036085591 0.048543867
-0.205226 0.049723875 0.044205081
-0.205226 0.23528543 0.04324954
-0.041632645 0.243705 0.042103477
-0.023459665 0.243705 0.041762002
-0.0025240891 0.243705 0.044630364
-0.17023151 -0.35486996 0.05005645
-0.16893646 -0.35487002 0.055618152
0.093518548 -0.35487002 0.054207116
0.19308096 -0.35486999 0.057508692
0.226603 -0.23211609 0.05666884
0.226603 -0.20581962 0.050661549
-0.205226 -0.11930493 0.055204492
-0.205226 0.039641373 0.058576845
0.226603 0.1441845 0.057892706
0.226603 0.18805695 0.05301258
-0.20079647 0.24798101 0.050567813
-0.097139522 0.243705 0.05207688
-0.035580996 0.243705 0.058641762
0.038508259 0.243705 0.054773714
0.10768875 0.243705 0.059377022
0.16252089 0.243705 0.059010319
0.21009241 0.247981 0.058664065
-0.12233473 0.29054165 0.051394865
-0.1608742 0.36339062 0.058416054
-0.16183615 -0.35486999 0.062880754
-0.048291542 -0.35486999 0.069262728
-0.018515926 -0.35486999 0.06270884
0.044083312 -0.35486999 0.062213115
-0.205226 -0.26656812 0.062970318
-0.205226 -0.2486943 0.065041073
-0.205226 -0.23995715 0.064020462
-0.205226 -0.14975739 0.062461022
-0.205226 -0.064506583 0.060728673
-0.205226 -0.044556733 0.065215178
0.226603 0.023560261 0.065120809
0.226603 0.16051173 0.06287688
0.20424141 0.24697626 0.060063086
-0.13041875 0.31644049 0.060998876
-0.032094475 -0.35487002 0.073894441
-0.205226 -0.31576008 0.077688619
0.22417158 -0.30599499 0.07206101
-0.205226 -0.28729159 0.079213314
0.226603 -0.18241993 0.073092975
-0.205226 -0.15553084 0.079595968
0.226603 -0.14313774 0.076296814
0.226603 -0.072747983 0.074059822
0.226603 0.19680969 0.076847792
-0.20522602 0.22320396 0.076299571
-0.11979587 0.247981 0.072294734
-0.010978161 0.243705 0.076558299
0.07396137 0.243705 0.079870522
-0.199892 0.27163702 0.075152352
-0.199892 0.32601953 0.077730536
-0.15064773 -0.35487002 0.083141789
0.226603 -0.28446394 0.089112796
-0.205226 -0.26652426 0.087419041
0.226603 -0.11172089 0.089611955
-0.205226 -0.093321294 0.088557564
0.226603 0.064464137 0.086431436
0.098754056 0.243705 0.085008636
0.1603044 0.243705 0.082576655
-0.199892 0.25786537 0.087225549
-0.19989198 0.31234556 0.083823018
-0.205226 -0.23069699 0.092279576
-0.205226 -0.20349947 0.099763438
-0.205226 -0.13092834 0.095500283
-0.205226 -0.10010372 0.090820208
0.226603 -0.070735171 0.097759083
0.226603 -0.069649942 0.091760457
0.226603 0.0046322169 0.092492044
0.226603 0.034536418 0.099012308
-0.205226 0.2032861 0.099866837
-0.205226 0.22359666 0.09127827
-0.028898597 0.243705 0.091350786
-0.015146226 0.243705 0.092319936
0.18082659 0.243705 0.091884695
-0.12941475 0.31322393 0.093938001
-0.14183812 0.35302261 0.098260999
-0.077349752 -0.35486999 0.10670481
0.091514289 -0.35487002 0.10094456
0.12605187 -0.35486999 0.10472951
0.17851716 -0.35487002 0.10640846
0.18655719 -0.35486996 0.10766003
0.22232801 -0.32392108 0.10104603
0.226603 -0.1389274 0.10407405
-0.205226 -0.060616076 0.10024469
-0.205226 -0.0082299411 0.10050744
-0.205226 0.084830217 0.10505519
-0.205226 0.10302228 0.10024292
-0.14441663 0.24798101 0.10284431
-0.19590402 -0.35486999 0.11070426
-0.13821726 -0.35486999 0.11621848
-0.10709549 -0.35487002 0.11958519
-0.056233089 -0.35486999 0.11213619
0.22232801 -0.34923598 0.11086631
-0.205226 -0.31773442 0.11288282
-0.205226 -0.23933896 0.11530631
-0.205226 0.000794366 0.11002824
0.226603 0.020506373 0.11669496
0.226603 0.037501402 0.11445476
0.14505863 0.243705 0.11882835
-0.015790481 -0.35486999 0.12360948
0.07069739 -0.35486999 0.12583132
0.1005337 -0.35486999 0.12287143
0.13571453 -0.35486999 0.12780967
0.1702081 -0.35487002 0.12296553
0.18980083 -0.35486999 0.12536027
-0.205226 -0.31123051 0.12104457
-0.205226 -0.17670859 0.12046397
0.226603 -0.17346507 0.12977064
-0.205226 -0.083708189 0.12652215
0.226603 -0.077217706 0.12831292
0.226603 0.17269379 0.12049405
-0.205226 0.20121028 0.12526853
0.226603 0.2001396 0.12054646
-0.17680696 0.36512396 0.1210026
-0.077769496 -0.35486999 0.13450734
0.22232801 -0.33027142 0.13053852
-0.205226 -0.302347 0.13528822
-0.205226 -0.098700643 0.13450477
0.22508545 -0.058502376 0.13106291
-0.205226 0.01909478 0.13255529
-0.205226 0.11983253 0.13024868
0.226603 0.12558684 0.13324058
-0.205226 0.19161609 0.13150978
0.226603 0.20419465 0.13030475
-0.028644128 0.243705 0.13229084
-0.17134829 -0.35486999 0.1429898
-0.12461315 -0.35486999 0.14791293
0.226603 -0.27594924 0.14547145
-0.205226 -0.080883205 0.1495689
-0.205226 0.14144313 0.14634213
0.226603 0.19902515 0.1454702
-0.13184211 0.24798098 0.1459299
-0.0061314516 0.243705 0.1485723
0.013259124 0.243705 0.14947535
0.15894936 0.243705 0.14068267
-0.12253746 0.28729165 0.14795408
-0.19728303 -0.35486999 0.15584411
-0.055332821 -0.35486996 0.15337352
0.13490121 -0.35486999 0.15734027
-0.205226 -0.24466005 0.15785763
0.226603 -0.21392158 0.15050639
-0.205226 -0.17027947 0.15295088
-0.205226 -0.145322 0.15953831
-0.205226 -0.11962977 0.15795296
0.229123 -0.065248802 0.15639621
0.2257255 -0.053688772 0.15516868
0.23087898 -0.046583962 0.15052605
0.22232801 -0.0081762895 0.15179108
0.226603 0.12743819 0.15158182
-0.205226 0.18568756 0.15108252
-0.205226 0.20312588 0.15024132
-0.11095031 0.247981 0.15170667
-0.039772443 0.243705 0.15244415
0.14104022 0.243705 0.15279497
-0.19607003 0.359474 0.15904051
-0.064211041 -0.35486999 0.1665217
0.067939863 -0.35486999 0.16858841
0.17755431 -0.35487002 0.160951
0.21726769 -0.35486999 0.16517368
0.226603 -0.25829631 0.16482826
-0.205226 0.00035357475 0.16783294
-0.205226 0.069303364 0.16218111
0.226603 0.17844924 0.16764681
0.12531969 0.243705 0.16865085
0.22167626 0.24798101 0.1629387
-0.12992436 0.31456172 0.16811548
-0.1610854 0.36345255 0.1652903
-0.13267612 -0.35486999 0.17440827
0.12628211 -0.35486999 0.17508973
0.226603 0.011702131 0.17448543
-0.205226 0.062086377 0.17525248
-0.20522602 0.13009195 0.17643598
-0.205226 0.17415802 0.17099415
-0.205226 0.18579414 0.17827624
-0.18025498 0.247981 0.1791842
0.13012573 0.243705 0.17548674
0.1793514 0.243705 0.17054082
-0.11245546 0.25889051 0.17340969
-0.199892 0.30490655 0.17969841
0.0066481829 -0.35486999 0.18396586
0.03451889 -0.35486999 0.1864439
0.22232801 -0.33826643 0.18505043
0.226603 -0.23043659 0.18934625
0.226603 -0.061737947 0.18130811
0.226603 0.066464663 0.18647097
0.226603 0.11146903 0.18987945
0.226603 0.1204704 0.18605345
-0.205226 0.24157831 0.18331066
-0.12488087 0.29869804 0.18174721
-0.18517077 -0.35486999 0.19536385
-0.16914658 -0.35486999 0.19510956
-0.15972266 -0.35486999 0.19792984
-0.066291034 -0.35486999 0.19605713
-0.049726181 -0.35486996 0.1991431
0.002953032 -0.35486999 0.19233941
0.15819466 -0.35486999 0.19793825
0.21082211 -0.35486999 0.19404963
0.226603 -0.20954382 0.19512212
-0.205226 -0.18474019 0.19467255
-0.205226 -0.17358205 0.19714075
-0.205226 -0.10323994 0.19715454
0.226603 0.031827766 0.19159071
-0.205226 0.097314686 0.19473921
0.226603 0.1510378 0.19367446
-0.14099301 0.24798101 0.1989729
0.019765571 0.243705 0.19080493
-0.12693997 0.30529347 0.19665428
0.059444189 -0.35486996 0.20640126
0.10975108 -0.35486999 0.20525888
-0.205226 -0.3276951 0.2085171
0.22232801 -0.31769237 0.20050183
0.22660299 -0.2714988 0.20301615
-0.205226 -0.24573565 0.20994721
0.226603 -0.23605579 0.20679665
0.226603 -0.11600257 0.20175618
-0.205226 0.022098392 0.20515639
-0.205226 0.18413693 0.20981675
0.028318662 0.243705 0.20993608
-0.11529467 0.26798642 0.20101917
-0.12215554 0.28996593 0.20672587
-0.19989198 0.31375921 0.20482606
-0.013324527 -0.35486999 0.21281554
0.22232801 -0.32181048 0.21623866
0.22572008 -0.30444616 0.21164009
0.226603 -0.2031213 0.21757868
-0.205226 -0.15999123 0.21828493
-0.205226 0.0061859172 0.21823345
0.226603 0.079448357 0.21343675
0.226603 0.21713977 0.21596903
-0.037360087 0.243705 0.21395631
-0.015541472 0.243705 0.21123286
0.045965031 0.243705 0.21048912
-0.19502261 0.35978118 0.21018662
-0.19185846 0.36070925 0.21332708
-0.18626286 -0.35817674 0.22311342
0.01049538 -0.35487002 0.225289
0.226603 -0.12245972 0.22209124
0.226603 -0.078735396 0.22727579
0.226603 -0.042159401 0.22231342
-0.13161211 0.24798101 0.22742823
-0.12860444 0.247981 0.22539242
-0.11309859 0.26095086 0.22467947
-0.199892 0.27081037 0.22619386
-0.12130212 0.28723219 0.22941372
-0.12859327 0.31059045 0.22429505
0.19438918 -0.36599639 0.23327112
0.21477605 -0.36342001 0.2348029
-0.20247801 -0.35486996 0.23683864
-0.10177962 -0.35486996 0.23338619
0.16323048 -0.35486999 0.23696867
-0.205226 -0.34950835 0.23571171
-0.205226 -0.14200914 0.23330761
0.226603 -0.087555438 0.23151997
-0.205226 0.068302386 0.23879772
0.226603 0.12522382 0.23099257
-0.14124826 0.2484546 0.23682925
-0.13351628 0.24798101 0.23536062
0.17660646 0.247981 0.23019385
0.21728116 0.24798098 0.23589699
-0.199892 0.35395664 0.23521546
-0.14716657 0.35936978 0.23745306
0.1543334 -0.35487002 0.24479604
0.17870471 -0.35486999 0.24729942
-0.17814891 -0.34512806 0.247981
0.0053854138 -0.34701753 0.24798101
0.1505053 -0.34435317 0.247981
-0.030987509 -0.3353774 0.24798101
-0.025148973 -0.3324579 0.247981
0.0433404 -0.33554867 0.247981
-0.19164066 -0.32810891 0.247981
0.10651913 -0.3211697 0.247981
0.16044135 -0.32096905 0.24798101
-0.19061942 -0.31441367 0.247981
-0.085742608 -0.31953442 0.24798101
-0.04920467 -0.31832546 0.24798101
-0.205226 -0.30281201 0.24103333
-0.078949697 -0.30799603 0.247981
-0.043153264 -0.30681261 0.247981
0.10337336 -0.30395159 0.24798101
0.14923792 -0.30638999 0.247981
-0.1531492 -0.29376778 0.24798101
0.050799169 -0.29302305 0.24798098
0.092667587 -0.29453284 0.24798098
-0.18023556 -0.28861117 0.24798098
0.1180975 -0.28802887 0.24798098
0.01995828 -0.27673793 0.24798101
-0.114709 -0.26844403 0.24798098
0.070643112 -0.26086318 0.247981
0.083733559 -0.26416552 0.24798098
0.17991969 -0.26820323 0.247981
-0.10844079 -0.254603 0.247981
0.091114432 -0.25388724 0.247981
-0.1311243 -0.24427184 0.247981
-0.11036175 -0.24852166 0.24798098
-0.098895013 -0.24989541 0.247981
0.026036873 -0.24857926 0.24798098
0.10679308 -0.24590047 0.24798098
-0.13250934 -0.23275289 0.247981
0.086073354 -0.23886196 0.24798098
-0.18797056 -0.22846679 0.247981
-0.13743417 -0.22710329 0.24798098
0.051549956 -0.22015235 0.24798101
-0.1506988 -0.21738739 0.247981
0.037838954 -0.21302867 0.247981
-0.205226 -0.19846921 0.24779339
0.21334535 -0.19373807 0.24798101
-0.20301028 -0.18925348 0.24798098
-0.082031734 -0.18361349 0.24798101
-0.0065304115 -0.18239579 0.247981
0.079052061 -0.18991712 0.247981
0.15006369 -0.18742116 0.247981
0.18212444 -0.18029507 0.247981
0.0073653832 -0.17876779 0.247981
0.078735083 -0.17008184 0.24798101
0.1808992 -0.17477366 0.24798101
0.085059613 -0.1605389 0.247981
0.15228671 -0.16514422 0.247981
-0.11426555 -0.15914646 0.247981
0.093376078 -0.1517134 0.24798101
0.19455861 -0.15028219 0.24798101
-0.17115763 -0.14781007 0.24798101
0.085667334 -0.13716893 0.24798098
-0.15526864 -0.12259951 0.247981
0.045603402 -0.12359119 0.24798098
0.10330909 -0.12624754 0.24798101
0.15921776 -0.12626895 0.24798101
0.21402881 -0.11006494 0.247981
0.22442742 -0.11650144 0.24798098
-0.064625785 -0.10268272 0.24798098
-0.205226 -0.098682664 0.24449289
-0.10529412 -0.098205984 0.247981
0.1175681 -0.095807597 0.247981
0.17909919 -0.095565565 0.247981
0.226603 -0.096111923 0.24590436
-0.15007503 -0.085905418 0.247981
-0.033636354 -0.084618747 0.247981
0.086894587 -0.08672566 0.24798101
0.10629752 -0.088129938 0.247981
0.14319596 -0.080842637 0.24798101
-0.205226 -0.072250605 0.24343617
-0.14397731 -0.078484327 0.24798098
0.00670835 -0.076666012 0.24798098
0.079591662 -0.077977672 0.247981
0.226603 -0.070438772 0.24624413
-0.14858362 -0.066283636 0.247981
-0.10651769 -0.064413756 0.247981
-0.053165078 -0.065063998 0.247981
-0.041573551 -0.069059446 0.247981
0.226603 -0.069364391 0.24522513
-0.17714347 -0.055703733 0.247981
-0.023411956 -0.053883601 0.247981
0.17281064 -0.059477828 0.24798098
-0.205226 -0.031868532 0.2401602
0.21936502 -0.035361439 0.24798098
0.062877402 -0.027418293 0.24798098
0.17967735 -0.02512414 0.24798098
-0.027142949 -0.016767301 0.24798098
0.016033255 -0.011156693 0.24798101
0.19510677 -0.0040446012 0.247981
-0.1968863 0.0053527951 0.24798101
0.0054055639 0.0061732819 0.247981
0.037798449 0.0014889399 0.247981
0.11998265 0.0016870275 0.24798101
0.17202777 0.0060441624 0.24798101
-0.1676161 0.02840919 0.247981
-0.07363157 0.023812063 0.247981
0.02117084 0.027302854 0.24798098
0.19787575 0.025928626 0.247981
-0.1195164 0.037618816 0.24798101
-0.098085545 0.036176622 0.24798101
-0.017024625 0.041606836 0.247981
0.055151239 0.040183291 0.24798098
0.15265206 0.049136646 0.24798101
0.16083398 0.045953095 0.247981
0.0047323257 0.064794585 0.247981
0.073747896 0.06065144 0.247981
0.13167252 0.064265303 0.247981
0.19149168 0.067837581 0.247981
-0.053863645 0.079525962 0.247981
0.1343973 0.074314885 0.24798098
-0.19557351 0.080446601 0.247981
-0.17256793 0.083401859 0.247981
-0.13705646 0.086110994 0.24798101
0.021736249 0.088228554 0.247981
-0.15618242 0.090001136 0.24798101
-0.13891661 0.096015498 0.247981
0.052949294 0.094169781 0.24798101
0.073403627 0.097117186 0.24798101
-0.11521641 0.10477521 0.247981
0.096599407 0.10233543 0.24798098
-0.059364446 0.11789167 0.24798101
0.013210952 0.1135169 0.24798098
0.17623435 0.1197196 0.24798098
-0.075848915 0.12873629 0.247981
0.1471924 0.12639973 0.247981
-0.205226 0.13329551 0.24777146
0.074252024 0.13998744 0.24798101
0.15222156 0.13548516 0.24798101
0.039071888 0.14931759 0.24798098
0.094232686 0.15175591 0.24798098
0.20428988 0.1588382 0.247981
-0.07482782 0.16829309 0.247981
0.010779031 0.164313 0.247981
0.13525178 0.16881084 0.24798101
-0.046939574 0.17395264 0.247981
-0.023122914 0.17318359 0.247981
-0.17096944 0.18302144 0.24798098
-0.11189343 0.18006659 0.247981
-0.10694928 0.18851301 0.24798101
-0.038021095 0.18277362 0.247981
0.071366057 0.18018714 0.24798101
-0.17936911 0.19625141 0.24798101
-0.15080287 0.19248432 0.24798098
-0.096895173 0.19878437 0.247981
-0.061329164 0.19829951 0.247981
-0.0015573241 0.19031988 0.247981
0.067063235 0.19975986 0.247981
-0.1398529 0.20483063 0.24798098
0.078743517 0.20584016 0.247981
-0.16552772 0.21247689 0.247981
-0.016761407 0.21394771 0.24798101
0.13737091 0.21975294 0.24798098
0.0073899217 0.22206093 0.247981
0.15108867 0.22650547 0.247981
-0.13399927 0.23653618 0.24798098
0.091373384 0.23185232 0.24798098
-0.18778083 0.24798101 0.24185872
-0.16565818 0.24761039 0.247981
-0.10837783 0.24798098 0.24453822
-0.092097163 0.24798101 0.24144554
0.031055789 0.247981 0.24105254
0.12594126 0.24798098 0.24138328
0.13569751 0.2462832 0.24798098
-0.14054438 0.27113777 0.24798098
-0.13683419 0.28345197 0.24798101
-0.16931635 0.29900318 0.24798098
-0.195912 0.30241862 0.24798098
