# .PCD v0.7 - Point Cloud Data file format
VERSION 0.7
FIELDS x y z
SIZE 4 4 4
TYPE F F F
COUNT 1 1 1
WIDTH 977
HEIGHT 1
VIEWPOINT 0 0 0 1 0 0 0
POINTS 977
DATA ascii
-0.01261916 -0.32564992 -0.23338699
0.056922492 -0.328471 -0.23207243
0.095625535 -0.3063038 -0.23338701
-0.18317565 -0.29929468 -0.23338701
-0.14849868 -0.2865347 -0.23338699
-0.093617663 -0.28842697 -0.23338699
0.086697496 -0.27017465 -0.23338699
0.15308642 -0.27060127 -0.23338699
-0.25840253 -0.2674641 -0.23338699
-0.20454876 -0.26025361 -0.23338699
-0.052877672 -0.26467365 -0.23338699
0.021357462 -0.26604408 -0.23338699
0.19036663 -0.26205933 -0.23147678
0.16733277 -0.25448117 -0.23338701
0.17863275 -0.25179562 -0.23338699
-0.16068682 -0.24243371 -0.23338699
-0.060449548 -0.24887025 -0.23338699
0.064394951 -0.24179353 -0.23338699
-0.25953901 -0.23402804 -0.23338699
0.014913283 -0.23886296 -0.23338698
0.1596151 -0.23120819 -0.23338699
-0.19135101 -0.223919 -0.23338701
-0.035030335 -0.22210631 -0.23338699
0.15164953 -0.22091012 -0.23338699
-0.033297598 -0.21929881 -0.23338699
-0.011309125 -0.21434516 -0.23338699
-0.27330264 -0.20770445 -0.23338699
0.086555615 -0.20388323 -0.23338699
0.051985823 -0.19980249 -0.23338699
0.066506997 -0.19060761 -0.23338699
0.15089953 -0.19630572 -0.23338698
0.0058880225 -0.1873167 -0.23338699
0.15100838 -0.18107034 -0.23338699
-0.067110389 -0.17524379 -0.23338699
-0.052235194 -0.17539003 -0.23338699
0.019073166 -0.17594826 -0.23338699
-0.18023045 -0.1673663 -0.23338699
0.11390608 -0.16401677 -0.23338699
0.094575912 -0.15445191 -0.23338699
-0.15698895 -0.14664179 -0.23338699
-0.053287171 -0.14577939 -0.23338699
-0.26093692 -0.13221547 -0.23338699
-0.18875983 -0.13823229 -0.23338699
-0.062660828 -0.13335907 -0.23338699
0.071354508 -0.13663581 -0.23338699
-0.2202643 -0.12172203 -0.23338699
-0.1062877 -0.12216942 -0.23338699
-0.075377792 -0.12031168 -0.23338699
-0.052010372 -0.12906334 -0.23338699
0.042851105 -0.12294362 -0.23338699
-0.077068865 -0.1161419 -0.23338699
0.13970323 -0.11808993 -0.23338699
-0.28043133 -0.10552648 -0.23338699
-0.11642359 -0.1072717 -0.23338699
0.15187936 -0.10007764 -0.23338699
-0.1729282 -0.099601962 -0.23338699
-0.11602533 -0.089521721 -0.23338699
-0.020637862 -0.083465934 -0.23338699
-0.28442025 -0.074757561 -0.23338699
-0.2617203 -0.079335332 -0.23338699
-0.083424635 -0.069192581 -0.23338699
0.047808126 -0.068896286 -0.23338699
-0.065250181 -0.050707929 -0.23338699
0.14095873 -0.052768003 -0.23338699
0.18738142 -0.058406495 -0.23338699
-0.25836799 -0.045900404 -0.23338699
-0.17055213 -0.046164155 -0.23338699
0.043310061 -0.041969299 -0.23338699
-0.22958122 -0.0377976 -0.23338699
-0.12677558 -0.03626731 -0.23338699
-0.17159161 -0.029856429 -0.23338699
0.072800808 -0.027062565 -0.23338699
0.088770002 -0.026181035 -0.23338699
0.15941444 -0.023521706 -0.23338699
-0.13556801 -0.014210612 -0.23338699
0.02690715 -0.019705568 -0.23338699
-0.12411451 -0.0082341544 -0.23338699
-0.11370286 -0.0065746754 -0.23338699
0.023340505 -0.0013871156 -0.23338699
0.16940287 -0.007797882 -0.23338699
-0.049605947 0.014837367 -0.23338699
0.0042806845 0.016057681 -0.23338699
-0.21603739 0.026489362 -0.23338699
-0.092498757 0.028361417 -0.23338699
-0.25919312 0.030861408 -0.23338699
-0.27599239 0.04225944 -0.23338699
-0.28121367 0.053832337 -0.23338699
-0.056706622 0.059862353 -0.23338699
0.23371916 0.058370389 -0.23278347
-0.24827582 0.064826302 -0.23338699
0.11390381 0.068714745 -0.23338699
0.22625177 0.060179934 -0.23338699
0.19668405 0.071353555 -0.23338699
-0.095489293 0.086036369 -0.23338699
-0.032976054 0.087992445 -0.23338699
-0.07416635 0.10039584 -0.23338699
-0.05369769 0.10831608 -0.23338699
0.15488321 0.10457206 -0.23338699
-0.063046768 0.11178526 -0.23338699
-0.19068165 0.12827134 -0.23338699
-0.087907113 0.12232506 -0.23338699
-0.27605426 0.13216415 -0.23338699
-0.19457042 0.13922265 -0.23338699
-0.24278739 0.14989024 -0.23338699
-0.21641113 0.14697754 -0.23338698
0.16872121 0.14335881 -0.23338699
-0.033782996 0.15438472 -0.23338699
0.098480701 0.15772927 -0.23338699
-0.1418113 0.16569206 -0.23338699
-0.10414145 0.16975735 -0.23338699
-0.078329578 0.160859 -0.23338699
0.080362529 0.16236386 -0.23338699
0.16598028 0.16178659 -0.23338699
0.19125295 0.16046332 -0.23338699
0.10585835 0.17290694 -0.23338699
-0.21497503 0.18194206 -0.23338699
0.11674926 0.18322495 -0.23338699
-0.284666 0.19789451 -0.23338699
-0.2128313 0.19598082 -0.23338699
-0.27245986 0.20652728 -0.23338701
-0.22000882 0.20588145 -0.23338699
0.15689242 0.20346896 -0.23338699
-0.28955299 0.21219739 -0.2316152
-0.10873237 0.21078768 -0.23338699
0.13976578 0.21046376 -0.23338699
-0.15188707 0.22095498 -0.23338699
-0.071379706 0.22361208 -0.23338699
-0.2642996 0.23026539 -0.23338698
-0.1813004 0.23729585 -0.23338699
-0.1957899 0.24219728 -0.23338699
0.030239031 0.24696235 -0.23338699
-0.083223708 0.25459433 -0.23338699
0.057415046 0.25487468 -0.23338699
-0.0005389154 0.26563624 -0.23338699
-0.2593585 0.27433184 -0.23338699
-0.2252479 0.27822843 -0.23338699
-0.098472692 0.27592319 -0.23338699
-0.062618837 0.27187151 -0.23338699
0.021198593 0.2736778 -0.23338699
0.06513647 0.27011681 -0.23338699
0.021160029 0.29138407 -0.23338699
-0.21839198 0.30506858 -0.23338699
-0.1439082 0.30022526 -0.23338699
-0.016888715 0.31089517 -0.23338699
0.060772665 0.31562412 -0.23338699
-0.24683389 0.32550871 -0.23338698
-0.15060924 0.32519096 -0.23338699
0.21731068 -0.19052608 -0.22969508
-0.28955299 -0.15083912 -0.22765918
0.2313776 -0.15012871 -0.22630216
0.2462665 0.012553737 -0.22708645
-0.28955299 0.14663678 -0.22267425
-0.28955299 0.24404979 -0.22732638
-0.20699769 0.328471 -0.22482568
-0.17077671 0.328471 -0.22076643
-0.018749893 0.328471 -0.22978979
0.039910097 -0.328471 -0.21153064
-0.28955299 -0.18499422 -0.21181476
-0.28955299 -0.16137932 -0.2135487
0.24973544 -0.068851754 -0.21691823
0.25174287 -0.048624795 -0.21605866
0.21859448 0.22488305 -0.21454753
-0.28955299 0.25877529 -0.2103397
-0.046842869 0.328471 -0.21401075
0.025310934 0.328471 -0.21436197
0.17993468 0.32171685 -0.21151394
-0.053935591 -0.328471 -0.20075828
-0.28955299 -0.20657757 -0.20917466
-0.28955299 -0.096150227 -0.20851167
0.25280747 -0.053349644 -0.20983975
-0.28955299 0.219491 -0.20409851
0.16726136 0.328471 -0.20915903
0.14342894 -0.328471 -0.19057663
0.18747565 -0.30589822 -0.19162513
0.23020995 -0.18709335 -0.19420286
-0.28955299 -0.15552723 -0.19900924
0.24585216 -0.11503183 -0.19464862
0.24927017 -0.087094873 -0.19023329
0.25978661 0.038685136 -0.19870661
-0.28955299 0.07367076 -0.19168337
-0.28955299 0.09774664 -0.19514403
-0.28955299 0.10505388 -0.19956455
0.24187365 0.13530587 -0.19705772
0.23661889 0.16208363 -0.19502442
0.22187111 0.21706744 -0.19532797
0.18651068 0.30802312 -0.19415809
-0.21874952 0.328471 -0.19525596
-0.23744726 -0.328471 -0.18289839
0.023444578 -0.328471 -0.18418458
0.19059622 -0.29902777 -0.18230423
0.21313715 -0.2425839 -0.18176287
0.23620179 -0.16420904 -0.18547671
-0.28955299 -0.037891507 -0.18788902
0.25452644 0.012698319 -0.18161061
-0.28955299 0.083290681 -0.18352374
-0.28955299 0.27676672 -0.18622048
0.19623509 0.28661376 -0.18426178
-0.28841215 0.32847103 -0.18775259
-0.26548702 -0.328471 -0.1702798
-0.25662601 -0.328471 -0.17606848
-0.0020388663 -0.328471 -0.17895207
0.25310028 -0.049462665 -0.17205256
-0.28955299 -0.024465747 -0.17146918
0.2538698 0.029625162 -0.1763712
0.26668757 0.10317463 -0.1752409
0.2394415 0.14769994 -0.17753774
-0.28955299 0.15799439 -0.17632081
0.21186236 0.24608935 -0.17897519
0.1991412 0.28021562 -0.17408964
-0.28955299 0.3033306 -0.17112197
-0.10405841 0.328471 -0.17800012
0.023360752 0.328471 -0.17821042
0.15650241 0.328471 -0.17842047
-0.28955299 -0.24294011 -0.16436574
0.21160594 -0.24679396 -0.16880569
0.21418916 -0.23969141 -0.1666932
-0.28955299 -0.17061445 -0.16811258
0.23689108 -0.16069651 -0.16857909
-0.28955299 -0.070700854 -0.16637053
0.28070489 -0.0063695237 -0.16941372
0.28041121 0.004275036 -0.16075404
0.24738711 0.1032215 -0.16586496
0.26302928 0.12990279 -0.16862559
0.26210755 0.13618161 -0.16010204
0.18395409 0.31365174 -0.16698892
-0.12817976 -0.328471 -0.1526821
0.13269188 -0.328471 -0.15824006
-0.28955299 -0.30044723 -0.15907675
-0.28955299 -0.16920239 -0.15133867
-0.28955299 -0.019909889 -0.15232261
-0.0091228113 -0.0063058189 -0.15123299
0.281896 -0.006032459 -0.1558464
0.056579232 0.020658784 -0.15498409
0.110222 0.028843507 -0.15565872
0.16138816 0.023444632 -0.15402251
0.10439742 0.033345722 -0.15651631
-0.095034525 0.047570486 -0.15367915
-0.042052869 0.040276814 -0.1556351
0.18996091 0.041595668 -0.15676288
0.26096576 0.048507653 -0.15674865
-0.069562882 0.05008715 -0.1540878
0.25070226 0.05210834 -0.15774186
-0.080503307 0.063883916 -0.15184291
-0.042780526 0.072982751 -0.15100738
0.19709483 0.077869713 -0.1582389
0.1586322 0.098307341 -0.15497045
0.26291889 0.11839879 -0.15406218
0.2508063 0.12992415 -0.15104866
-0.28955299 0.15394084 -0.15638112
0.25260082 0.18873623 -0.15435426
0.24195585 0.208029 -0.15040195
0.22025272 0.22288482 -0.15505269
-0.28955299 0.23101793 -0.1500133
-0.27378061 0.328471 -0.1503188
0.15097412 0.328471 -0.15902951
0.20769326 -0.25755173 -0.14824361
0.21154137 -0.24697146 -0.14701775
-0.13086635 -0.034471408 -0.14112315
-0.28955299 -0.017365023 -0.14431286
-0.025087947 -0.018155795 -0.14841312
0.13806829 0.0037068678 -0.14930311
0.2744613 0.011011707 -0.14472607
-0.042910494 0.089326769 -0.14507839
-0.0026563331 0.089643337 -0.14758921
0.11878052 0.11810538 -0.14519939
0.18555096 0.12036958 -0.14873418
0.21038963 0.14082637 -0.14294408
0.25493991 0.17510077 -0.14680585
-0.28955299 0.1959227 -0.1407474
-0.28955299 0.20917886 -0.14366595
0.24666047 0.20922071 -0.1447026
0.033891533 0.328471 -0.14029455
0.12592004 0.328471 -0.14439777
-0.086363941 -0.328471 -0.13419417
0.022224274 -0.328471 -0.1340771
0.19206344 -0.29579747 -0.13426179
0.19805968 -0.28259587 -0.1355492
0.23588929 -0.16580158 -0.13787009
-0.083813787 -0.045670092 -0.13907732
0.28600255 -0.042131208 -0.1303405
0.084854551 -0.03642457 -0.13386792
0.24788579 -0.018599711 -0.13080181
-0.090261534 0.058280192 -0.13046792
0.14947122 0.12275808 -0.13922161
0.25571761 0.16255654 -0.13529541
0.2113896 0.24738915 -0.13144043
0.19700402 0.2849209 -0.13383251
0.18468934 0.31262854 -0.13002031
-0.28955299 -0.27188206 -0.12858197
-0.28955299 -0.23750544 -0.12144996
-0.28955299 -0.10734881 -0.12225626
-0.065431282 -0.067661338 -0.12482049
0.054467946 -0.052600767 -0.12404128
0.090024076 -0.049321521 -0.12282968
-0.13436128 -0.0096357241 -0.12640426
-0.28955299 0.00031426549 -0.12061624
0.27348173 0.014907323 -0.12198393
-0.067937084 0.12704252 -0.12167937
0.18437603 0.13716523 -0.12928714
0.24435139 0.17685264 -0.12252107
0.24010323 0.20307632 -0.12202236
0.22240858 0.21513489 -0.12011386
0.22027235 0.22281426 -0.12397089
0.091558225 0.328471 -0.12704827
-0.14031248 -0.328471 -0.11542464
0.20622677 -0.26158381 -0.11175332
0.24001873 -0.14475843 -0.11018634
0.27677995 -0.083776116 -0.11734012
-0.28955299 -0.047806762 -0.11189655
0.27750725 -0.014103562 -0.11471657
-0.094062343 0.085284412 -0.11454828
0.0077169314 0.093334332 -0.11234944
0.12720212 0.11239867 -0.11796615
0.041904915 0.12691389 -0.11279735
0.083681688 0.15996216 -0.11604828
0.25334746 0.16000806 -0.11789226
0.24952485 0.1873692 -0.11407528
0.24560741 0.19529545 -0.11061326
-0.28955299 0.28545231 -0.11343242
-0.28955299 0.30913898 -0.1145073
0.1885757 0.30407238 -0.11986643
0.12991275 0.328471 -0.11964966
0.046791457 -0.328471 -0.10420634
0.022862762 -0.075712822 -0.10843369
-0.28955299 0.021678545 -0.10205089
-0.13181458 0.032838367 -0.10233995
0.097381607 0.104818 -0.10818345
0.067157425 0.1198425 -0.1011219
0.25793117 0.12697081 -0.10444902
-0.10077386 0.13116261 -0.10908964
-0.073149309 0.14425437 -0.10537331
0.20849347 0.25535381 -0.10001471
-0.28955299 0.32257032 -0.1075775
0.12546919 0.328471 -0.10892806
-0.26270449 -0.328471 -0.091549858
0.24574983 -0.11555325 -0.098146841
-0.058626141 -0.094676651 -0.099445686
0.068670772 -0.078468919 -0.097299531
0.28067502 -0.070240065 -0.09843275
0.28172714 -0.044515792 -0.093028165
-0.11006042 0.026742307 -0.091279335
0.031224143 0.10724493 -0.092926681
0.13285165 0.11464811 -0.092695273
0.13700742 0.12502296 -0.096249677
-0.13219073 0.14025991 -0.099080004
-0.034832112 0.15817808 -0.09602391
0.080990523 0.1773629 -0.094915353
0.21799648 0.22922345 -0.094758675
0.19795969 0.28541285 -0.090681598
0.1842968 0.31349277 -0.094485298
-0.22758365 0.328471 -0.099180669
-0.20086649 0.328471 -0.092511095
-0.16723669 -0.328471 -0.088341914
0.12584135 -0.328471 -0.085223086
-0.28955299 -0.22330907 -0.080532894
-0.28955299 -0.17372715 -0.082819998
-0.28955299 -0.1239785 -0.082573019
-0.28955299 -0.11996547 -0.089337654
-0.11032571 -0.11219984 -0.084951431
0.063584283 -0.089392617 -0.082953304
-0.13557619 0.0020040304 -0.08344505
-0.10053472 0.02588976 -0.088940054
-0.094039671 0.08763358 -0.083033174
-0.094429784 0.090442568 -0.080924861
-0.28955299 0.1413392 -0.086432695
-0.12375851 0.15588145 -0.082135089
-0.084932446 0.16146038 -0.082773782
0.25322497 0.16089074 -0.082263932
-0.28955299 0.18411016 -0.081862181
0.24854189 0.19463816 -0.083651163
0.22332923 0.21182533 -0.08982642
0.20390728 0.26796269 -0.085634589
-0.081943609 0.328471 -0.089764252
-0.20874508 -0.328471 -0.072493896
-0.094715759 -0.328471 -0.076909222
0.13125642 -0.328471 -0.07877177
0.21611074 -0.23440813 -0.073688284
0.1188415 -0.087689996 -0.074532092
0.28835547 -0.082893379 -0.07581529
-0.12546983 -0.065737545 -0.074675329
0.28057608 -0.036220737 -0.073939025
-0.1238604 0.0083281845 -0.075212389
0.26765418 0.056904253 -0.074047774
-0.15356866 0.12432189 -0.077361554
-0.14024866 0.15468416 -0.079696164
-0.1221101 0.15940791 -0.075534217
-0.092301503 0.16286126 -0.077913053
0.21300757 0.20942086 -0.078342177
0.22199413 0.21662478 -0.071708061
0.21763122 0.23022774 -0.079471469
-0.096883088 0.328471 -0.075973257
-0.083592482 0.328471 -0.071402416
-0.040712476 0.328471 -0.073237173
-0.16214991 -0.328471 -0.063923828
-0.015475682 -0.328471 -0.061456829
0.071322553 -0.100369 -0.060310543
0.2747224 0.0059659621 -0.06338767
-0.28955299 0.022898883 -0.06769041
-0.092279427 0.076943032 -0.067561626
0.25773019 0.12842007 -0.068471313
0.25638351 0.13812737 -0.067599222
-0.11091509 0.16668238 -0.063641168
0.058193371 0.19235593 -0.064126827
0.092175797 0.19607368 -0.067307241
0.24696477 0.20600323 -0.062871352
-0.17005605 0.328471 -0.067789257
-0.089249387 0.328471 -0.06775555
0.078295693 0.328471 -0.065836534
0.14986335 0.328471 -0.065387987
0.0035493672 -0.328471 -0.0579006
0.065688059 -0.328471 -0.054343425
-0.28955299 -0.27990305 -0.052859426
0.071919769 -0.10065477 -0.059311152
0.079692826 -0.099340811 -0.059849225
-0.28955299 -0.042030003 -0.051414739
0.27147189 0.029391963 -0.05604494
-0.28955299 0.091744132 -0.05303926
-0.15761895 0.15341419 -0.056392401
-0.28955299 0.26378125 -0.054687925
-0.20454168 0.328471 -0.055241965
-0.027788274 0.328471 -0.052669618
0.018411599 0.328471 -0.055356376
0.099588178 0.328471 -0.051795952
-0.14437008 -0.328471 -0.042687088
0.10185909 -0.328471 -0.041876867
0.16923845 -0.328471 -0.041982673
0.24622101 -0.11315215 -0.040496863
0.081615582 -0.10617085 -0.040726036
0.28414303 -0.09497194 -0.044738453
-0.10664051 -0.04732994 -0.043218184
-0.10191675 -0.035506651 -0.047167432
-0.28955299 -0.027768079 -0.046403352
-0.085318804 0.031641886 -0.044457022
0.26300076 0.090438202 -0.043970041
-0.28955299 0.18237281 -0.048646636
0.072568566 0.20407633 -0.040195484
0.13857974 0.21317109 -0.044710755
0.18684532 0.30728638 -0.046911865
-0.23996061 0.328471 -0.049471118
-0.21436843 0.328471 -0.043152437
0.026756151 0.328471 -0.048679784
-0.28955299 -0.32453436 -0.037413538
0.21968207 -0.22458887 -0.03507027
0.22866993 -0.086821973 -0.036079016
0.26966715 -0.081710875 -0.030444609
0.27528805 -0.080459148 -0.035094384
0.28880405 -0.077268623 -0.038447518
-0.11880942 -0.060915396 -0.039873894
0.27030605 0.03779367 -0.034365114
-0.28955299 0.046632376 -0.03156288
-0.088695437 0.055592824 -0.030792922
-0.28955299 0.097879201 -0.034425721
0.25733054 0.1313013 -0.039512355
0.25076178 0.17864121 -0.032816228
-0.28955299 0.27260697 -0.034456946
-0.22416267 0.328471 -0.03561841
0.16710654 -0.328471 -0.028542571
-0.28955299 -0.13039464 -0.022582069
-0.061637111 -0.1274779 -0.028828813
0.27939495 -0.1026216 -0.021646056
0.15822285 -0.098811567 -0.022142902
0.27153635 -0.081966542 -0.024680365
-0.081712887 0.0088402424 -0.024135035
-0.091851018 0.077182427 -0.028016921
0.26348913 0.086919084 -0.027154494
-0.15144584 0.11386252 -0.028046694
-0.10580443 0.17947508 -0.028142134
0.050573416 0.20404583 -0.021519808
0.24474314 0.24412599 -0.023238285
-0.28955299 0.30359107 -0.026505079
0.18837349 0.30392194 -0.022341222
-0.23682314 0.328471 -0.022724219
0.17728072 0.3283439 -0.027126275
-0.28955299 -0.26638472 -0.019153969
0.230289 -0.18680915 -0.019178525
0.02920666 -0.11834926 -0.015356272
-0.28955299 0.028486637 -0.012855452
0.26953802 0.043328669 -0.010669276
-0.28955299 0.087883234 -0.018222116
-0.098548084 0.18357387 -0.010899659
0.026347492 0.20237878 -0.010299905
0.067397982 0.328471 -0.01135394
0.16213024 0.328471 -0.018429004
-0.095484987 -0.328471 -0.0095177367
0.18887633 -0.30281439 -0.0088365357
0.033140857 -0.083650053 -0.0076049548
0.14346078 -0.059544694 -0.0072980174
0.1500628 -0.053050864 -0.0038220552
-0.28955299 -0.020227432 -0.0087013468
-0.28955299 0.086330354 -0.0097154677
-0.045422394 0.19268732 -0.0011643756
0.049873233 0.20657763 -0.00029509587
0.23156987 0.23343331 -0.0026797596
-0.23850563 0.328471 -0.0078177974
-0.12843759 0.328471 -0.009152079
0.094924122 0.328471 -0.0066874884
0.11672683 0.328471 -0.0063311532
0.17307097 0.328471 -0.0049669892
-0.069995895 -0.328471 0.0062902793
-0.029984146 -0.328471 0.00073742121
0.022020131 -0.328471 0.00063754618
0.12272435 -0.328471 0.0062237792
-0.28955299 -0.20434538 0.0081373006
0.23295864 -0.17721312 0.00034312531
0.26601851 0.068692714 0.0087498948
0.26563925 0.071424596 0.0058504455
-0.10365428 0.18398201 0.0006700732
0.017894547 0.20114769 0.0077786371
0.04430547 0.20489536 0.0091293473
0.10029355 0.2132574 0.0074506137
0.17733207 0.22467409 0.0061142528
-0.2362082 0.328471 0.0033574402
-0.28955299 -0.32807994 0.010431794
-0.26027125 -0.328471 0.018995486
0.065881424 -0.328471 0.01743935
0.10171466 -0.328471 0.014499141
0.15633565 -0.328471 0.019140299
-0.28955299 -0.31701374 0.010690633
0.21913795 -0.22608486 0.01877287
-0.022080965 -0.12779129 0.012325523
0.11742788 -0.091206498 0.016013119
0.20976573 -0.091875084 0.019206453
0.12069184 -0.07805267 0.013388663
0.13628076 -0.067815736 0.011586411
0.18146127 -0.066207595 0.0120901
-0.076201282 -0.025018664 0.019503053
-0.28955299 0.021076232 0.014421895
0.24400041 0.22737032 0.010691708
0.24638934 0.24945875 0.019205447
0.22746199 0.27164274 0.017443428
-0.28955299 0.2984136 0.014518179
0.045004711 0.328471 0.013278175
0.05743847 -0.328471 0.027352147
-0.28955299 -0.26749536 0.025488071
0.020949051 -0.11947566 0.023045629
0.042367242 -0.11511414 0.029652881
-0.063799068 -0.10888564 0.02090528
0.12417863 -0.10325755 0.027403966
0.2800113 -0.10706174 0.021725785
0.15459195 -0.099099308 0.025140466
0.20969839 -0.091362558 0.022197172
0.21614312 -0.090209402 0.023274247
0.27588028 -0.081063643 0.024427831
-0.28955299 -0.042267311 0.029709045
-0.083076313 0.021924116 0.024397559
0.25679234 0.13518162 0.028334193
-0.12232281 0.328471 0.023446811
-0.28863913 -0.328471 0.032089613
-0.073889129 -0.328471 0.035859376
-0.28955299 -0.2937775 0.031459242
0.2110025 -0.24845307 0.033549532
-0.024421196 -0.12375508 0.037431519
0.27996978 -0.10676213 0.03436707
0.13580176 -0.099423386 0.039388344
-0.055651538 0.18720631 0.039555945
0.016550016 0.19865367 0.032777779
0.08968398 0.20956734 0.030686714
0.24621239 0.21142443 0.030149022
0.24425015 0.22556861 0.035264924
0.22999907 0.2300369 0.031783693
0.24675636 0.24681242 0.031417169
-0.28955299 0.28638482 0.032364454
-0.20564687 0.328471 0.03221754
-0.18240067 0.328471 0.037822008
-0.038182743 -0.328471 0.046769124
-0.023579804 -0.328471 0.041962355
0.020520031 -0.328471 0.04259358
0.21324745 -0.24228066 0.042291887
-0.28955299 -0.20879912 0.049291037
-0.088663302 -0.11335672 0.044516198
-0.065214425 -0.11931454 0.045690116
0.030276291 -0.11460844 0.042907849
-0.074604869 -0.033579394 0.047804479
-0.28955299 0.0064608268 0.043839931
-0.084491998 0.03309498 0.04432945
0.26530954 0.073801883 0.041547664
0.26386005 0.084247544 0.043940749
-0.102121 0.099246569 0.045261849
-0.28955299 0.14079912 0.042125784
-0.22129913 -0.328471 0.056826275
-0.18194434 -0.328471 0.056386352
-0.059522435 -0.328471 0.054768115
0.13488346 -0.328471 0.050630543
-0.28955299 -0.17961961 0.05790519
-0.061180152 -0.12348124 0.058771417
0.24330318 -0.12802112 0.051578723
-0.092039883 -0.030739047 0.05669564
0.2687017 0.04935595 0.057654183
-0.14435856 0.097557679 0.05999314
0.22852524 0.26397872 0.050391078
0.20158926 0.27433565 0.059624203
-0.28101233 0.328471 0.054124221
-0.17295204 0.328471 0.051016949
0.1400131 0.328471 0.051886514
-0.092557713 -0.328471 0.063267201
0.078879759 -0.328471 0.064342871
0.19734499 -0.28416938 0.068355039
0.23592274 -0.16563106 0.060844935
0.23893183 -0.072588667 0.069310695
0.27131051 -0.071529768 0.060967959
-0.28955299 -0.0067607462 0.068721086
0.25673926 0.1355641 0.060016993
-0.15702385 0.15929879 0.068433002
0.056860648 0.19494931 0.062113956
-0.077746674 -0.328471 0.076503456
0.24854732 -0.093289822 0.07689061
0.29379001 -0.091923065 0.073119037
0.14550951 -0.08645758 0.070251308
0.25109413 -0.071486965 0.07837262
-0.11619101 0.10970527 0.078420147
0.027717806 0.18593214 0.075140052
-0.28955299 0.19330342 0.071884759
-0.26782137 -0.328471 0.087152965
0.14558312 -0.328471 0.082033306
0.18265444 -0.31651282 0.088823624
0.052066557 -0.093929902 0.084881343
0.064242013 -0.089418977 0.089561179
0.19638048 -0.069365114 0.088651441
0.28220755 -0.047974642 0.088453561
0.27018282 0.038682371 0.087465957
0.26733008 0.059240971 0.0800725
0.26612526 0.067924045 0.085801192
0.26536083 0.073432818 0.083465517
0.26305652 0.090038404 0.082619488
-0.28955299 0.16667384 0.083701797
0.23385675 0.22970405 0.086395003
-0.032027371 0.328471 0.088349685
-0.0064586848 -0.328471 0.096279159
0.040345479 -0.328471 0.096354701
0.058450751 -0.328471 0.092851922
0.13426775 -0.328471 0.096313551
0.05613745 -0.084525295 0.096876845
0.27663651 -0.082739986 0.092518866
-0.0045644622 0.096255295 0.096857578
-0.28955299 0.10252878 0.097329959
0.073490858 0.11482103 0.099114195
-0.28955299 0.12549226 0.099456817
-0.067405894 0.15853883 0.095939286
-0.28955299 0.2145171 0.093303144
0.21904489 0.22634302 0.099824473
0.2103489 0.25025257 0.092805177
0.19599822 0.28713527 0.091516882
-0.20826215 0.328471 0.098566055
-0.084563449 0.328471 0.095820084
-0.2397273 -0.328471 0.1037351
-0.28955299 -0.29115379 0.10234917
0.22738713 -0.19724 0.10368849
-0.28955299 -0.16454807 0.10862616
-0.28955299 -0.13903877 0.10566773
0.24657235 -0.11019049 0.10465018
-0.12238412 -0.072549447 0.10265742
-0.12718728 -0.039927449 0.10390276
-0.12880374 -0.029075144 0.10272426
-0.1303658 -0.01850275 0.10264391
-0.0071828649 0.087131001 0.10654238
0.072727561 0.099112563 0.10298511
0.028510682 0.11428471 0.10644481
0.15919545 0.11242601 0.10747354
-0.28955299 0.14902183 0.10654528
0.032432482 0.16472453 0.10678731
-0.27393171 0.328471 0.10132409
0.12522465 -0.328471 0.11587656
0.04020267 -0.068316996 0.11906953
-0.12580287 -0.048105314 0.11895914
0.1987911 -0.044569422 0.11759759
0.28752232 -0.046968527 0.11396536
0.26522964 -0.038072962 0.1128882
-0.28955299 0.06970641 0.1163487
-0.026677206 0.11223824 0.11389236
0.14979371 0.11450806 0.11801731
0.25706059 0.13324827 0.11539317
0.17991677 0.14695472 0.11615553
0.17657889 0.17617452 0.11510822
0.19520862 0.1785973 0.11516096
0.21055093 0.17975205 0.11589868
-0.18056595 0.328471 0.11564028
-0.20205185 -0.328471 0.12281378
0.25296903 -0.05284588 0.12307635
0.28817627 -0.050911028 0.1221379
-0.28955299 0.0083047152 0.12272625
-0.11559717 0.041909296 0.12104517
0.26987281 0.040916603 0.12488721
0.049773522 0.10165353 0.12495117
0.26073328 0.10678074 0.12544557
0.10890223 0.14313962 0.12442213
0.11245767 0.15014575 0.12953986
0.15652689 0.15043174 0.12415191
0.25301373 0.16241346 0.12509321
-0.28955299 0.18544453 0.1216002
-0.044644982 0.328471 0.12246209
0.033165682 0.328471 0.12002255
0.040798333 0.328471 0.12474523
0.10443532 0.328471 0.12759379
-0.089865632 -0.328471 0.1398544
0.047878914 -0.328471 0.13384421
0.11351633 -0.328471 0.13115264
0.19488937 -0.28957582 0.1334438
0.21945941 -0.22520098 0.13433102
-0.28955299 -0.13625559 0.13642702
0.25302392 -0.051430669 0.13459283
0.28835446 -0.054114632 0.13214283
0.28609186 -0.037008278 0.13466638
0.28431028 -0.023822369 0.13615133
0.26693624 -0.011777354 0.13317361
-0.13472866 0.013832767 0.13780814
-0.13940866 0.045657046 0.13943595
0.26628575 0.066767812 0.13987839
0.2611587 0.10371527 0.13539536
0.10699224 0.328471 0.13909526
0.12931263 0.328471 0.13057944
-0.0020307004 -0.328471 0.14777985
0.024718694 -0.328471 0.14349833
0.11055516 -0.021988787 0.14397538
0.15525325 -0.010117927 0.14541435
0.18767306 -0.0054686964 0.14498398
0.26807112 0.002068223 0.14426509
0.26664394 0.064186268 0.14744306
-0.021970488 0.096983992 0.14360647
-0.055016521 0.10767081 0.1431099
0.029091373 0.10498526 0.14439242
0.063317567 0.10948431 0.1423215
0.25586382 0.14187317 0.14107987
-0.28955299 0.32843089 0.14450479
-0.21786679 0.328471 0.14808057
-0.055824999 0.328471 0.14875309
-0.28955299 -0.21538237 0.15306021
0.26965258 -0.032411363 0.15097877
0.28486821 -0.028413877 0.15269467
0.27479991 -0.0083596855 0.15699363
0.022535481 0.0076125539 0.15976629
-0.13663113 0.0281177 0.15544645
0.27560681 0.029623618 0.15233691
0.24922477 0.035712637 0.1558865
0.22445178 0.044562176 0.15802775
-0.090002872 0.0594262 0.15959536
-0.084399536 0.058235914 0.15987799
-0.077354155 0.064545996 0.1588853
0.11010467 0.07435941 0.15977213
0.26428649 0.074587755 0.15988013
0.029867884 0.08930786 0.15608613
0.26332635 0.088095017 0.15200011
0.22825953 0.094685495 0.15788914
0.25405276 0.10811532 0.15614659
-0.28955299 0.11001092 0.15679592
0.24194109 0.16729696 0.15330148
0.23693907 0.20334661 0.15179089
-0.11598328 0.328471 0.15174332
0.025944196 0.328471 0.15804057
0.099033996 0.328471 0.1524567
-0.13464086 -0.328471 0.16529845
-0.28955299 -0.18280125 0.16412374
0.23760718 -0.15704739 0.16238219
-0.016177775 0.0044360501 0.16044459
-0.13471858 0.015644189 0.16146967
-0.082883194 0.026029272 0.16400273
-0.019477583 0.049524084 0.16227588
0.035336222 0.053052668 0.16242135
0.16433352 0.072508365 0.16083844
0.25450873 0.080305986 0.16043866
0.24505983 0.14942417 0.1608288
0.26133299 0.14467108 0.16933356
0.19787802 0.28299668 0.16093668
-0.22751936 0.328471 0.16724235
-0.04767172 0.328471 0.16699831
-0.038185015 0.328471 0.16661681
-0.27731535 -0.328471 0.17269075
0.041087635 -0.328471 0.17245264
0.13899872 -0.328471 0.17731953
-0.28955299 -0.31830812 0.1724508
-0.28955299 -0.1458758 0.17534849
0.24398176 -0.12456317 0.17909729
0.25331259 -0.04398901 0.1781704
0.25420213 -0.021058166 0.17411077
0.27299765 0.055079214 0.1742474
-0.28955299 0.064739838 0.17378969
0.25889346 0.069926709 0.17772618
0.27080721 0.073492929 0.17284082
0.26068738 0.11574965 0.1732882
0.22125068 0.21929818 0.17661428
0.21381952 0.24070874 0.17499295
0.21043217 0.25002238 0.17191613
-0.28955299 0.32425222 0.17981561
-0.22809237 0.328471 0.17386346
-0.19722408 0.328471 0.1758177
-0.053389497 -0.328471 0.18081704
0.20222837 -0.27257729 0.18218973
-0.28955299 -0.25017834 0.1800867
0.24754313 -0.10188002 0.18642998
0.27247119 0.06512858 0.18084501
0.25543106 0.070077449 0.1859476
0.24797103 0.12384036 0.18868017
-0.28955299 0.17296837 0.18854681
-0.28955299 0.32560498 0.18425295
-0.25270331 -0.328471 0.19852655
-0.11683585 -0.328471 0.19153097
0.12270821 -0.328471 0.19772431
0.20715322 -0.25903657 0.19622387
0.2108933 -0.24875331 0.19896796
0.22896618 -0.19156408 0.19388823
0.26610056 0.035819642 0.1972547
0.24943985 0.11325516 0.19662757
-0.28955299 0.16858339 0.19012323
0.18481076 0.31176573 0.19317202
0.1852389 -0.31082278 0.20719221
0.24845602 -0.094064102 0.20273471
-0.28955299 0.29339465 0.20782292
-0.18882729 0.328471 0.20932421
-0.12667356 0.328471 0.20148489
-0.10075728 0.328471 0.20843993
0.14589843 0.328471 0.20094441
-0.16386124 -0.328471 0.2121352
-0.039625019 -0.328471 0.2123844
0.1323846 -0.328471 0.21372166
-0.28955299 -0.12511167 0.21033312
0.24092643 -0.12711854 0.21895863
-0.28955299 0.017804235 0.21037564
-0.28955299 0.045678452 0.21242803
-0.28955299 0.1434879 0.21897784
-0.28955299 0.17145157 0.21494873
0.20790699 0.25264958 0.21631621
-0.251461 0.328471 0.21680549
-0.21114916 0.328471 0.21066806
-0.17867146 0.328471 0.21105139
-0.16852613 0.328471 0.21080375
0.0086612385 0.328471 0.21300398
0.15108112 0.328471 0.2128512
0.08750467 -0.328471 0.22570768
0.18782842 -0.28656873 0.22652216
0.19313812 -0.27547804 0.22628367
-0.28955299 -0.11903129 0.22382912
0.23677342 0.11496423 0.22772543
0.23328525 0.13313589 0.22765155
0.22725433 0.1738494 0.22514236
-0.24322025 0.328471 0.2226551
-0.019138955 -0.32744771 0.23338699
0.0067416057 -0.32183158 0.23338699
0.074042119 -0.328471 0.23199005
0.167229 -0.32102886 0.2301144
0.029450871 -0.31349942 0.23338701
-0.16834243 -0.30572221 0.23338699
0.08759854 -0.30312046 0.23338699
-0.28575525 -0.29027945 0.23338698
-0.22816153 -0.29558036 0.23338699
-0.027420625 -0.29298732 0.23338699
0.10329282 -0.28332657 0.23338699
-0.11749177 -0.27633804 0.23338699
-0.059708927 -0.27182829 0.23338699
-0.15944314 -0.25075641 0.23338699
0.055102699 -0.25439557 0.23338699
-0.1809134 -0.24337086 0.23338699
-0.12186928 -0.22450694 0.23338699
-0.044432327 -0.22054738 0.23338699
0.08495307 -0.22967814 0.23338699
0.1362417 -0.22232085 0.23338699
-0.19687423 -0.21204923 0.23338699
-0.022336371 -0.21265694 0.23338699
0.053179659 -0.21311975 0.23338699
0.20874058 -0.19776124 0.23257503
-0.2371136 -0.18417794 0.23338699
-0.059320323 -0.18930297 0.23338699
-0.01994662 -0.18975441 0.23338699
0.20938487 -0.18829939 0.23299357
-0.20138821 -0.16907735 0.23338699
0.0020495523 -0.16263828 0.23338699
0.089532077 -0.15973909 0.23338699
-0.21228966 -0.14346384 0.23338699
-0.11254497 -0.14562839 0.23338699
-0.27237093 -0.13738906 0.23338699
-0.033239748 -0.13036804 0.23338699
0.064874962 -0.13276185 0.23338699
-0.24539214 -0.12496471 0.23338699
-0.16555654 -0.12876756 0.23338699
-0.28955299 -0.11584135 0.23275113
0.20967218 -0.11282823 0.23338699
-0.16272649 -0.10496555 0.23338699
0.038685568 -0.10997418 0.23338699
0.032168172 -0.099870756 0.23338699
0.10071008 -0.093789607 0.23338699
0.17000744 -0.094021671 0.23338699
0.20446475 -0.091914885 0.23338699
-0.22258753 -0.082473218 0.23338699
-0.21387225 -0.080020487 0.23338699
-0.055557806 -0.088981457 0.23338699
-0.048020579 -0.082117811 0.23338699
-0.020482637 -0.084517665 0.23338699
-0.0096774576 -0.088717446 0.23338699
0.12440456 -0.089711189 0.23338699
0.1950316 -0.087895557 0.23338699
0.21254268 -0.083050236 0.23338699
-0.19022131 -0.074102856 0.23338699
-0.12401038 -0.071950942 0.23338699
0.049694598 -0.076173954 0.23338699
-0.12775514 -0.06712047 0.23338699
-0.055354618 -0.068184838 0.23338699
-0.0026990399 -0.064256765 0.23338699
0.0077383295 -0.066405557 0.23338699
-0.28898087 -0.052604318 0.23338699
-0.27581847 -0.057724699 0.23338699
-0.26827398 -0.056038577 0.23338699
0.024010515 -0.055901419 0.23338699
-0.082647368 -0.047483638 0.23338699
-0.13228783 -0.023962975 0.23338699
-0.0012450963 -0.028198101 0.23338699
0.053596973 -0.02698981 0.23338699
-0.1725114 -0.014447607 0.23338699
0.024889179 -0.014197469 0.23338699
-0.0035998598 -0.0035158098 0.23338699
0.077570289 -0.0010516159 0.23338699
0.22087198 -0.0010064021 0.23338699
-0.16927382 0.0065897927 0.23338699
-0.13122965 0.0075094923 0.23338699
0.00034543127 0.0081937648 0.23338699
0.077166185 0.0043976717 0.23338699
0.094227858 0.0051501729 0.23338699
-0.10340898 0.02929318 0.23338699
0.12763673 0.029407158 0.23338699
-0.18332154 0.036542516 0.23338699
0.089346543 0.039151989 0.23338699
-0.099580705 0.04812324 0.23338701
-0.25919959 0.059989262 0.23338699
-0.19850303 0.057558447 0.23338699
0.20469418 0.05621504 0.23338699
0.23339668 0.058673874 0.23284578
0.035918407 0.060860328 0.23338699
0.18601847 0.06088284 0.23338699
-0.15461883 0.076830335 0.23338699
0.044293232 0.076823771 0.23338699
0.18033768 0.071288124 0.23338699
0.089109406 0.082408085 0.23338699
-0.24187338 0.099346779 0.23338699
-0.014564164 0.093851998 0.23338699
0.028030131 0.097685494 0.23338699
-0.099441804 0.10405344 0.23338699
-0.018071614 0.10256576 0.23338699
0.1634756 0.10698522 0.23338699
-0.19107991 0.1287922 0.23338699
-0.053467192 0.12786068 0.23338699
0.21953304 0.12782311 0.23336929
0.21682326 0.13466203 0.23338699
-0.014855489 0.14375794 0.23338699
-0.059854917 0.15714636 0.23338699
0.036628313 0.15595439 0.23338699
0.059449457 0.15039168 0.23338699
-0.07241115 0.16627465 0.23338699
0.10343924 0.16785571 0.23338699
-0.28860348 0.17705783 0.23338699
-0.12072213 0.1710735 0.23338701
-0.046453454 0.1746169 0.23338699
-0.25942346 0.18687586 0.23338699
-0.097773835 0.18404669 0.23338699
-0.058978699 0.18571684 0.23338699
-0.16124859 0.19878374 0.23338699
-0.11310191 0.19490644 0.23338699
-0.073060289 0.19024393 0.23338699
-0.052689161 0.19795969 0.23338699
-0.28065711 0.20952946 0.23338699
-0.28222036 0.22628415 0.23338699
-0.14469288 0.23107381 0.23338699
-0.24955033 0.24590896 0.23338699
0.085234016 0.24723932 0.23338699
-0.10404625 0.25748521 0.23338699
0.071362734 0.25242782 0.23338699
0.096177801 0.25483015 0.23338699
-0.13391958 0.2632708 0.23338699
-0.0060583949 0.26219374 0.23338699
-0.021897942 0.27978238 0.23338699
-0.26249501 0.287058 0.23338699
0.058930773 0.28525349 0.23338699
-0.073588826 0.29559875 0.23338699
0.061859574 0.29599604 0.23338699
-0.14461432 0.30764222 0.23338699
-0.082199648 0.30592591 0.23338699
-0.28869161 0.32825083 0.23338699
-0.013894759 0.32105762 0.23338699
0.0025561154 0.32602671 0.23338699
0.015151754 0.328471 0.23148987
0.14067301 0.328471 0.23134506
