# .PCD v0.7 - Point Cloud Data file format
VERSION 0.7
FIELDS x y z
SIZE 4 4 4
TYPE F F F
COUNT 1 1 1
WIDTH 982
HEIGHT 1
VIEWPOINT 0 0 0 1 0 0 0
POINTS 982
DATA ascii
-0.10329261 -0.31489894 -0.2549465
-0.15027377 -0.30209547 -0.25658712
0.0099681765 -0.2863819 -0.25099137
-0.12406844 -0.26948088 -0.25567204
-0.056758702 -0.26057369 -0.25332153
-0.03993094 -0.25578794 -0.25273389
-0.0024329126 -0.25484994 -0.25142443
-0.10787707 -0.24169454 -0.2551066
-0.23621678 -0.22687303 -0.2595883
-0.20667529 -0.22821949 -0.25855669
-0.24623005 -0.21129745 -0.25010234
-0.23708306 -0.21029392 -0.25961855
0.028069369 -0.21130817 -0.25035927
-0.062693089 -0.20654768 -0.25352874
0.026420891 -0.20515876 -0.25041685
-0.099136546 -0.19009756 -0.25480136
-0.17706384 -0.17510879 -0.25752264
-0.12796783 -0.17019676 -0.25580817
-0.089213453 -0.17923072 -0.25445485
-0.030577417 -0.17873579 -0.25240725
0.033008434 -0.17277505 -0.2501868
-0.24347126 -0.16997646 -0.25984165
-0.12096598 -0.16085313 -0.25556368
-0.23290874 -0.15504451 -0.25947279
-0.075595982 -0.15394524 -0.25397933
-0.016783323 -0.15963304 -0.25192553
0.0040004961 -0.15393913 -0.25119978
-0.081751764 -0.14714892 -0.25419429
-0.11789899 -0.096065782 -0.25545657
-0.21208163 -0.081135735 -0.25874549
-0.013378013 -0.084351927 -0.25180665
-0.066255338 -0.078635894 -0.25365317
-0.087037958 -0.062295906 -0.25437889
-0.24387965 -0.049258366 -0.2598559
-0.22013158 -0.030100822 -0.25902659
-0.1543057 -0.030687433 -0.2567279
-0.12886223 -0.035198599 -0.25583941
-0.15671489 -0.022058718 -0.25681204
-0.083381414 -0.0045014136 -0.25425118
-0.064254373 -0.005271662 -0.25358328
-0.17710377 0.0035987347 -0.25752401
-0.086923003 0.0010764189 -0.25437486
-0.15388882 0.014532357 -0.25671339
0.03112115 0.014194813 -0.25025308
-0.19257429 0.028863259 -0.2580643
-0.13197786 0.02762644 -0.25594822
-0.2259616 0.033997037 -0.2592302
-0.08119829 0.043347985 -0.25417495
-0.23673974 0.063061818 -0.25960657
-0.21070963 0.06797193 -0.25869757
-0.17216389 0.077970743 -0.25735155
-0.018111937 0.076021597 -0.25197226
0.024122596 0.077946976 -0.25049746
-0.049717415 0.083644889 -0.25307563
-0.038512185 0.084028773 -0.25268462
-0.12948796 0.096001931 -0.25586125
0.022433892 0.098555781 -0.25055644
-0.043590982 0.10776681 -0.25286198
-0.20884739 0.11256824 -0.25863254
0.036142766 0.11383139 -0.25007772
-0.24597459 0.12092482 -0.25741783
0.035713989 0.12560391 -0.25009269
0.013830096 0.14790502 -0.25085688
-0.1501562 0.15714464 -0.25658301
-0.18984571 0.16350701 -0.25796899
-0.023631159 0.16604212 -0.25216499
-0.24595359 0.21465026 -0.25801918
-0.0080353022 0.21077895 -0.25162038
-0.15604377 0.23998027 -0.25678873
-0.11589505 0.23709242 -0.25538677
-0.06940347 0.23087354 -0.25376332
-0.24611476 0.2410755 -0.25340348
-0.24596609 0.26802564 -0.25766081
-0.10612866 0.26452973 -0.25504574
-0.0071062152 0.26947939 -0.25158793
-0.18302949 0.27703354 -0.25773108
-0.13808541 0.27743292 -0.25616163
-0.20671558 0.28362533 -0.25855809
-0.21435778 0.29876798 -0.25882497
-0.19685793 0.29261386 -0.25821391
-0.1413296 0.30892074 -0.25627494
-0.1306106 0.30807352 -0.25590062
-0.032863241 0.3061952 -0.25248736
-0.17977409 0.31138289 -0.25761741
-0.088089995 0.31646121 -0.25441584
0.07038343 -0.33371705 -0.24888164
0.23317814 -0.33599365 -0.24319676
0.049772687 -0.32319158 -0.24960136
0.098310262 -0.31239122 -0.24790642
0.11544095 -0.31776118 -0.24730821
0.10197422 -0.29198208 -0.24777848
0.14988644 -0.29748666 -0.24610534
0.11312327 -0.28532478 -0.24738914
0.12030062 -0.2608411 -0.24713852
0.21749429 -0.26774833 -0.24374443
0.091526002 -0.25838211 -0.24814333
0.17999187 -0.25349611 -0.24505405
0.184848 -0.25465339 -0.24488448
0.16609673 -0.24159649 -0.24553926
0.076388359 -0.2365244 -0.24867196
0.16193175 -0.2350895 -0.24568471
0.18546511 -0.21605332 -0.24486293
0.094414651 -0.20347269 -0.24804246
0.23739031 -0.18848827 -0.24305032
0.16546066 -0.16379543 -0.24556202
0.046577349 -0.15836264 -0.24971297
0.15364473 -0.14822215 -0.24597463
0.060777716 -0.092786796 -0.24921709
0.1625095 -0.091627814 -0.2456651
0.17048691 -0.099092841 -0.24538654
0.1854201 -0.09284693 -0.24486507
0.15371728 -0.081853278 -0.24597211
0.25425956 -0.08194524 -0.24224824
0.17627448 -0.077141166 -0.24518444
0.19382276 -0.072725639 -0.24457166
0.081368946 -0.050481044 -0.24849847
0.14865699 -0.055835709 -0.24614882
0.16717507 -0.057359535 -0.24550217
0.22482412 -0.059627503 -0.24348912
0.1217799 -0.047016993 -0.24708734
0.14249881 -0.03827931 -0.24636385
0.060739718 -0.024633612 -0.24921884
0.062388901 -0.019114932 -0.24916124
0.24568635 -0.0066880286 -0.24276063
0.056101613 0.0052278638 -0.2493808
0.16737881 0.01520329 -0.24549507
0.20569575 0.014853224 -0.24415708
0.22597447 0.01868429 -0.24344896
0.23809502 0.016307317 -0.24302572
0.14680108 0.02108337 -0.24621364
0.17328766 0.034368858 -0.24528873
0.23823711 0.044451237 -0.24302074
0.17511535 0.051106602 -0.24522491
0.058968894 0.08077953 -0.24928066
0.19416964 0.084797226 -0.24455956
0.20295581 0.087987468 -0.24425274
0.11218444 0.13691874 -0.24742241
0.20548615 0.13751167 -0.24416438
0.22630763 0.13226444 -0.24343731
0.10572115 0.14704522 -0.24764811
0.24554174 0.16643415 -0.24276567
0.065112539 0.17910549 -0.24906613
0.066979885 0.18834278 -0.24900092
0.16386069 0.19374412 -0.24561791
0.21363187 0.19607486 -0.24387994
0.097202063 0.20582113 -0.24794559
0.11741422 0.20579717 -0.24723977
0.14020488 0.20651115 -0.24644397
0.062387064 0.21937481 -0.2491613
0.19929551 0.21436654 -0.24438056
0.23206474 0.21272808 -0.24323629
0.17297792 0.23140615 -0.24529956
0.17574619 0.27686459 -0.24520287
0.075154319 0.2849662 -0.24871549
0.12365751 0.28723797 -0.24702179
0.18858367 0.28496653 -0.24475461
0.24812959 0.29935265 -0.2426753
-0.24669771 -0.22043501 -0.23670977
0.25404626 -0.20781842 -0.23613872
-0.24687731 -0.17568648 -0.23156661
-0.24682184 -0.1342538 -0.23315495
0.25402838 -0.0092402846 -0.23562647
-0.14042281 0.33621901 -0.23493752
0.08499708 0.33621901 -0.23810658
0.10478031 0.33621901 -0.23617542
0.24067967 0.33621898 -0.23954333
0.25352257 -0.24923311 -0.2211421
0.25371313 -0.078295268 -0.22659808
0.25350377 0.017648801 -0.22060132
-0.24715808 0.05880706 -0.223526
-0.24722859 0.18670401 -0.22150682
-0.034381576 0.33621901 -0.22782671
0.07463631 0.33621901 -0.22397412
-0.2474452 -0.26453459 -0.21530408
-0.24735011 -0.19386923 -0.21802707
-0.24756485 -0.16894335 -0.21187791
-0.24759687 -0.10433002 -0.21096072
-0.24739835 -0.067867845 -0.21664587
-0.24729016 -0.0090311766 -0.2197441
-0.2473242 0.044959188 -0.2187686
0.25458685 0.31946346 -0.21761537
-0.15211765 0.33621901 -0.21973097
0.13973126 0.33621901 -0.21500519
-0.24785221 -0.26835835 -0.20364885
0.2530435 -0.23489276 -0.20742325
0.25299516 -0.22007206 -0.20603445
-0.24793273 -0.18075784 -0.20134267
0.2530424 0.15697747 -0.20739025
0.014650151 0.33621901 -0.20603964
-0.24806349 -0.23500459 -0.19759852
-0.24824414 -0.11272576 -0.19242527
0.25270951 -0.049046926 -0.19785383
-0.24803163 0.079511181 -0.19851089
-0.24825865 0.20859748 -0.19200951
-0.24822699 0.22078611 -0.19291584
0.012921974 0.33621901 -0.19733681
0.2322585 -0.33369356 -0.18997072
0.25234854 -0.18753727 -0.18751512
0.25236976 -0.061397649 -0.18812314
0.25221694 0.097322516 -0.18374673
-0.24850932 0.19717689 -0.18483078
0.25230697 0.19084775 -0.18633057
-0.24840887 0.2904374 -0.18770799
-0.19797336 0.33621901 -0.18815032
0.13646063 0.33621901 -0.18933155
-0.24897048 -0.29139298 -0.1716249
-0.24893349 -0.13716149 -0.17268384
-0.24891999 -0.026194505 -0.17307071
-0.093407407 -0.0066042435 -0.17262471
-0.085967325 -0.0096414778 -0.1716032
-0.09338554 0.0054657683 -0.17565088
-0.130272 0.016577339 -0.1742786
-0.089674726 0.022994375 -0.17988276
0.046291087 0.028746769 -0.17504126
0.18925077 0.024491401 -0.17011818
-0.24878097 0.04663679 -0.17705163
0.13833439 0.040939562 -0.17162889
0.029658161 0.056396931 -0.17517252
-0.043428216 0.067461126 -0.17754485
-0.057325471 0.083087653 -0.17580383
0.0065806415 0.092067882 -0.17100757
-0.12734181 0.10748161 -0.17128165
0.25188053 0.13935263 -0.17412311
0.25205776 0.20467438 -0.17919233
0.252013 0.25011045 -0.17789951
0.25315621 0.32971442 -0.17664695
-0.16430287 0.33621901 -0.17482078
0.067299366 0.33621901 -0.174603
0.25293443 0.33128273 -0.17029548
-0.12941413 -0.023985 -0.16952331
-0.11843466 -0.025916573 -0.16865548
-0.083575085 -0.021072559 -0.16865297
0.052328557 -0.011710383 -0.166255
0.17832929 -0.0064680465 -0.16316965
0.19209024 -0.0034477711 -0.16344655
0.25141603 0.041868549 -0.16080827
-0.24936852 0.067086875 -0.16022649
-0.24925885 0.084860198 -0.16336748
0.18443063 0.090629481 -0.16520774
0.094488859 0.10220839 -0.16504177
-0.10930697 0.11660028 -0.16804758
-0.088086583 0.12935096 -0.16281317
-0.24914321 0.18532597 -0.16667888
-0.24937372 0.19510816 -0.16007765
0.25145522 0.30761403 -0.16193102
0.076948866 0.33621901 -0.1622109
0.23550406 0.33621901 -0.16184658
0.23108675 -0.30354366 -0.15641584
-0.24961478 -0.11661177 -0.15317385
0.015215933 -0.051451571 -0.15055931
-0.12929197 -0.047286697 -0.15792193
0.023126751 -0.045526754 -0.15357876
0.050290637 -0.040790256 -0.15526482
0.043171246 -0.03798642 -0.15707304
0.051700223 -0.03472463 -0.15858954
0.10017246 -0.029428106 -0.15984301
0.20507053 0.0048854575 -0.1554957
0.25106815 0.025637403 -0.1508448
0.20026642 0.031098001 -0.15749878
0.18647389 0.10945934 -0.15975885
0.079601742 0.13776886 -0.15191083
0.11633129 0.13341001 -0.15324174
0.12982413 0.13073613 -0.15437378
0.16531096 0.13425699 -0.15102367
0.25109261 0.18596578 -0.15155423
-0.10747598 0.33621901 -0.15943
0.25080246 -0.21914567 -0.14324646
0.10927982 -0.060732521 -0.14211217
0.17227843 -0.047442093 -0.14730491
0.20805201 0.08593075 -0.14405707
0.047579605 0.15359975 -0.14353734
0.25088325 0.15944996 -0.14556165
0.25088471 0.1873346 -0.14560139
0.00099312514 0.33621901 -0.14717308
-0.25012505 -0.16213667 -0.13856119
0.090718508 -0.078453325 -0.13135245
0.25049394 0.023736216 -0.13440382
0.25060004 0.055177685 -0.13744763
0.19956075 0.065069824 -0.13728285
0.094394982 0.16794872 -0.13329968
0.25065452 0.30992344 -0.1390115
-0.20066255 0.33621901 -0.13899606
-0.12455546 0.33621901 -0.13684313
-0.25045279 -0.22395444 -0.12917699
0.25008407 -0.19055928 -0.12267452
0.051717538 -0.08974462 -0.12177674
0.25014517 -0.028420569 -0.12441
-0.25073332 0.038878098 -0.12114279
0.19927256 0.074034721 -0.12902784
-0.25065553 0.082092345 -0.12337005
0.1992186 0.12913808 -0.12747608
-0.25061509 0.14893709 -0.12452877
0.16439402 0.1728218 -0.12758602
0.17934731 0.17847282 -0.12122273
-0.13197392 0.18208539 -0.1255506
-0.1251664 0.1879165 -0.12209496
0.25031734 0.19945115 -0.12935172
-0.25075948 0.22544281 -0.12039359
-0.25051767 0.32155383 -0.12731855
-0.24992794 0.33621901 -0.12384336
0.22966754 -0.33472753 -0.11577437
0.24988632 -0.13003629 -0.11700559
0.19523859 -0.089997888 -0.11652003
-0.13236704 0.024909904 -0.11428761
0.21181095 0.12958166 -0.11003668
0.24977002 0.15556252 -0.11367916
-0.25096685 0.18247491 -0.11445552
-0.0091161747 0.18996742 -0.11592247
0.050843168 0.19210586 -0.11161833
-0.25093418 0.21676558 -0.11539102
-0.031072222 0.33621901 -0.11525837
0.089292645 0.33621901 -0.11939422
-0.25139162 -0.18236852 -0.1022917
0.24963297 -0.17391515 -0.10975423
-0.13268583 -0.027852746 -0.10515912
0.19857626 -0.024031371 -0.10907549
0.26257306 -0.016341386 -0.106453
-0.13276815 0.025831457 -0.10280152
0.19828844 0.11492829 -0.10083987
0.19835067 0.14211497 -0.10262029
-0.25121966 0.19802165 -0.10721598
-0.1328415 0.19375989 -0.10071166
-0.068091936 0.19893731 -0.10871019
0.16699313 0.19659124 -0.10292631
-0.25140771 0.23053004 -0.10183058
-0.25112751 0.29256976 -0.10985462
0.08132451 0.33621901 -0.10776941
0.12760586 0.33621901 -0.10315296
0.11154485 -0.11579976 -0.092279777
0.20484729 -0.09700191 -0.092357166
0.26200807 -0.060318541 -0.090275586
0.26229051 -0.054887049 -0.098360404
0.25741199 0.037511282 -0.093461305
0.24303751 0.053283196 -0.091307312
-0.13301222 0.070353091 -0.095829874
-0.13290641 0.10924046 -0.098857135
0.19803205 0.18077771 -0.093501732
0.20104378 0.18432406 -0.09518525
0.00081021711 0.20539618 -0.099628091
-0.050696626 0.33621901 -0.095285892
0.15195237 0.33621901 -0.096197344
0.16413917 0.33621901 -0.099652313
-0.25197718 -0.22577439 -0.085523009
-0.25211409 -0.21526468 -0.081601962
0.24864635 -0.19732633 -0.081501715
0.033008426 -0.12408093 -0.081193618
0.057417527 -0.12115813 -0.085222006
0.091857746 -0.11966278 -0.086516395
0.20024404 -0.11645939 -0.081414133
-0.13348483 -0.023212424 -0.082281567
0.19788483 -0.020944517 -0.089276001
-0.13329872 0.0601127 -0.087619483
-0.13348672 0.077028468 -0.082245208
-0.1333335 0.11197753 -0.086626127
0.21428436 0.14769754 -0.082750179
0.24888389 0.1765421 -0.088301696
0.18388146 0.2098069 -0.087919407
-0.11215531 0.21572746 -0.087599821
-0.069235325 0.2152724 -0.086920239
0.1977005 0.21136454 -0.084011331
-0.25184017 0.32230538 -0.089446276
-0.17308576 0.33621901 -0.080538094
-0.023136508 0.33621901 -0.089414902
-0.25236061 -0.20794779 -0.074542701
-0.080880642 -0.12797478 -0.078668416
-0.017937139 -0.12902832 -0.07471101
-0.25225568 -0.1022442 -0.077548347
0.24840482 -0.10244067 -0.07458353
0.24994843 -0.033859577 -0.073340625
0.19725686 0.026291719 -0.071316749
0.23183009 0.054402359 -0.07574673
0.22467048 0.1154288 -0.077459522
0.26130989 0.13054217 -0.070277058
0.24828365 0.15677138 -0.071111485
0.025498837 0.33621901 -0.078976527
0.11387902 0.33621901 -0.072345242
-0.25272578 -0.30517197 -0.064085945
0.22775181 -0.27805796 -0.060913943
0.24810719 -0.1921249 -0.066062145
0.079352342 -0.13262406 -0.065309107
0.15045436 -0.12950701 -0.068031326
0.25078359 -0.089857839 -0.06158698
-0.25282979 -0.079463691 -0.061106894
-0.13407281 0.059970342 -0.065451935
0.2607173 0.097612262 -0.068042472
0.19686481 0.12573706 -0.06007085
0.26128253 0.12316759 -0.069493443
0.24810228 0.13908881 -0.065918058
-0.25271049 0.18322352 -0.064523526
-0.07309261 0.22632664 -0.067157887
0.11009721 0.22367418 -0.065535501
0.12893988 0.2242239 -0.063888066
-0.25253952 0.29376465 -0.069418602
-0.072179519 0.33621901 -0.06997405
0.21850151 0.33621901 -0.060913779
-0.25298679 -0.29584455 -0.056610409
0.05685601 -0.14101873 -0.050020851
0.24762473 -0.14503735 -0.052246232
-0.085660435 -0.139961 -0.058705688
0.20853689 -0.10595632 -0.056210577
0.26072422 -0.069974057 -0.053511575
-0.13447982 0.088863254 -0.053810306
0.21479623 0.16510773 -0.055850778
-0.13457504 0.18916422 -0.051072992
-0.13454412 0.22063041 -0.05195694
0.070111737 0.22985214 -0.055811729
0.14311565 0.22650027 -0.059295714
-0.066107526 0.23400712 -0.053089518
0.039379537 0.23245591 -0.052198194
0.15013552 0.23124801 -0.050504968
0.24786989 0.28579548 -0.059250105
-0.04049854 0.33621901 -0.055040877
0.0074593127 0.33621901 -0.059162244
0.059175141 0.33621901 -0.055273607
0.11209902 0.33621901 -0.05632529
0.13680221 0.33621901 -0.056314692
0.18106854 0.33621901 -0.05429494
-0.25336424 -0.18643707 -0.045802236
0.19623804 -0.074930221 -0.042120799
-0.25336307 -0.0075428598 -0.045835849
-0.25352955 0.022571683 -0.04106766
-0.13486847 0.13737044 -0.042660307
-0.2534253 0.15470195 -0.04405348
-0.25343233 0.28865117 -0.043851804
-0.18395984 0.33621901 -0.041011155
0.13287096 -0.14342588 -0.038927849
0.19612269 -0.076749608 -0.038818903
0.24344577 -0.061835781 -0.039846674
0.25992036 -0.067856148 -0.030470127
-0.25383392 -0.014719814 -0.032351889
0.19586852 0.025221216 -0.031557381
-0.25368956 0.087927729 -0.036485642
-0.25386077 0.15628755 -0.031583421
-0.25375324 0.20793402 -0.034661997
0.20029686 0.2150135 -0.035239637
-0.054365728 0.23981565 -0.030623792
0.061147541 0.23707543 -0.037530899
-0.2536487 0.24474151 -0.037655812
-0.18935157 0.33621901 -0.039208483
0.032723203 0.33621901 -0.033294752
0.10342781 0.33621901 -0.039047066
-0.25417486 -0.28854078 -0.02258813
0.040324979 -0.14944661 -0.021053253
0.077626854 -0.14825583 -0.02392504
0.19576275 -0.11197612 -0.028525393
0.19554663 -0.099108785 -0.022335503
-0.25395066 -0.085022241 -0.029008716
0.24146102 -0.068820551 -0.024172682
0.22995299 0.013952639 -0.021999419
0.19553785 0.10436475 -0.022071984
0.19574581 0.18975207 -0.028036721
0.24660188 0.20234111 -0.022953935
-0.01675738 0.24166721 -0.021917995
-0.25420249 0.31596342 -0.021796957
-0.16730802 0.33621901 -0.026102133
-0.11224079 0.33621901 -0.021459032
-0.2543003 -0.28230882 -0.01899606
0.24634787 -0.22856556 -0.015682086
0.036947414 -0.15199715 -0.012229981
0.19512914 -0.07672146 -0.010369193
-0.25437242 0.052964106 -0.01693147
-0.25448245 0.067987353 -0.013780467
0.25927502 0.16421132 -0.012020221
0.19531819 0.17828509 -0.015787499
0.20173201 0.21379805 -0.014850388
-0.25432044 0.23652574 -0.01842007
-0.13572568 0.23610547 -0.018124918
0.098552026 0.24182184 -0.017273843
-0.00082026748 0.33621901 -0.012199761
0.05042804 0.33621901 -0.018567368
0.11694667 0.33621901 -0.019989807
0.2258127 -0.29068351 -0.0053843409
0.24081597 -0.27288711 -0.0017625615
-0.25487784 -0.26077873 -0.0024565514
0.24594313 -0.24988264 -0.004091695
0.24600583 -0.20211102 -0.0058860928
0.1294654 -0.154035 -0.0018555961
0.19533892 -0.15335624 -0.0077224206
-0.13605076 -0.090496778 -0.0088107232
0.19478449 -0.096502401 -0.00051064789
0.19509177 0.022932339 -0.0093116984
0.22939534 0.028237052 -0.006021745
-0.25479314 0.073330835 -0.0048832558
0.19487891 0.16727743 -0.0032023117
0.24614342 0.16261876 -0.0098182801
0.21178015 0.1881696 -0.0059759719
0.03253869 0.24610187 -0.0024901389
0.24605556 0.29962727 -0.0073176292
0.24587122 0.30847561 -0.0020220838
-0.24886474 0.33621901 -3.5248697e-05
0.24704713 0.33319885 -0.0017023459
-0.2552 -0.33542192 0.0067679659
-0.25503746 -0.24942565 0.0021134838
0.24576163 -0.10794275 0.0011060806
-0.2552036 -0.051681399 0.0068715811
0.19464675 0.0054928311 0.0034426674
-0.25509366 0.092077307 0.0037228316
0.1944622 0.095308505 0.0087311622
0.061393436 0.24738498 0.0037075719
0.074803725 0.33621901 0.0090249628
-0.008775752 -0.15475431 0.015266698
0.050602559 -0.15468301 0.012945735
0.1719237 -0.15466093 0.015825372
0.19417629 -0.099983722 0.016902806
0.19439945 -0.035101511 0.010535695
-0.13686876 -0.020779483 0.014620114
0.19412513 -0.018983603 0.018389434
-0.25541818 0.00095067639 0.013015835
-0.25541532 0.035643846 0.012934238
0.22860715 0.039627612 0.016548511
-0.13671748 0.10031812 0.010267667
-0.25553307 0.13901743 0.016306322
-0.13674073 0.19719994 0.010936845
-0.012491893 0.2471559 0.015258925
0.10694326 0.24719797 0.016835317
-0.2555843 0.32624462 0.017773174
-0.18022014 0.33621901 0.017269276
0.13518973 0.33621901 0.019478232
-0.25587431 -0.089703381 0.026077881
0.19372571 -0.056297198 0.029830277
0.22846675 0.057743862 0.020574685
0.21402714 0.18208119 0.027889721
0.14175448 0.24710491 0.023791956
-0.25624114 -0.25278544 0.036583118
0.21124676 -0.10762906 0.031801585
-0.25626224 0.1599583 0.037187207
0.25777698 0.1643202 0.030881524
-0.25612941 0.25391001 0.033383518
-0.2562061 0.28867716 0.035579659
-0.25609547 0.32349867 0.032411136
-0.020229995 0.33621901 0.030412786
0.17519161 0.33621901 0.036232084
-0.1043203 -0.15388173 0.049839627
-0.027600542 -0.15525842 0.045674793
-0.2566542 -0.084350139 0.048412114
0.25714773 -0.069481522 0.04170315
-0.1379711 -0.01835677 0.046185508
0.22773531 -0.0093286037 0.041507557
-0.13778085 0.073990226 0.040730126
0.19317871 0.077061802 0.045475356
-0.13801713 0.16267307 0.047507692
0.24428965 0.18163905 0.043265231
-0.034120239 0.24667925 0.043908965
0.14653844 0.24675982 0.04524757
-0.25640324 0.27343336 0.041225381
0.014390215 0.33621901 0.040490799
0.24337578 -0.27334478 0.050534576
0.2437664 -0.18199855 0.058244321
-0.10965271 -0.15273677 0.054224521
0.10197701 -0.1543999 0.054974951
-0.2570076 -0.055148661 0.058532484
-0.25678289 -0.018548131 0.05209687
-0.25673553 0.16291729 0.0507407
-0.13845146 0.21703678 0.05993174
-0.090079993 0.24623363 0.052317865
-0.2573176 -0.27984411 0.06740997
0.085028738 -0.15107554 0.067655131
0.24352494 -0.12871408 0.065160215
0.19233295 -0.11365165 0.069693267
0.25578511 -0.0576327 0.066639312
-0.25712898 -0.040325049 0.062008347
-0.13855785 -0.033850882 0.062996283
-0.25738242 0.018824488 0.06926553
-0.25714734 0.046248652 0.062534206
-0.13869858 0.07160531 0.067013577
0.24752316 0.11859072 0.06187591
0.25035584 0.116945 0.064746864
-0.13866422 0.12563583 0.066023692
-0.25729966 0.15660268 0.066896535
0.20892093 0.18483426 0.068773203
0.20444529 0.20076233 0.060119133
-0.25729361 0.26627824 0.066722669
0.24357954 0.28529641 0.063601464
0.24461916 0.31978643 0.067818344
0.24327537 -0.27272111 0.072302811
-0.056299962 -0.14735159 0.077587277
0.019148044 -0.14843747 0.075886771
0.24316449 -0.12270837 0.075482361
0.24305356 -0.10638802 0.078659907
0.21060736 -0.096914791 0.074864149
0.19229154 -0.051943526 0.070900165
-0.25764292 -0.0092805326 0.076726213
-0.13897961 0.02900748 0.075059883
-0.13881089 0.048689622 0.070238821
0.19201307 0.093650289 0.078865707
-0.13893202 0.12355253 0.073690824
0.2561889 0.12348373 0.076376349
0.21374187 0.1621958 0.078059107
0.24328066 0.17185667 0.07215701
0.16212884 0.24318643 0.071806699
-0.17372629 0.33621901 0.079733282
-0.041236781 0.33621901 0.078363568
0.10389788 0.33621901 0.078556113
0.16704716 0.33621901 0.073635489
0.23938277 0.33621901 0.074719481
0.22251621 -0.33238298 0.089016356
-0.25793329 -0.15870136 0.085041732
0.19186239 -0.12623346 0.083168902
-0.1393436 -0.044868778 0.085491769
-0.13940501 -0.03578458 0.087254867
0.22608468 -0.0031521572 0.088774249
-0.25807184 0.071665347 0.089008398
-0.25808313 0.18540639 0.08933267
-0.10615815 0.23621017 0.086892739
-0.22046933 0.33621901 0.081504323
-0.21410649 0.33621901 0.080779493
0.051339384 0.33621901 0.080457203
0.13209134 0.33621901 0.087623276
0.22232914 -0.32234854 0.094373077
0.23150235 -0.27372819 0.093857624
-0.041791547 -0.14317733 0.094759025
-0.026936151 -0.14437093 0.090512522
-0.13818133 -0.13540457 0.097489342
0.23218492 -0.029669456 0.09453816
-0.25811768 0.022283111 0.090320632
0.1913482 0.10293046 0.097907305
-0.25829715 0.12511232 0.095460519
-0.13967979 0.16942587 0.095119342
0.19134068 0.16559911 0.098119266
-0.25837559 0.19133806 0.097706847
-0.25818712 0.31562883 0.0923094
-0.19463012 0.33621901 0.092718139
-0.075225107 0.33621901 0.096159674
0.010411106 0.33621901 0.098393977
0.036909565 0.33621901 0.096618608
0.22194001 -0.27548563 0.10551662
0.24224907 -0.267735 0.10169315
0.19094005 0.11344005 0.10959583
-0.13998638 0.16590621 0.10389986
0.01352758 0.22954825 0.10991345
-0.076324634 0.23063238 0.10496561
-0.01239872 0.23267686 0.10255226
0.13434942 0.23482884 0.1001329
0.16290936 0.23420081 0.10333166
0.24204756 0.30192572 0.10746333
0.2418381 -0.17564034 0.1134643
-0.0017721951 -0.13432816 0.11375201
0.18716531 -0.13625613 0.11687937
-0.14052649 0.0067159254 0.11934686
-0.25895333 0.014030993 0.11425159
-0.2589958 0.061361283 0.11546795
0.25466675 0.082745999 0.11995213
-0.25908238 0.11086234 0.1179473
-0.14046314 0.22167298 0.11754012
-0.087429419 0.22308919 0.11717461
-0.0088361558 0.22588551 0.11524917
0.12607212 0.2297675 0.11347711
-0.2592279 -0.32157832 0.12211414
0.24147139 -0.23418486 0.12396435
-0.074022442 -0.12595084 0.12630822
0.24146065 -0.12212759 0.12427633
0.19047704 -0.11973213 0.12284233
-0.25943497 -0.1082079 0.12804469
0.24140264 -0.042758882 0.12594795
0.19026005 0.0027188596 0.1290686
0.25449583 0.0078399638 0.12485355
-0.25919092 0.05340293 0.1210559
0.25445375 0.051251989 0.1260675
0.19051895 0.087340683 0.12164614
0.19042285 0.097427979 0.12440497
0.24129385 0.12877198 0.12904598
-0.14079882 0.15332243 0.12716152
-0.094381616 0.21554999 0.12952198
-0.06901826 0.22071651 0.12177975
-0.11971529 -0.12244566 0.13102199
-0.066590995 -0.12013117 0.13704321
0.25424463 -0.010697464 0.13203624
-0.14106306 0.021474617 0.13471362
-0.14109185 0.099422172 0.13553819
-0.14123333 0.18113883 0.13959542
-0.12483606 0.21066085 0.13662317
-0.039745051 0.21440198 0.13334687
0.18384239 0.21734351 0.13624226
-0.2595163 0.2224621 0.13037324
-0.25969681 0.28241462 0.13554187
-0.19006531 0.33621901 0.13076583
-0.041475933 0.33621901 0.13959837
0.18778148 0.33621901 0.13520782
0.070689186 -0.11929139 0.14334872
0.19339536 -0.10024526 0.14547223
0.24083236 0.0092800595 0.14227916
0.18966711 0.01357333 0.14604284
0.249457 0.058940567 0.14711918
-0.14140952 0.067873165 0.14465024
0.2539368 0.06514176 0.14086094
-0.25994354 0.18215656 0.14260836
0.0065103397 0.20904747 0.14390403
-0.25989115 0.21919216 0.14110829
-0.26015553 0.23014033 0.14867903
0.24056068 0.30812901 0.149535
-0.059197437 0.33621901 0.14729388
-0.013536483 0.33621901 0.14531861
-0.2602042 -0.23739117 0.15007305
0.24054143 -0.23825157 0.15059507
0.02133644 -0.11113827 0.15202926
-0.097248271 -0.1071948 0.15196422
-0.0096470118 -0.10350583 0.15883623
0.24041441 -0.021776423 0.15424432
-0.26036674 0.00086411089 0.15472713
0.24041349 0.0050382204 0.1542708
-0.26048493 0.034868725 0.15811172
-0.26028654 0.060405642 0.15243071
0.24047729 0.10833402 0.15244402
0.18924291 0.11513892 0.15819703
0.19821785 0.14424981 0.15774417
-0.10241584 0.19401419 0.15763095
0.05779868 0.20540844 0.15177219
0.24053149 0.31079456 0.15087587
-0.007735081 0.33621901 0.15016629
0.0094241053 0.33621901 0.15202759
0.13366492 -0.1010106 0.16641986
0.17373234 -0.10225534 0.16653246
0.077227712 -0.096491188 0.16912034
0.23990496 -0.092641294 0.16883136
0.2400744 -0.099308223 0.16398011
0.18901418 -0.056580141 0.16474548
0.188899 -0.0013793877 0.16804692
-0.260629 0.0034300387 0.1622372
-0.14207594 0.011090511 0.16371405
0.24020717 0.020160008 0.16017836
0.18896428 0.066745065 0.16615063
0.20573886 0.085002244 0.16756861
0.18885611 0.11665878 0.16927396
-0.26055804 0.12623134 0.16020538
-0.13736024 0.18652511 0.16366467
-0.0020499362 0.18855438 0.16642423
0.16561007 0.19445518 0.16656339
0.23998085 0.25969872 0.16665444
0.24007729 0.25249949 0.16389315
-0.065486841 0.33621901 0.16446994
0.029386699 0.33621901 0.16686684
0.1887871 0.33621901 0.16546617
-0.26114795 -0.2674461 0.1770982
0.23985004 -0.226915 0.17039439
0.23981726 -0.1606874 0.17133741
0.1806132 -0.09621565 0.1730154
0.18859506 -0.058614641 0.1767453
-0.14258645 -0.043548774 0.17836073
-0.26103568 -0.033966102 0.17388341
0.23962614 0.0029293485 0.17681462
0.23969503 0.078552768 0.17484085
0.20047 0.091420859 0.17964916
0.23973919 0.093006782 0.17357214
0.23982792 0.1657034 0.17102103
0.015947565 0.18255156 0.17286712
0.022495091 0.18200818 0.17362207
0.049624469 0.18671098 0.17001426
0.025950648 0.33621901 0.17792104
0.22937194 -0.27450195 0.18204938
-0.26158246 -0.26836979 0.18954153
0.2392808 -0.21379799 0.18669577
-0.26127487 -0.20342064 0.18073337
-0.26153156 -0.18400568 0.18808374
0.23919617 -0.11192989 0.1891266
0.1881887 -0.079387538 0.18836191
-0.11843784 -0.064319439 0.18877196
-0.26145628 0.021496207 0.18592846
-0.088861972 0.15956344 0.18848927
-0.057978719 0.15923642 0.18974963
-0.08146695 0.16359137 0.18650688
-0.26179996 -0.32128823 0.19576964
-0.026540853 -0.06083028 0.19407329
0.0057629365 -0.06440872 0.19305588
0.043565363 -0.066404715 0.19317922
0.09562894 -0.065923966 0.19528556
-0.13117597 -0.054140963 0.19442964
-0.072603032 -0.058466934 0.19388157
-0.00066161156 -0.05852133 0.19636142
-0.14278349 -0.04470107 0.19968398
-0.26176107 0.059937738 0.1946564
0.19591981 0.08360219 0.19276845
0.18802524 0.091274396 0.19305672
-0.073709399 0.14463422 0.19732276
-0.026345974 0.14864953 0.19674335
0.18798614 0.16452351 0.19415899
0.2388245 0.18961258 0.19976145
-0.050570093 0.33621901 0.19550568
0.03892801 0.33621901 0.19473806
0.16495825 0.33621901 0.19518729
0.23812412 0.33621901 0.19448017
0.2186285 -0.3160243 0.20034806
-0.26206505 -0.22887012 0.20336196
-0.26202381 -0.10753694 0.20217973
0.15885021 -0.052510008 0.20553595
0.0045362283 -0.042960074 0.20587273
0.11972151 -0.046443991 0.20780659
0.1877085 -0.014791407 0.20214029
0.23865882 0.018379241 0.20451289
0.18759948 0.078647479 0.20524058
0.18747528 0.10501211 0.20881486
-0.14324461 0.12933056 0.20340693
-0.051641971 0.13964413 0.20086914
0.083627149 0.14542499 0.20237744
0.18386686 0.14064769 0.20853531
0.23851827 0.17226717 0.20853953
-0.26198334 0.29016209 0.20102122
0.060738683 0.33621901 0.20299727
0.1472156 0.33621901 0.20374255
-0.26246825 -0.3352949 0.21490775
0.21829109 -0.3272453 0.21001007
0.23816374 -0.17639777 0.21868822
0.12433486 -0.041282803 0.21106216
0.06602338 -0.016612679 0.21819136
0.23834518 0.017627597 0.21349342
0.18714976 0.034612898 0.21811844
-0.12668163 0.089970924 0.21653508
-0.077020422 0.086864151 0.2190484
0.055188946 0.10921729 0.21805984
-0.053591412 0.11513932 0.21277583
0.095637068 0.11592849 0.21778953
0.12775321 0.12765157 0.21380506
0.14634609 0.12759006 0.21448858
-0.26260757 0.19781142 0.21889803
0.040792838 0.33621901 0.2178849
-0.2628895 -0.23700488 0.22697093
-0.26295966 -0.079687357 0.22898024
-0.26297325 -0.04944095 0.22936931
0.045575488 0.0019814877 0.22278793
0.10070296 0.016312802 0.22880639
0.23793444 0.023022033 0.22525379
-0.057376873 0.061293751 0.22402465
0.048927404 0.068246946 0.22784977
0.16972193 0.078295916 0.22981367
-0.042416699 0.08028961 0.22190556
-0.26267475 0.11406085 0.22082123
0.23783973 0.16068991 0.22796604
-0.2628257 0.1782731 0.22514386
-0.26280406 0.22767413 0.2245248
-0.26271629 0.2429387 0.2220107
-0.15564494 0.33621901 0.22818898
0.22893403 -0.27494919 0.23305115
0.18262422 0.051881824 0.23225278
0.23742032 0.074353017 0.2399749
0.23757005 0.27464914 0.23568164
0.22657093 0.29413822 0.23315957
-0.027019016 0.33621901 0.23341441
0.13521077 0.33621904 0.23213701
-0.23552385 -0.32687774 0.24339446
-0.20961176 -0.32409123 0.24429934
-0.088338614 -0.32606727 0.24853426
-0.10167132 -0.30988961 0.24806866
-0.23643632 -0.29448041 0.24336262
-0.065604784 -0.29011393 0.24932815
-0.10869836 -0.28952852 0.24782331
-0.21020865 -0.24898581 0.24427849
-0.11473455 -0.24995068 0.24761251
0.23735607 -0.23536918 0.24181482
-0.12825115 -0.20117684 0.2471405
-0.17836395 -0.18403535 0.24539053
-0.15049186 -0.17214206 0.24636383
-0.2012495 -0.16259974 0.24459136
-0.12785719 -0.16645801 0.24715427
-0.07757169 -0.16107062 0.24891025
-0.048249103 -0.14973754 0.24993423
-0.20664583 -0.13053642 0.24440289
-0.178798 -0.12604618 0.24537537
-0.11751315 -0.12852736 0.24751548
-0.24690416 -0.11673036 0.24299705
-0.2372627 -0.1121869 0.24333376
-0.23750238 -0.096646458 0.24332538
-0.20121855 -0.094947673 0.24459243
-0.10012191 -0.065246269 0.24812278
-0.12983271 -0.04923312 0.24708526
-0.17394321 -0.037607193 0.24554491
-0.25915933 -0.013862178 0.24256909
-0.11528953 -0.0071441233 0.24759312
-0.058122016 0.0054896642 0.24958944
-0.22204229 0.019634619 0.24386525
-0.12313847 0.011194512 0.24731903
-0.22516467 0.032002136 0.2437562
-0.1078634 0.044361576 0.24785244
-0.088442914 0.042954933 0.24853063
-0.146966 0.053393483 0.24648696
-0.064372785 0.050214566 0.24937116
-0.11868254 0.073152363 0.24747464
-0.17880799 0.082138203 0.24537501
-0.1695129 0.082954578 0.24569961
-0.088250019 0.11296269 0.24853738
-0.15799944 0.1219407 0.24610166
-0.14226121 0.12398236 0.24665126
-0.099483967 0.12778741 0.24814507
-0.051550545 0.12383676 0.24981877
-0.090067752 0.15362251 0.24847379
-0.10855886 0.17835526 0.24782807
0.23712271 0.17158271 0.24849583
-0.055501185 0.18147367 0.24968068
-0.26337957 0.19416851 0.24100526
-0.057342734 0.19460803 0.24961632
-0.11536673 0.2082648 0.24759027
-0.23939702 0.21196544 0.24325921
-0.13670433 0.22693694 0.24684516
-0.14871468 0.24487454 0.24642575
-0.10167128 0.24895573 0.24806836
-0.23044361 0.26719978 0.24357188
-0.16878155 0.27975592 0.24572496
-0.23121679 0.28181547 0.24354488
-0.07758344 0.28869447 0.24890932
-0.067157812 0.31072396 0.24927332
-0.21307243 0.33621901 0.2428768
-0.15089978 0.33137551 0.24634922
-0.10086139 0.33323389 0.24809651
0.05025515 0.33621901 0.24769764
0.06403584 -0.33560213 0.25385529
0.082320854 -0.32619172 0.2544938
0.20778975 -0.31355312 0.25887525
0.0079543199 -0.30005604 0.25189689
0.10398719 -0.30720693 0.25525039
0.1549651 -0.30652723 0.25703061
0.12966785 -0.27266371 0.25614721
0.11299405 -0.25842392 0.25556493
0.23096138 -0.24395463 0.25968322
0.12162878 -0.23923455 0.25586647
0.049161479 -0.22374237 0.25333583
0.16892834 -0.22771502 0.25751817
0.1867588 -0.22723085 0.2581408
0.0057756901 -0.21117425 0.2518208
0.13594842 -0.2022467 0.25636652
0.14190988 -0.19126375 0.25657469
0.23461327 -0.1999103 0.25981045
0.018628318 -0.16147034 0.25226963
0.038085848 -0.16452453 0.25294909
0.10255045 -0.15616083 0.25520024
0.070676148 -0.14352915 0.25408715
0.092117615 -0.14236 0.2548359
0.18924828 -0.14214446 0.2582275
-0.033983815 -0.12851435 0.25043237
-0.018612582 -0.12162133 0.25096917
0.12296045 -0.12852976 0.2559129
0.1248796 -0.11629646 0.25597987
0.23625082 -0.11368059 0.25986746
0.049079098 -0.098874621 0.25333297
0.14176433 -0.099057488 0.25656939
0.15801048 -0.075557604 0.25713661
0.077851444 -0.050493129 0.25433761
0.12830305 -0.053862803 0.25609925
-0.032161444 -0.044173688 0.25049603
0.077013709 -0.038764834 0.25430831
0.040384799 -0.013345979 0.25302926
0.033721261 -0.0046510845 0.25279656
0.074330583 -0.0069504268 0.25421453
0.15294814 0.0062523484 0.25695962
0.0082280412 0.013445832 0.25190639
0.09816248 0.014126353 0.25504664
0.15483947 0.010380317 0.25702563
-0.035470299 0.026574284 0.25038046
0.046261944 0.029837072 0.25323436
0.20613922 0.02108633 0.25881687
0.21431732 0.023161208 0.2591024
0.08432053 0.03564357 0.25456324
0.098411135 0.046974719 0.25505519
0.15600468 0.064752936 0.25706616
0.020672917 0.076918334 0.25234073
0.016577192 0.091661394 0.25219768
0.1118612 0.1020781 0.25552469
0.14035712 0.10508635 0.25651968
0.10694107 0.12266393 0.25535285
0.23698412 0.1222124 0.25246435
0.18804905 0.13432635 0.25818485
0.1909871 0.14545493 0.25828743
0.12206228 0.15305406 0.25588077
-0.016527317 0.16569369 0.25104156
0.011118855 0.17961806 0.25200686
0.090612516 0.17536049 0.25478256
0.087578639 0.1809977 0.25467661
0.08398886 0.20046696 0.25455123
0.17917967 0.21601819 0.25787497
-0.023844112 0.22662476 0.25078592
0.18749037 0.22302572 0.25816512
-0.025557503 0.23272485 0.25072607
0.19465975 0.2334938 0.25841543
0.20391952 0.25119537 0.2587387
0.23688138 0.25676695 0.25540498
0.22617294 0.26028559 0.2595157
0.010988027 0.28587431 0.252002
0.11988531 0.28872392 0.25580439
0.17210609 0.28519756 0.25762779
0.083027601 0.30085427 0.25451738
-0.042276137 0.31356293 0.2501421
0.032135144 0.31165636 0.25274032
0.046001345 0.31381184 0.25322449
-0.03721109 0.32877901 0.25031894
0.23672909 0.32864618 0.25988448
