# .PCD v0.7 - Point Cloud Data file format
VERSION 0.7
FIELDS x y z
SIZE 4 4 4
TYPE F F F
COUNT 1 1 1
WIDTH 966
HEIGHT 1
VIEWPOINT 0 0 0 1 0 0 0
POINTS 966
DATA ascii
-0.17731008 -0.22306404 -0.26706699
0.11314138 -0.22285235 -0.26706699
0.12139326 -0.22441301 -0.26025474
0.25457844 -0.22141355 -0.26706699
-0.22348686 -0.2127869 -0.26706699
-0.15715833 -0.21369869 -0.26706699
0.064565226 -0.21360913 -0.26706699
0.21452588 -0.21758032 -0.26706699
0.28649101 -0.21204033 -0.26706702
-0.12937203 -0.20001303 -0.26706699
0.01415468 -0.20400962 -0.26706699
-0.2578854 -0.19754714 -0.26706699
-0.15992276 -0.19033341 -0.26706699
0.053228974 -0.19389161 -0.26706699
-0.15530348 -0.18063176 -0.26706699
0.15602595 -0.18663768 -0.26706699
0.068977185 -0.17909192 -0.26706699
0.10972574 -0.17710724 -0.26706699
0.22834367 -0.17099532 -0.26706699
-0.12113947 -0.16478376 -0.26706699
-0.062830344 -0.16411898 -0.26706699
0.17291427 -0.16864957 -0.26706699
0.25648528 -0.16108465 -0.26706699
-0.26664296 -0.15661566 -0.26706699
-0.18683614 -0.15330911 -0.26706699
0.25080666 -0.15080705 -0.26706699
0.27802587 -0.14076439 -0.26706699
-0.096597165 -0.13885477 -0.26706699
-0.079560809 -0.13058206 -0.26706699
-0.010392363 -0.13526845 -0.26706699
0.1918487 -0.13017635 -0.26706702
-0.26299042 -0.12270895 -0.26706699
-0.13028046 -0.12312874 -0.26706699
-0.010838732 -0.12767759 -0.26706699
0.10739108 -0.12287656 -0.26706699
-0.18277432 -0.11720948 -0.26706699
-0.015919432 -0.1174193 -0.26706699
-0.0089930072 -0.1193922 -0.26706699
-0.22354814 -0.1047069 -0.26706699
0.22284907 -0.10267338 -0.26706699
-0.13539039 -0.096319944 -0.26706699
0.25853688 -0.090502501 -0.26706699
0.26206797 -0.093924358 -0.26706699
-0.11538061 -0.081036195 -0.26706699
0.038617164 -0.087898128 -0.26706699
0.23864825 -0.080985516 -0.26706699
0.25525835 -0.086859807 -0.26706699
0.28564051 -0.087139398 -0.26706699
-0.24112427 -0.078175351 -0.26706699
-0.048664719 -0.073392078 -0.26706699
-0.020762466 -0.065839522 -0.26706699
-0.26328951 -0.050015621 -0.26706699
0.16093285 -0.050050147 -0.26706699
0.28900695 -0.056532949 -0.26706699
-0.0075039705 -0.044827513 -0.26706699
0.14855385 -0.047107037 -0.26706699
-0.21898529 -0.034930095 -0.26706699
-0.16613509 -0.020209957 -0.26706699
0.022426181 -0.02442015 -0.26706699
0.0013920143 -0.017719544 -0.26706699
0.27809072 -0.010415235 -0.26706699
-0.11097772 -0.0070585497 -0.26706699
-0.052352622 -0.0047820956 -0.26706699
0.017222114 0.0060173571 -0.26706699
0.022507198 0.0076495036 -0.26706699
0.072486401 0.0085183457 -0.26706699
0.23175 0.0069465674 -0.26706699
-0.12709379 0.013685904 -0.26706699
-0.03018517 0.015291892 -0.26706699
0.15895814 0.01243791 -0.26706699
-0.26216209 0.02975034 -0.26706699
-0.23272726 0.024820298 -0.26706699
-0.17226094 0.025328685 -0.26706699
-0.15775594 0.020173417 -0.26706699
-0.14471862 0.023125388 -0.26706699
-0.11415435 0.028057927 -0.26706699
0.0038499162 0.029245332 -0.26706699
0.065296873 0.022030458 -0.26706699
0.077051036 0.027907327 -0.26706699
0.22141188 0.029578511 -0.26706699
-0.11019937 0.030973881 -0.26706699
-0.046578564 0.030532081 -0.26706699
0.10722816 0.044829376 -0.26706699
0.29012299 0.044267982 -0.26118153
-0.025272328 0.055123366 -0.26706699
-0.14288923 0.060638413 -0.26706699
-0.051504247 0.066659391 -0.26706699
-0.0021997988 0.069574237 -0.26706699
0.0018232092 0.065885708 -0.26706699
0.11629997 0.067662917 -0.26706699
0.14726537 0.064694226 -0.26706699
0.22715969 0.069892198 -0.26706699
-0.22998101 0.07093183 -0.26706696
-0.18387407 0.07241296 -0.26706699
0.25251099 0.083975248 -0.26706699
0.27889723 0.083823659 -0.26706699
-0.29012299 0.093296714 -0.26126403
-0.26658958 0.097438045 -0.26706699
-0.19091974 0.091542669 -0.26706699
0.093225822 0.092592001 -0.26706699
0.12941392 0.10715427 -0.26706699
0.27730116 0.10286793 -0.26706699
-0.2388708 0.11989106 -0.26706699
-0.14116506 0.11269766 -0.26706699
0.17496209 0.11126184 -0.26706699
0.21414562 0.11285812 -0.26706699
0.031031117 0.12478858 -0.26706699
0.18734911 0.12366913 -0.26706699
0.23560032 0.12393066 -0.26706696
0.25573683 0.12888874 -0.26706699
-0.27884203 0.13948923 -0.26706699
-0.15115653 0.13930632 -0.26706699
0.013151318 0.14918956 -0.26706699
-0.25700021 0.15636244 -0.26706699
0.14132397 0.15201971 -0.26706699
-0.23333287 0.16727032 -0.26706699
0.094761133 0.16799632 -0.26706699
-0.022195131 0.17697605 -0.26706699
0.023406789 0.17982671 -0.26706699
0.040070333 0.1725817 -0.26706699
-0.29012299 0.18823269 -0.26618382
-0.27487421 0.18503907 -0.26706699
-0.10109085 0.18931708 -0.26706699
-0.28187671 0.1930607 -0.26706699
0.21156041 0.19844812 -0.26706699
-0.26577711 0.21937096 -0.26706699
0.27899209 0.21313733 -0.26706699
0.081721246 0.22805604 -0.26706699
0.19946358 0.22400032 -0.26706699
0.24070473 0.22296563 -0.26706699
-0.22466534 0.23225179 -0.26706699
-0.17657299 0.23913832 -0.26706699
-0.16753086 0.23075961 -0.26706699
0.013318583 0.23414308 -0.26706699
0.14823717 0.23209834 -0.26706699
-0.027392454 0.24732889 -0.26706699
0.19236399 0.24098843 -0.26706699
0.2457474 0.24205555 -0.26706699
0.092496879 0.25941718 -0.26706699
0.1164814 0.25691295 -0.26706699
0.12960966 0.25939044 -0.26706699
0.17541526 0.25673193 -0.26706699
-0.26238471 0.26666388 -0.26706699
0.017401099 0.26303327 -0.26706699
-0.24016657 0.27562252 -0.26706699
0.08906813 0.27941874 -0.26706699
0.24069777 0.2709884 -0.26706699
0.28450939 0.28350952 -0.26706699
-0.10472835 0.30093828 -0.26706699
-0.055722371 0.30492282 -0.26706699
0.074381791 0.30741501 -0.26651168
0.23833252 0.30577031 -0.26706699
-0.27721637 -0.22441299 -0.25597957
0.093109109 -0.22441301 -0.25671494
0.18076861 -0.22441299 -0.25030977
0.21251261 -0.22441299 -0.25280809
0.23892236 -0.22441299 -0.25077561
-0.29012299 -0.077426769 -0.25489417
0.29012299 -0.032458343 -0.2580204
0.29012299 0.016287677 -0.25661263
-0.01362697 0.30741501 -0.25044417
0.072634146 0.30741501 -0.25931907
-0.14319173 -0.22441298 -0.24672897
0.20496568 -0.22441301 -0.24021998
0.21428137 -0.22441298 -0.24401678
0.25065255 -0.22441301 -0.24014246
0.26682639 -0.22441298 -0.24122782
0.29012299 -0.1788661 -0.24742161
-0.29012299 -0.1475753 -0.24645543
-0.29012299 -0.13931346 -0.24904367
0.29012299 -0.031550009 -0.24669738
0.29012299 0.038453758 -0.2452829
0.29012299 0.060419913 -0.24412671
-0.29012299 0.077608265 -0.24775578
-0.29012299 0.16118829 -0.2485708
0.099775046 0.30741501 -0.24338263
0.19146651 0.30741501 -0.24668822
0.20491722 0.30741501 -0.24254227
-0.24882822 -0.22441301 -0.23856844
-0.17077287 -0.22441299 -0.23007798
-0.051028814 -0.22441299 -0.23556158
0.13038251 -0.22441298 -0.23160106
0.24725468 -0.22441301 -0.23982017
-0.29012299 -0.13116735 -0.23536505
-0.29012299 -0.0025044382 -0.23562376
-0.29012299 0.082881585 -0.23685227
-0.29012299 0.16448641 -0.23295955
0.29012299 0.18027705 -0.23594423
-0.26436538 0.30741501 -0.23771146
-0.25118366 0.30741501 -0.23048818
0.11609574 0.30741501 -0.23704337
0.13501517 0.30741501 -0.23710313
0.1785289 0.30741501 -0.23992901
0.24338269 0.30741501 -0.23724735
-0.26218501 -0.22441299 -0.22561729
-0.046314575 -0.22441298 -0.22340381
0.18371451 -0.22441299 -0.22026004
0.25557679 -0.22441299 -0.22620246
-0.29012299 -0.12579024 -0.22999229
-0.29012299 -0.041671388 -0.22752669
-0.29012299 -0.013719149 -0.22070873
-0.29012299 0.27272812 -0.22322921
-0.099864736 0.30741501 -0.22229591
0.02253443 0.30741501 -0.2278142
0.13740289 0.30741501 -0.22996552
0.27487099 0.30741501 -0.22565414
-0.27816916 -0.22441301 -0.21232669
-0.25363997 -0.22441299 -0.21203171
0.10317595 -0.22441299 -0.21531878
0.25711447 -0.22441299 -0.21440315
-0.29012299 -0.18955241 -0.21470694
0.29012299 -0.15267056 -0.21230973
-0.29012299 -0.079544559 -0.21064705
-0.29012299 -0.055726565 -0.21913834
0.29012299 0.004069984 -0.21034786
-0.29012299 0.073540427 -0.21519585
-0.29012299 0.11617105 -0.21346885
0.29012299 0.17861053 -0.21231255
-0.11861079 0.30741501 -0.21498604
-0.018813521 0.30741501 -0.21602884
0.063827448 0.30741501 -0.2188385
-0.27687183 -0.22441299 -0.20794961
0.18771283 -0.22441298 -0.20682585
-0.29012299 -0.17367582 -0.20689391
-0.29012299 -0.10837276 -0.20683917
-0.29012299 -0.085572749 -0.20629814
-0.29012299 -0.024653144 -0.20251621
-0.29012299 0.14659712 -0.20288667
-0.22634864 0.30741501 -0.20575429
-0.054899864 0.30741501 -0.20198284
-0.26339364 -0.22441299 -0.19527547
-0.15870798 -0.22441299 -0.19877054
-0.29012299 -0.21430907 -0.19646241
-0.29012299 -0.1046715 -0.19601876
-0.29012299 -0.049412988 -0.19659291
0.29012299 0.11118358 -0.19523971
-0.16098726 0.30741501 -0.19712849
0.022757605 0.30741501 -0.19297099
-0.10850173 -0.22441298 -0.18968374
0.29012299 -0.15661716 -0.18226522
-0.29012299 -0.14438385 -0.18674235
0.29012299 -0.13708502 -0.1856136
-0.29012299 -0.12877181 -0.1851515
-0.29012299 0.045610815 -0.18616417
0.29012299 0.074974194 -0.18000121
-0.29012299 0.08647009 -0.18058601
-0.29012299 0.10512374 -0.18253785
-0.29012299 0.14139272 -0.18040933
-0.29012299 0.30048835 -0.1802552
-0.071964853 0.30741501 -0.18808237
0.28858876 0.30741501 -0.18737897
0.040473908 -0.22441299 -0.1735882
0.0597753 -0.22441299 -0.17003158
0.29012299 -0.17234272 -0.17202227
-0.29012299 -0.08788345 -0.17968789
0.29012299 -0.054040156 -0.17231426
-0.29012299 0.064136192 -0.1742757
-0.23131193 0.30741501 -0.17234902
-0.065307833 0.30741501 -0.17542285
-0.03250879 0.30741501 -0.17114529
0.16641158 0.30741501 -0.17446671
0.21057093 0.30741501 -0.17827679
-0.27253819 -0.22441299 -0.16945006
-0.15747562 -0.22441301 -0.16360411
-0.068532482 -0.22441298 -0.16502723
-0.030769555 -0.22441299 -0.16242552
0.031108495 -0.22441301 -0.16294293
0.29012299 -0.11540768 -0.16385773
-0.29012299 0.17390144 -0.16368759
-0.29012299 0.30706593 -0.16575745
0.063653238 0.30741501 -0.16962075
0.23032379 0.30741501 -0.1683723
0.29012299 -0.24882284 -0.15391946
-0.24556103 -0.22441299 -0.15355647
0.073612973 -0.22441299 -0.15837145
0.14904088 -0.22441298 -0.15885499
-0.29012299 -0.11694619 -0.15960854
0.29012299 -0.057896037 -0.1576162
-0.29012299 -0.044812389 -0.15968601
0.29012299 -0.049002074 -0.15777314
-0.29012299 -0.017834336 -0.15428193
-0.29012299 0.026913054 -0.15330315
-0.29012299 0.065270692 -0.15229993
-0.29012299 0.094297029 -0.15728384
0.29012299 0.2940284 -0.15304787
-0.012912959 0.30741501 -0.15562971
0.17557868 0.30741501 -0.15706302
0.25979406 -0.26457924 -0.1451022
-0.20844513 -0.22441299 -0.14539899
-0.17453089 -0.22441301 -0.14256939
-0.12370323 -0.22441298 -0.14644039
0.055344462 -0.22441301 -0.14587972
0.23210128 -0.22441299 -0.14325102
0.24850433 -0.22441299 -0.14965308
-0.29012299 0.095465943 -0.14900893
0.29012299 0.1132032 -0.14897306
0.29012299 0.22905809 -0.14044189
0.049218159 0.30741501 -0.14075869
0.20931855 0.30741501 -0.14402281
0.23183432 -0.23528086 -0.13244493
-0.26338825 -0.22441299 -0.13232829
-0.15237132 -0.22441299 -0.13221988
-0.12606743 -0.22441299 -0.13001239
0.012040403 -0.22441299 -0.13297868
0.29012299 -0.073907197 -0.13009107
-0.29012299 -0.054275881 -0.13041954
0.29012299 0.29925135 -0.13649251
-0.15779556 0.30741501 -0.13633128
-0.090827145 0.30741501 -0.13336092
-0.038289908 0.30741501 -0.13917603
0.051426098 0.30741501 -0.13366149
0.20242688 0.30741501 -0.13729675
0.2089905 -0.26882851 -0.12210362
0.2098904 -0.25784904 -0.122511
-0.052176494 -0.22441301 -0.1296808
0.12923357 -0.22441299 -0.12791729
0.29012299 -0.034362692 -0.12366612
-0.29012299 -0.015115395 -0.12557884
-0.29012299 0.11838213 -0.12416987
0.29012299 0.19119599 -0.12749881
-0.29012299 0.23607622 -0.12892461
-0.29012299 0.26992792 -0.12151157
-0.16714714 0.30741501 -0.12305958
-0.027785867 0.30741501 -0.12069957
0.049471796 0.30741501 -0.12012662
0.16388497 0.30741501 -0.12456045
0.26682103 0.30741501 -0.12683518
-0.079863206 -0.22441299 -0.11627398
0.24443261 -0.22441299 -0.11281854
-0.29012299 -0.19542277 -0.11434647
-0.29012299 -0.18220529 -0.1178136
-0.29012299 0.14347655 -0.11814962
0.29012299 0.1619423 -0.11788932
-0.15801124 0.30741501 -0.11950275
0.047320664 0.30741501 -0.11810011
0.28458071 0.30741498 -0.11141302
0.28231037 -0.22441299 -0.10924979
-0.29012299 -0.17022756 -0.10794349
0.29012299 -0.0039733723 -0.10394587
-0.29012299 0.00096680224 -0.10104731
0.29012299 0.063672155 -0.10645971
0.29012299 0.17167757 -0.10574611
-0.29012299 0.19164854 -0.10842906
0.29012299 0.19778213 -0.10210162
0.17407909 0.30741501 -0.10673887
0.2211014 0.30741501 -0.10164725
-0.058666468 -0.27084166 -0.09644936
0.15504462 -0.24793027 -0.097682521
-0.23954472 -0.22441299 -0.095853761
0.017288765 -0.22441301 -0.093336411
0.030162547 -0.22441299 -0.099926613
0.29012299 0.042172477 -0.099273674
0.29012299 0.14210106 -0.095373608
0.29012299 0.2497879 -0.093115233
-0.29012299 0.2540774 -0.095579922
-0.2561124 0.30741501 -0.094770618
-0.24364254 0.30741501 -0.0972232
-0.19361567 0.30741501 -0.096739918
-0.012978415 0.30741501 -0.095580913
0.065619268 0.30741501 -0.096557714
0.12319189 0.30741501 -0.095204115
0.1796331 -0.26752162 -0.087731354
-0.070936054 -0.23859051 -0.087464713
-0.18216425 -0.22441299 -0.080028318
-0.02817099 -0.22841649 -0.081328675
0.24133557 -0.22441299 -0.088051945
-0.29012299 -0.20500088 -0.084216751
-0.29012299 -0.088567376 -0.089415707
-0.29012299 -0.029198714 -0.082422398
0.29012299 0.063781224 -0.085564144
-0.29012299 0.27762625 -0.087218434
-0.19222054 0.30741501 -0.08419323
-0.17215171 0.30741501 -0.083235413
-0.081734464 0.30741501 -0.084952697
0.10515241 -0.25743517 -0.075096495
-0.026621532 -0.24564746 -0.07288532
0.23252814 -0.22441298 -0.077940062
0.26603973 -0.22441299 -0.07070978
0.27102748 -0.22441299 -0.073831275
0.29012299 -0.2227315 -0.078828119
0.29012299 -0.11914833 -0.071302615
-0.29012299 -0.095220387 -0.079405494
0.29012299 -0.042354681 -0.070295863
-0.29012299 -0.00078255124 -0.078989811
0.29012299 0.011980787 -0.073785253
-0.29012299 0.094992474 -0.075379133
0.29012299 0.29511309 -0.077360779
-0.070285998 0.30741501 -0.070562162
0.0053722076 0.30741501 -0.075327076
0.18464532 0.30741501 -0.071634375
0.12880448 -0.26751748 -0.064721301
0.12823249 -0.25999534 -0.064462371
0.12692556 -0.24489129 -0.063870721
-0.17663039 -0.22441301 -0.061905973
-0.13520862 -0.22441301 -0.066827491
0.2477068 -0.22441299 -0.065731086
-0.29012299 -0.10184851 -0.061934058
-0.29012299 -0.017187685 -0.068718016
-0.29012299 0.048041884 -0.068344258
-0.29012299 0.21611483 -0.065061547
-0.29012299 0.22662881 -0.067055762
0.29012299 0.24194427 -0.062197912
-0.16255976 0.30741501 -0.067099608
-0.10206935 0.30741501 -0.067281798
0.050093491 -0.23714246 -0.050171528
0.22508605 -0.22441299 -0.058491409
0.28591904 -0.22441298 -0.057974309
-0.29012299 -0.2153157 -0.054617129
-0.29012299 -0.051233083 -0.053991787
0.29012299 -0.046991017 -0.059530191
-0.29012299 0.024881385 -0.055438429
0.29012299 0.047097191 -0.055869289
-0.29012299 0.10770674 -0.058500506
-0.22742456 0.30741501 -0.058226533
0.14129114 0.30741501 -0.05887264
0.22970158 0.30741501 -0.050390199
0.019868487 -0.27924684 -0.047617573
-0.0092050601 -0.26674467 -0.04918078
0.048902053 -0.269757 -0.042612396
0.024182005 -0.25772345 -0.046526097
0.023393488 -0.24970743 -0.04672562
-0.014846518 -0.23125328 -0.048169527
-0.15132485 -0.22441301 -0.042108022
0.002216408 -0.22813992 -0.049340338
0.031077074 -0.22736982 -0.044781379
0.29012299 -0.17544405 -0.041311469
-0.29012299 -0.15730344 -0.045451265
-0.29012299 0.039945029 -0.043636866
-0.29012299 0.16008393 -0.046624359
-0.27504849 0.30741501 -0.043100402
-0.21095826 0.30741501 -0.047084473
0.23767743 0.30741501 -0.040616915
0.26211524 0.30741501 -0.046785191
-0.23343177 -0.22441301 -0.032179825
-0.14276986 -0.22441299 -0.031927899
-0.055518012 -0.22441301 -0.036663704
0.27219278 -0.22441301 -0.03255685
-0.29012299 -0.21288665 -0.037467569
0.29012299 -0.011296138 -0.037308961
-0.29012299 0.026275624 -0.037115321
-0.29012299 0.13779142 -0.034123603
-0.29012299 0.14911036 -0.034047611
-0.29012299 0.15047377 -0.033665694
-0.29012299 0.2943868 -0.030437939
-0.24386761 0.30741501 -0.033301987
-0.16803351 0.30741501 -0.035766155
-0.12291126 0.30741501 -0.034660213
0.0094467122 0.30741501 -0.034006871
0.067293972 0.30741501 -0.039154559
0.23218764 0.30741501 -0.035758983
0.24341878 0.30741501 -0.036869772
0.28936994 0.30741501 -0.039485663
-0.047309712 -0.30741501 -0.027196022
0.064625077 -0.29383078 -0.024057731
-0.10161175 -0.22441298 -0.022091433
0.15936735 -0.22441298 -0.021982661
-0.29012299 -0.10655629 -0.021944359
-0.29012299 -0.040395588 -0.022926793
0.29012299 -0.036857449 -0.029150352
-0.29012299 0.096285358 -0.025371706
0.29012299 0.13316399 -0.023182645
0.29012299 0.25725111 -0.023405503
-0.27078563 0.30741501 -0.025229864
-0.11280563 0.30741501 -0.025925389
0.17286772 0.30741501 -0.025568932
0.19978559 0.30741501 -0.028173808
-0.27857089 -0.22441299 -0.010661393
0.29012299 -0.18710466 -0.015482157
-0.29012299 -0.071923599 -0.011543401
0.29012299 -0.048597772 -0.011617593
-0.29012299 0.11769252 -0.019483358
-0.08234188 0.30741501 -0.016030833
-0.010557927 0.30741501 -0.012549594
0.15050501 0.30741501 -0.016216133
-0.24872282 -0.22441299 -0.009983182
-0.29012299 -0.13547736 -0.00085502863
-0.17484847 0.30741501 -0.0093534514
0.012203732 -0.30741501 0.005809118
0.085993722 -0.27797079 0.0057869642
-0.10870738 -0.22441301 0.0005216524
-0.079779707 -0.22947158 0.0014966971
0.1646658 -0.22441301 0.0062803999
0.21548894 -0.22441301 0.0098932795
0.29012299 -0.17669293 0.0079102069
-0.29012299 -0.15557282 0.0041873939
-0.29012299 -0.13498987 0.0035755821
0.29012299 -0.061230145 0.0022504628
0.29012299 -0.013796533 0.0061672777
0.29012299 0.057808049 0.00065925717
0.29012299 0.066213518 0.0035369284
0.29012299 0.088326499 0.0015963502
-0.29012299 0.11641596 0.0061056837
-0.014410477 0.30741501 0.0031204037
0.26331809 0.30741501 0.00039389357
0.028767969 -0.30741501 0.010196666
-0.12605454 -0.22441299 0.013430171
-0.10477766 -0.22441298 0.015759103
-0.087874502 -0.22441299 0.012280997
-0.29012299 -0.097554356 0.014487691
0.29012299 -0.065672904 0.014131345
-0.29012299 0.039639384 0.011375654
0.29012299 0.071809113 0.016021837
-0.29012299 0.23185173 0.013055883
0.29012299 0.26229438 0.014989426
-0.29012299 0.29785797 0.011073542
-0.28496164 0.30741501 0.010131583
-0.11292149 0.30741501 0.01192414
-0.090591505 0.30741501 0.011192162
-0.0072371662 0.30741501 0.012338236
0.08764872 0.30741501 0.01416631
0.17927842 0.30741501 0.015018147
0.030801844 -0.30741501 0.02536607
-0.086744167 -0.23054937 0.021725578
-0.27718824 -0.22441301 0.026003562
-0.14612529 -0.22441298 0.025707915
-0.11847942 -0.22441299 0.025933694
0.11683172 -0.22441299 0.027244277
0.17994149 -0.22441301 0.0274731
0.19364521 -0.22441299 0.022064272
0.29012299 0.026399128 0.022003517
-0.29012299 0.036771417 0.023909807
-0.29012299 0.041793481 0.02218562
-0.29012299 0.054756306 0.028760821
-0.29012299 0.082853504 0.023817137
-0.29012299 0.17692816 0.029228784
0.088211134 0.30741501 0.026655529
-0.19957335 -0.22441301 0.0394505
0.1779858 -0.22441299 0.036434352
0.29012299 -0.2161727 0.034411527
-0.29012299 0.0043746047 0.039659265
-0.29012299 0.078235112 0.039127134
-0.29012299 0.082363531 0.038597196
-0.29012299 0.15728419 0.038957544
-0.29012299 0.18158959 0.030193821
-0.29012299 0.21861182 0.039160773
-0.29012299 0.22272345 0.032847464
-0.29012299 0.30160439 0.03503225
0.069657736 0.30741501 0.030068444
-0.16961984 -0.22441301 0.046829119
-0.095920496 -0.22441301 0.042696517
0.092494287 -0.2244624 0.04061532
0.12064342 -0.22441299 0.04557788
0.15004282 -0.22441301 0.048506096
0.26129872 -0.22441299 0.041981205
-0.29012299 -0.045871194 0.043625727
0.29012299 0.12690347 0.047519706
0.29012299 0.16018857 0.042903606
0.29012299 0.19272801 0.04453364
-0.29012299 0.2707971 0.048774935
0.027933937 0.30741501 0.047173094
0.15228695 0.30741501 0.048655797
-0.25607732 -0.22441299 0.053243816
0.29012299 0.023647554 0.056016885
-0.29012299 0.11968726 0.057397641
0.29012299 0.18870325 0.058874369
-0.29012299 0.25794619 0.051413991
0.29012299 0.26690587 0.050364193
-0.29012299 0.28297156 0.057228364
-0.011183798 0.30741501 0.057763815
0.28047168 0.30741501 0.058041602
-0.22591151 -0.22441301 0.06027035
-0.17274556 -0.22441299 0.060093172
-0.15022098 -0.22441298 0.068084851
0.26615214 -0.22441299 0.060662545
-0.29012299 -0.17617282 0.062150903
-0.29012299 -0.149398 0.067002796
-0.29012299 -0.095332384 0.062462412
0.29012299 -0.050160803 0.062194869
0.29012299 0.025976589 0.066690266
-0.29012299 0.086174399 0.061272264
0.29012299 0.16917688 0.064375103
-0.28357509 0.30741501 0.065262288
-0.23158339 0.30741501 0.061553329
-0.21492063 0.30741501 0.062604785
0.074359685 0.30741501 0.068578079
0.24260664 0.30741501 0.068661444
0.0028197728 -0.30741501 0.070563309
-0.24098808 -0.22441299 0.077533327
-0.29012299 -0.026222724 0.077865824
0.29012299 0.15410885 0.072647288
-0.29012299 0.23801517 0.078593336
0.29012299 0.27590576 0.074251257
-0.087380677 0.30741501 0.072905689
-0.068719514 0.30741501 0.073182419
-0.030005325 0.30741501 0.074616201
-0.014320452 0.30741501 0.071741775
0.19265972 0.30741501 0.078383416
-0.07359945 -0.30741501 0.087628558
-0.069530897 -0.30741501 0.085988864
-0.033465415 -0.30741501 0.088462844
0.080494933 -0.29957065 0.086439043
0.08030273 -0.28198105 0.086782932
0.083910674 -0.27279624 0.080327466
-0.23960043 -0.22441298 0.081706479
-0.16507263 -0.22441299 0.08856038
-0.15912683 -0.22441298 0.088840216
0.095112547 -0.22441299 0.083285153
0.29012299 -0.19404386 0.086356848
-0.29012299 -0.17674297 0.08460179
0.29012299 -0.17412886 0.088041015
0.29012299 0.095171399 0.081608012
-0.18781781 0.30741501 0.082688764
0.029926784 0.30741501 0.083888493
-0.073016055 -0.25710687 0.092887558
-0.1770536 -0.22441299 0.092412695
0.072499163 -0.22795369 0.098729029
0.29012299 -0.10961737 0.090144396
-0.29012299 0.057005972 0.093653344
0.29012299 0.061902337 0.097368143
0.29012299 0.072543234 0.099960662
0.29012299 0.1048789 0.096125595
0.29012299 0.12698206 0.092246085
0.23252709 0.30741501 0.091820121
0.26794341 0.30741501 0.099828929
0.055915456 -0.30741501 0.10889046
-0.063237362 -0.24292633 0.10455777
-0.11666828 -0.22441301 0.10082786
-0.29012299 -0.18836364 0.10334222
0.29012299 -0.11141187 0.10488404
-0.00042263791 0.30741501 0.10125832
-0.014030974 -0.30741501 0.11293808
0.29012299 -0.15195531 0.11416761
-0.29012299 -0.089088112 0.1110381
-0.29012299 -0.0684596 0.11425257
-0.29012299 -0.023976199 0.11688399
0.29012299 -0.028972916 0.11797855
0.29012299 -0.013342768 0.11852754
-0.29012299 0.24405694 0.11531506
-0.17483333 0.30741501 0.11541292
-0.15360028 0.30741501 0.11347319
0.01116617 0.30741501 0.11136397
0.035301927 0.30741501 0.11228853
0.17534958 0.30741501 0.1107134
0.24277112 0.30741501 0.11311341
-0.02228372 -0.29808098 0.12877908
0.022784723 -0.28736216 0.12964982
-0.024677224 -0.25589031 0.1281734
-0.18189473 -0.22441299 0.12119135
-0.036818448 -0.22441299 0.12425778
0.19130424 -0.22441301 0.12092553
-0.29012299 -0.17547131 0.12091655
-0.29012299 -0.11361665 0.12227762
-0.29012299 -0.086085536 0.12680043
-0.29012299 0.030310474 0.12776959
-0.29012299 0.23290047 0.12824351
0.29012299 0.23426907 0.1235386
-0.29012299 0.30710247 0.12822226
-0.16045684 0.30741501 0.12844491
-0.034581102 0.30741501 0.12711763
0.16491157 0.30741501 0.12773466
0.19636555 0.30741501 0.12528631
-0.0011215433 -0.30730194 0.13207123
0.0092138965 -0.29972184 0.13192704
0.010560514 -0.26968625 0.13190825
0.099868886 -0.22441298 0.13969293
0.28904966 -0.22441299 0.13862401
0.29012299 -0.14576048 0.13375328
-0.29012299 0.045458138 0.13519146
-0.29012299 0.10373984 0.13909321
-0.29012299 0.11966106 0.13647695
0.29012299 0.16833584 0.136079
-0.2701678 0.30741501 0.13653894
-0.19964114 0.30741501 0.13607304
-0.022350788 0.30741501 0.13108538
0.21461163 0.30741501 0.1394949
-0.26904616 -0.22441299 0.14005402
-0.093986332 -0.22441299 0.14558056
0.047495302 -0.22441299 0.14570379
0.29012299 -0.21225551 0.1490858
-0.29012299 -0.055693865 0.14197421
0.29012299 0.062556483 0.1424839
0.29012299 0.13562496 0.14102334
0.29012299 0.16916655 0.14722125
-0.29012299 0.30626956 0.14395884
-0.23056594 0.30741501 0.14954928
-0.048670724 0.30741501 0.14036866
0.079237677 0.30741501 0.14068954
0.13695179 0.30741501 0.14695984
-0.28552693 -0.22441298 0.15391237
-0.13067593 -0.22441299 0.15384282
0.1349936 -0.22441298 0.15751196
0.15817276 -0.22441299 0.15735599
0.23073208 -0.22441299 0.15264295
0.26620659 -0.22441299 0.15581591
0.29012299 -0.1865799 0.15882134
-0.29012299 0.13027558 0.15886959
-0.29012299 0.27106717 0.15194146
-0.29012299 0.3044529 0.15540607
-0.20281965 0.30741501 0.15186942
-0.16399558 -0.22441299 0.1646761
0.29012299 -0.20885602 0.16520116
-0.29012299 -0.17461677 0.16162333
-0.29012299 -0.15182787 0.16428234
0.29012299 -0.0090760402 0.16702193
0.29012299 0.04375229 0.16472591
0.29012299 0.08070381 0.16245162
-0.29012299 0.13619009 0.16907558
-0.19292678 0.30741501 0.16598871
-0.051207416 0.30741501 0.16862924
0.055432361 0.30741501 0.16069764
0.22895955 0.30741501 0.16244408
-0.025086567 -0.22441299 0.17969248
0.03618205 -0.22441299 0.17145611
0.12418912 -0.22441301 0.1791119
0.22123133 -0.22441298 0.17452739
-0.29012299 -0.17423524 0.17051856
0.29012299 -0.141836 0.17312004
-0.29012299 -0.092886001 0.17178792
0.29012299 -0.036786158 0.17476845
0.29012299 -0.0212509 0.17430621
0.29012299 0.0045150965 0.17830332
-0.29012299 0.09776336 0.17405808
-0.29012299 0.11185575 0.17284095
-0.29012299 0.22578599 0.1711199
0.015066698 0.30741501 0.1734727
0.20681493 0.30741501 0.17752977
0.29012299 -0.162771 0.18071309
0.29012299 -0.13668337 0.18205982
-0.29012299 -0.12850377 0.1878771
0.29012299 0.066263884 0.18322295
-0.29012299 0.24167463 0.18586202
-0.26654878 0.30741501 0.18698534
-0.22578821 0.30741501 0.18681289
-0.24336533 -0.22441299 0.19303429
0.084597915 -0.22441299 0.19096684
0.29012299 -0.10928921 0.19711341
0.29012299 -0.048859335 0.19421017
-0.29012299 0.13091362 0.19049245
0.29012299 0.21642499 0.19391288
-0.29012299 0.25915635 0.199939
0.29012299 0.25773147 0.19483091
-0.1030787 0.30741501 0.1981073
0.078060314 0.30741501 0.19627774
-0.17344536 -0.22441298 0.20459881
-0.15924223 -0.22441301 0.20482215
0.0063594542 -0.22441298 0.20142525
0.19424373 -0.22441298 0.20274323
0.2314007 -0.22441301 0.2086951
-0.29012299 -0.1579252 0.20719247
-0.29012299 -0.12798867 0.20523924
-0.29012299 0.16196361 0.20102067
-0.08058504 0.30741501 0.2089408
0.095605738 0.30741501 0.20194048
0.19116387 0.30741501 0.20701139
-0.22908187 -0.22441301 0.21769336
-0.16657797 -0.22441299 0.21641056
-0.12203768 -0.22441299 0.2152254
-0.081251867 -0.22441298 0.2189243
-0.29012299 -0.12376347 0.214972
0.29012299 -0.070911199 0.21631008
-0.29012299 -0.069305174 0.21226978
0.29012299 0.11171383 0.21966848
0.29012299 0.13437554 0.21160206
0.29012299 0.18555056 0.21166721
-0.29012299 0.29584134 0.21088552
-0.094584137 0.30741501 0.21283312
0.012077287 0.30741501 0.21275304
0.059038479 -0.22441299 0.22333197
0.16349003 -0.22441298 0.22429925
0.19621512 -0.22441299 0.22283956
0.28915361 -0.22441298 0.22706766
-0.29012299 -0.18922853 0.22411303
-0.29012299 -0.13081148 0.22195263
0.29012299 -0.087167718 0.22936603
-0.29012299 -0.015480287 0.22748014
-0.29012299 0.11062722 0.22553605
0.29012299 0.2366856 0.2296752
-0.2574932 0.30741501 0.22835289
0.016864173 0.30741501 0.22172637
0.1733924 0.30741501 0.22259355
-0.11229651 -0.22441299 0.23712237
0.16692522 -0.22441301 0.23355806
0.2262985 -0.22441299 0.23673441
-0.29012299 -0.1233789 0.23720807
0.29012299 -0.055696938 0.23136023
0.29012299 -0.049372382 0.23450872
0.29012299 0.010914251 0.23384641
0.29012299 0.044972349 0.23848113
0.29012299 0.068547383 0.23297021
-0.29012299 0.078610428 0.23468806
-0.29012299 0.17449047 0.23996183
-0.29012299 0.27477264 0.23339568
-0.089359835 0.30741501 0.23674789
0.10176274 0.30741501 0.23468578
-0.16670939 -0.22441299 0.24136972
0.095171615 -0.22441299 0.24020872
0.29012299 -0.12937982 0.24334486
-0.29012299 -0.031008862 0.24994802
-0.29012299 0.055701662 0.24694841
-0.29012299 0.17198165 0.24136388
0.29012299 0.20371789 0.24626957
0.29012299 0.22985323 0.24427511
-0.29012299 0.28697637 0.24455553
-0.070640638 0.30741501 0.24425238
0.045972012 0.30741501 0.24958175
0.2537145 0.30741501 0.24262196
0.014904033 -0.22441301 0.25586039
0.17688505 -0.22441298 0.25670117
-0.29012299 -0.16541873 0.25774893
0.29012299 -0.032518454 0.25354239
-0.29012299 0.022655964 0.25790337
-0.29012299 0.13256304 0.25013191
0.29012299 0.15579315 0.25038537
-0.29012299 0.26542574 0.25843555
0.14100766 0.30741501 0.25741756
0.23149036 0.30741501 0.25546932
0.2886214 0.30741501 0.25266057
-0.29012299 -0.22355211 0.26688799
-0.27490598 -0.22441298 0.26653802
-0.17036183 -0.22441298 0.26611474
-0.04786697 -0.22441299 0.2638368
-0.011913851 -0.21410966 0.26706696
-0.27087814 -0.2053854 0.26706699
-0.081187606 -0.20981479 0.26706699
-0.068972513 -0.2055677 0.26706699
0.27221215 -0.20639347 0.26706699
-0.20560087 -0.19983426 0.26706699
-0.13256127 -0.19377977 0.26706699
-0.079266772 -0.19504046 0.26706699
0.11740457 -0.19607081 0.26706699
-0.10689741 -0.18416098 0.26706702
-0.027148355 -0.18335843 0.26706699
0.25478864 -0.18485931 0.26706699
0.070759676 -0.17257401 0.26706699
0.29012299 -0.17636026 0.26574659
-0.2378642 -0.16283017 0.26706699
-0.035432965 -0.16264728 0.26706699
-0.019539066 -0.16005859 0.26706699
0.038831949 -0.16458547 0.26706699
0.11330868 -0.1623915 0.26706699
-0.26206064 -0.15939352 0.26706699
-0.17458606 -0.15299034 0.26706699
0.26326466 -0.15796652 0.26706699
-0.2443049 -0.14552701 0.26706699
-0.029757865 -0.14091958 0.26706699
0.07281857 -0.14965405 0.26706699
-0.2327756 -0.13205071 0.26706699
-0.20820038 -0.13092962 0.26706699
-0.027863488 -0.1324603 0.26706699
0.042327229 -0.13929744 0.26706699
-0.27048618 -0.12218758 0.26706699
-0.21321768 -0.12634486 0.26706699
-0.087111659 -0.1256216 0.26706699
-0.0019502416 -0.12185656 0.26706699
0.035500165 -0.12402041 0.26706699
0.17280328 -0.12481943 0.26706699
0.22708818 -0.12646195 0.26706699
0.012634464 -0.11139572 0.26706699
0.022476956 -0.11450529 0.26706699
0.23575443 -0.11742598 0.26706699
0.29012299 -0.11621863 0.26108861
0.00056202337 -0.1002517 0.26706699
0.25195098 -0.10691535 0.26706699
-0.12521966 -0.095145941 0.26706699
-0.28915167 -0.081069492 0.26706699
-0.1510018 -0.08374723 0.26706699
-0.084613301 -0.085532174 0.26706699
-0.034650207 -0.080253556 0.26706699
0.12102299 -0.08112295 0.26706699
0.27158874 -0.088096321 0.26706699
0.28921914 -0.071942881 0.26706699
0.14365074 -0.056252271 0.26706699
-0.29012299 -0.044981323 0.26507962
0.20837928 -0.043081224 0.26706699
-0.084805675 -0.031331848 0.26706699
-0.046662927 -0.033957362 0.26706699
-0.00077390671 -0.035623372 0.26706699
0.078359939 -0.030248173 0.26706699
-0.23062094 -0.02266885 0.26706699
0.24009316 -0.024016015 0.26706699
-0.11979052 -0.013925478 0.26706699
0.11514796 -0.017947637 0.26706699
0.27825263 -0.014527105 0.26706699
0.14500624 -0.001058735 0.26706699
-0.28092715 0.0022418126 0.26706699
-0.25365412 0.008021269 0.26706699
0.26108846 0.0030972138 0.26706702
0.27114874 0.0098222643 0.26706696
-0.084726617 0.013662595 0.26706699
0.078593127 0.010684005 0.26706699
-0.02601783 0.0306568 0.26706699
0.17437133 0.03982012 0.26706699
0.045130219 0.042277113 0.26706699
0.1286267 0.049694851 0.26706699
-0.018487453 0.057932876 0.26706699
-0.048933584 0.068389095 0.26706699
0.10062247 0.065408543 0.26706699
0.25343323 0.065500341 0.26706699
-0.28319514 0.078376062 0.26706699
0.059284367 0.079774216 0.26706699
0.15409334 0.070126839 0.26706699
0.16403493 0.079000138 0.26706699
-0.15830968 0.080900773 0.26706699
-0.010461628 0.089809932 0.26706699
0.059144344 0.085375033 0.26706699
0.072131798 0.08100155 0.26706699
0.23253474 0.083165362 0.26706702
-0.056634024 0.093877085 0.26706699
0.053755052 0.09530063 0.26706699
0.25046393 0.097690225 0.26706699
-0.15905038 0.1088118 0.26706699
-0.073392831 0.10843939 0.26706699
-0.026820786 0.11493368 0.26706699
0.010471925 0.11921271 0.26706699
0.19227055 0.1278546 0.26706699
-0.2110053 0.13962497 0.26706699
-0.067860618 0.13401118 0.26706699
-0.0058204457 0.13234876 0.26706699
0.065451577 0.13411224 0.26706699
0.12671486 0.13925737 0.26706699
-0.23297149 0.14080045 0.26706699
-0.085090414 0.14175171 0.26706699
0.16355036 0.14302461 0.26706699
0.20168456 0.14918002 0.26706699
0.25938538 0.14441277 0.26706699
-0.27733994 0.15308174 0.26706699
-0.22975576 0.16578594 0.26706699
-0.082839951 0.1626154 0.26706699
-0.11375609 0.17749904 0.26706699
0.00047985464 0.17755628 0.26706699
0.11037545 0.17271566 0.26706702
0.19280849 0.17150779 0.26706699
0.25639018 0.17404871 0.26706699
-0.26657921 0.18004856 0.26706699
-0.1707997 0.18143126 0.26706699
-0.0031053498 0.18272039 0.26706699
0.1213493 0.19420758 0.26706699
0.10037137 0.20527901 0.26706699
0.22625083 0.20912321 0.26706699
0.026253469 0.21278445 0.26706699
0.040692441 0.2184177 0.26706699
0.050985515 0.21402162 0.26706699
0.15378076 0.21866196 0.26706699
0.23298223 0.21136892 0.26706699
-0.1713703 0.22634695 0.26706699
-0.14109004 0.22599083 0.26706699
0.039362766 0.22939505 0.26706699
0.19643864 0.22309667 0.26706699
-0.26295573 0.23825955 0.26706699
-0.056754977 0.23108856 0.26706699
0.22237609 0.23948002 0.26706699
-0.099081829 0.24291319 0.26706699
-0.022032738 0.24570382 0.26706699
0.14121968 0.24530087 0.26706699
0.26415807 0.24439697 0.26706699
0.27348316 0.24187919 0.26706699
-0.22138248 0.25703785 0.26706699
-0.13725637 0.25361261 0.26706699
-0.026828021 0.25915039 0.26706699
-0.0041736364 0.25225815 0.26706699
-0.2113824 0.26543978 0.26706699
0.061789572 0.26704478 0.26706699
-0.18506749 0.27448314 0.26706699
0.065903708 0.28168875 0.26706699
0.10054595 0.28332552 0.26706699
0.12933627 0.28054255 0.26706699
0.17480576 0.28041509 0.26706699
-0.22050674 0.2919431 0.26706699
-0.068046249 0.29989246 0.26706699
0.0034502149 0.29429418 0.26706699
-0.17963368 0.30741501 0.26705799
-0.12430599 0.30741501 0.26106092
-0.066312432 0.30741501 0.2659314
-0.039890543 0.30741501 0.26676151
0.034344204 0.30741501 0.26196662
0.22235602 0.30317107 0.26706699
