# .PCD v0.7 - Point Cloud Data file format
VERSION 0.7
FIELDS x y z
SIZE 4 4 4
TYPE F F F
COUNT 1 1 1
WIDTH 977
HEIGHT 1
VIEWPOINT 0 0 0 1 0 0 0
POINTS 977
DATA ascii
-0.074268088 0.33541256 -0.26037174
0.18771854 0.34463722 -0.26007399
-0.22425421 -0.34920314 -0.25945333
-0.045329176 -0.34343982 -0.25951827
-0.14227541 -0.32393599 -0.25984591
-0.10962789 -0.31226799 -0.25983942
-0.04987368 -0.3176001 -0.2597819
0.20005012 -0.31582344 -0.25880587
-0.10703895 -0.29427752 -0.25873119
0.055785064 -0.29380417 -0.25169989
0.062049039 -0.28484365 -0.25861299
0.21641305 -0.28658324 -0.25979114
-0.18176132 -0.27540931 -0.25861299
-0.016038772 -0.26233953 -0.25861299
0.21468045 -0.26567352 -0.25511143
-0.17083138 -0.24360493 -0.25861299
-0.034141116 -0.24838996 -0.25861299
-0.059440587 -0.237977 -0.25861299
0.13134269 -0.23389986 -0.25861299
0.22705333 -0.23905532 -0.25348589
0.2188178 -0.21474321 -0.2592105
-0.094331622 -0.20720945 -0.25861299
0.0022581443 -0.20150131 -0.25861299
-0.060411345 -0.17802167 -0.25861299
0.10137423 -0.17682356 -0.25861299
0.22590274 -0.17712262 -0.25618923
-0.1961576 -0.16274813 -0.25861299
-0.074966602 -0.16212539 -0.25861299
0.14794971 -0.16828388 -0.25861299
0.0073474869 -0.13943338 -0.25861299
-0.13345864 -0.12595469 -0.25861299
0.19615844 -0.12508506 -0.25861299
0.22361261 -0.12495795 -0.25738972
0.14302346 -0.093130276 -0.25861299
0.17682004 -0.098947547 -0.25861299
-0.11756101 -0.086697966 -0.25861299
-0.086389333 -0.082877554 -0.25861299
-0.015578516 -0.084705554 -0.25861299
-0.085059002 -0.065413877 -0.25861299
0.21772888 -0.051502693 -0.25948972
0.064223439 -0.031003408 -0.25861299
-0.225849 -0.021098712 -0.25416532
0.02451954 -0.026490457 -0.25861299
-0.090899765 -0.017327428 -0.25861299
-0.0050486093 -0.0066093374 -0.25861299
0.154989 -0.0032355487 -0.25861299
0.20803878 -0.0028421283 -0.25861299
-0.10731235 0.00676395 -0.25861299
-0.0033464599 0.0056900247 -0.25861299
0.10506313 0.0021492094 -0.25861299
-0.015644915 0.015407816 -0.25861299
-0.1942517 0.021055322 -0.25861299
-0.10961217 0.0211633 -0.25861299
-0.095082529 0.028276004 -0.25861299
-0.063313492 0.020770013 -0.25861299
0.1416129 0.033994544 -0.25861299
0.17499101 0.043004274 -0.25861299
0.051492609 0.059180573 -0.25861299
0.19619796 0.061262771 -0.25861299
-0.18958035 0.093989946 -0.25861299
-0.14187232 0.096434101 -0.25861299
-0.20754413 0.10465857 -0.25861299
-0.1639313 0.10640366 -0.25861299
0.021447942 0.11322737 -0.25861299
0.18996668 0.11445298 -0.25861299
-0.18854442 0.12447753 -0.25861299
0.064549834 0.13835824 -0.25861299
-0.18144782 0.1452768 -0.25861299
-0.1471227 0.14665559 -0.25861299
0.054619141 0.14221823 -0.25861299
0.18239811 0.14873393 -0.25861299
0.052841283 0.15862173 -0.25861299
0.16739792 0.15865767 -0.25861299
-0.19954129 0.16356203 -0.25861299
0.0020296797 0.16348669 -0.25861299
-0.14234892 0.1764978 -0.25861299
-0.066643558 0.17114297 -0.25861299
-0.18357727 0.19527823 -0.25861299
-0.16572237 0.19774088 -0.25861299
0.077409409 0.19724835 -0.25861299
0.20872644 0.19054009 -0.25861299
0.073439136 0.2193962 -0.25861299
0.15813857 0.21717335 -0.25861299
-0.22557959 0.22518569 -0.2554974
0.22055726 0.22234726 -0.2587674
-0.225849 0.25435957 -0.25344822
-0.018010557 0.25427693 -0.25861299
0.19068119 0.25435698 -0.25861299
-0.18565053 0.26708505 -0.25861299
-0.053711712 0.26274636 -0.25861299
-0.15857193 0.27963543 -0.25861299
0.11852292 0.28129926 -0.25861299
-0.1738053 0.29693118 -0.25861299
-0.13365062 0.29367796 -0.25861299
-0.038582925 0.29214758 -0.25861299
-0.2159235 0.30793393 -0.25861299
-0.17862953 0.30301061 -0.25861299
-0.068611354 0.30076051 -0.25861299
-0.049241021 0.30962223 -0.25861299
0.11751546 0.30264759 -0.25861299
0.16231509 0.30689296 -0.25861299
0.17206633 0.31143534 -0.25861299
-0.19628276 0.32159585 -0.25861299
-0.099814743 0.331204 -0.25073248
-0.070796669 0.331204 -0.256713
-0.019902438 0.33117753 -0.25631496
0.12832011 0.33166599 -0.2521877
0.19305269 0.33042538 -0.25724062
-0.22210392 0.35898498 -0.25801837
-0.15430333 0.3534106 -0.25979081
-0.11801466 0.35903203 -0.25726849
-0.036286112 0.35523057 -0.25973204
0.14955245 0.35792002 -0.25957513
-0.21954328 -0.35868335 -0.24541353
0.13195218 -0.35865122 -0.2475287
-0.19966832 -0.29440001 -0.24792837
0.0053128842 -0.29399297 -0.24477357
0.077479899 -0.29392001 -0.24797975
0.19976404 -0.29411489 -0.24353324
0.22814278 -0.011842318 -0.24432307
0.22814369 -0.0082091745 -0.24358864
-0.225849 0.13663149 -0.24828064
0.22813551 0.16254523 -0.24663547
0.22844779 0.31049883 -0.241304
0.03162729 0.331204 -0.24764344
0.109401 0.331204 -0.24082926
0.22878931 0.33136338 -0.24909376
-0.20746648 0.35905299 -0.24080074
-0.10818169 0.35905302 -0.24501891
0.119644 0.35905299 -0.24774206
0.15732649 0.35905299 -0.24759266
0.0046836073 -0.2942822 -0.23378912
0.20357105 -0.29440001 -0.2366589
0.214789 -0.28462815 -0.23580216
0.214789 -0.26469541 -0.23113078
-0.225849 -0.1664246 -0.23946084
-0.225849 -0.14967285 -0.2333768
-0.225849 -0.066801913 -0.23352733
0.22815277 -0.038751729 -0.23170334
0.214789 0.17524433 -0.23315994
0.2157986 0.21449456 -0.23258257
0.214789 0.23982818 -0.2321946
0.22845291 0.28170174 -0.23370704
-0.225849 0.29259187 -0.23246868
-0.13936597 0.33166599 -0.23412256
-0.09939751 0.35905296 -0.23857182
0.16892645 0.35905302 -0.23500744
-0.19436815 -0.35873863 -0.22494565
-0.17735858 -0.2946167 -0.22091323
0.059251517 -0.29462752 -0.22048967
0.085211933 -0.29440001 -0.22194955
0.22815561 -0.22289364 -0.22306047
0.214789 -0.14071743 -0.22860497
0.22815508 -0.066510543 -0.22594653
-0.225849 0.064516693 -0.22537601
-0.225849 0.11435185 -0.22940665
0.214789 0.12693836 -0.22314946
0.22815365 0.14294945 -0.22954491
0.214789 0.16919324 -0.22165576
-0.225849 0.23715308 -0.2207039
0.214789 0.25251627 -0.22855271
0.22845504 0.27717423 -0.22852458
0.22845607 0.3160035 -0.22569151
-0.10118464 0.33166599 -0.22186795
-0.049220908 0.331204 -0.22789994
0.16770747 0.331204 -0.22500807
0.19298662 0.33166599 -0.22628149
0.20503017 0.33166599 -0.22929995
0.22928095 0.33904064 -0.22252449
0.22908163 0.34607282 -0.22474022
0.10245427 0.35743806 -0.22027555
0.12968849 0.35883892 -0.22487904
0.12983228 -0.35872939 -0.21897157
-0.14897402 -0.29440001 -0.2197029
0.1277308 -0.29440001 -0.21597371
0.17842165 -0.29440001 -0.21978866
0.19644047 -0.29440001 -0.21150747
0.22815683 -0.26397333 -0.21652599
0.22815695 -0.20029786 -0.21592554
-0.225849 -0.088159546 -0.21108489
-0.225849 0.30157477 -0.21155363
0.214789 0.3053003 -0.21134901
0.21474299 0.32780951 -0.21895041
-0.17762856 0.331204 -0.21657085
-0.11935548 0.33166599 -0.21236385
-0.099305004 0.33166599 -0.2190737
0.011864279 0.331204 -0.21400361
0.054820396 0.331204 -0.21455094
0.075762898 0.33166599 -0.21746159
0.13679619 0.33166599 -0.21343528
-0.050441399 0.35533151 -0.21261227
-0.010420382 -0.35880226 -0.2004793
0.069845222 -0.35877532 -0.20999967
-0.15859316 -0.29440001 -0.20580581
0.22815846 -0.22535309 -0.20193772
0.214789 -0.12683566 -0.20466548
0.2281581 -0.069150589 -0.20822497
-0.225849 -0.058322109 -0.20479937
-0.225849 0.081063673 -0.20433336
0.22815807 0.13506225 -0.20849039
0.21478902 0.16175561 -0.20259883
-0.225849 0.22109672 -0.20730853
0.214789 0.31072226 -0.20348299
-0.10404026 0.33143499 -0.20570794
-0.034628969 0.331204 -0.20973566
0.03626439 0.331204 -0.20685431
0.062800221 0.331204 -0.20806104
0.16980088 0.33166599 -0.20810214
0.21733469 0.331204 -0.20564927
-0.14571422 -0.35881263 -0.19630994
-0.16808102 -0.29440001 -0.19794494
0.049323037 -0.29527217 -0.19437292
-0.225849 -0.28843969 -0.1938467
0.22815885 -0.25036877 -0.19467276
0.214789 -0.074330851 -0.19243905
0.214789 -0.069582731 -0.19414338
0.214789 0.15669662 -0.19058816
-0.19777034 0.33166599 -0.19188444
-0.18620543 0.33166599 -0.198642
-0.10585214 0.33166599 -0.19172524
0.088885956 0.33166599 -0.19967581
0.077958219 0.35487485 -0.19656309
-0.22455747 -0.35883078 -0.18877704
0.12705846 -0.3588239 -0.18144411
-0.17295668 -0.29558226 -0.18071745
-0.13039809 -0.29440001 -0.18847805
0.011417147 -0.29540035 -0.18883629
0.072697885 -0.29548582 -0.1854026
0.1116735 -0.29440001 -0.18037367
0.21779683 -0.29574066 -0.18151709
0.22815901 0.01300826 -0.18753867
0.214789 0.24895747 -0.18903735
0.22967017 0.28839126 -0.18076099
0.13114783 0.331204 -0.18035585
-0.22754897 0.35905299 -0.1829052
-0.2076786 0.35905302 -0.18408412
-0.028867461 0.35485333 -0.1868538
-0.19449723 -0.35887349 -0.17002279
0.095749401 -0.35885638 -0.17224792
-0.08295013 -0.29504979 -0.17604774
-0.0055740974 -0.29566735 -0.17691956
0.028003201 -0.29440001 -0.17580302
0.14830495 -0.29440001 -0.17686865
0.214789 -0.22905377 -0.17951989
0.22815901 -0.0038594557 -0.17275265
0.22815901 0.04171133 -0.17042206
-0.225849 0.080841206 -0.17738977
0.214789 0.10655291 -0.17544219
0.214789 0.25413036 -0.17400506
0.22845998 0.28483552 -0.17991811
-0.17474675 0.33166599 -0.17837796
-0.072571129 0.331204 -0.17035852
0.0085205212 0.33166599 -0.17906448
0.056964755 0.33166599 -0.17380926
-0.12760659 -0.35889265 -0.16063397
-0.017676141 -0.35888141 -0.16616136
0.059077237 -0.35889304 -0.1607354
-0.16818741 -0.29440001 -0.16670582
0.10927501 -0.29603565 -0.16051337
-0.225849 -0.022304505 -0.16050725
0.228159 0.15953779 -0.16052482
0.22373861 0.2133303 -0.16557369
0.22846001 0.25404528 -0.16084756
0.1829697 0.331204 -0.1605093
-0.23027596 0.34771961 -0.16730946
-0.098280817 0.35487294 -0.16865492
0.22815134 -0.32734016 -0.15390614
0.22815898 -0.2441951 -0.15215404
0.214789 -0.1270363 -0.15876713
0.22815898 0.14810345 -0.15602282
-0.225849 0.20558698 -0.1539323
-0.15410097 0.33166599 -0.15916604
0.11043404 0.33166599 -0.1514369
0.16700302 0.33166599 -0.15048794
-0.086853758 0.35486424 -0.15460391
0.014782836 0.3548381 -0.15488555
0.18722275 0.35591036 -0.15042146
0.22815898 -0.31366134 -0.14209549
-0.11957989 -0.29621127 -0.1497014
0.020466745 -0.29622915 -0.14869067
0.11140937 -0.29440001 -0.1422359
-0.225849 -0.27291095 -0.14096795
0.228159 -0.25096223 -0.14137869
-0.225849 0.0067324713 -0.1491206
-0.225849 0.021006256 -0.14674428
-0.225849 0.11586864 -0.14184937
0.214789 0.17567502 -0.14758602
0.22845998 0.29446405 -0.14636333
-0.17096122 0.331204 -0.14498813
0.090921417 0.331204 -0.14898817
-0.12655005 0.35487649 -0.14723124
0.17027061 0.35489321 -0.14816006
-0.18444945 -0.35894677 -0.1319371
0.0068677533 -0.35893282 -0.139864
0.13850532 -0.35890645 -0.13900521
0.22810997 -0.34120435 -0.13714945
-0.21385346 -0.29440001 -0.13500094
-0.1009674 -0.29645663 -0.13580996
-0.225849 -0.13424954 -0.13061303
-0.225849 -0.080414079 -0.13709751
0.22815539 0.092055567 -0.13558534
0.22815275 0.14458327 -0.13328248
0.22815275 0.18362445 -0.13621765
0.2207572 0.21167868 -0.13498932
-0.2301306 0.33147085 -0.13004114
0.031231346 0.331204 -0.1330599
0.17409413 -0.35890961 -0.12980457
0.22384889 -0.35876507 -0.12015662
-0.088058129 -0.29440001 -0.1254925
-0.017526597 -0.29440001 -0.12583624
0.024944656 -0.29440001 -0.12194733
0.046448365 -0.29440001 -0.12269558
0.22815815 -0.21486577 -0.12715344
-0.225849 -0.1453187 -0.12900756
-0.225849 -0.024529113 -0.12101322
0.214789 0.20868929 -0.12410811
0.22289057 0.21151805 -0.12692547
0.22945899 0.2987237 -0.12420221
0.054260395 0.33166599 -0.12311472
0.02801434 0.35483456 -0.12906389
0.16760424 0.35488641 -0.12997918
-0.033408478 -0.29440001 -0.11657521
0.073656403 -0.2967433 -0.11843954
-0.225849 -0.0011111796 -0.1157047
-0.225849 0.038757056 -0.11820429
0.22814095 0.038876321 -0.1120023
0.214789 0.04267852 -0.11450712
0.22814465 0.051727057 -0.11604965
-0.225849 0.065131783 -0.11901057
0.214789 0.061966054 -0.11898753
-0.225849 0.111678 -0.11047617
0.22812738 0.18561199 -0.11569145
0.22811246 0.19328931 -0.11046776
0.214789 0.24620083 -0.11104967
0.230333 0.26683438 -0.11436404
-0.225849 0.27179933 -0.11637091
0.23025729 0.27025411 -0.11930074
0.036111124 0.33166599 -0.11902555
-0.062478829 0.35484111 -0.11066297
0.14118798 0.35487208 -0.11601787
0.043271821 -0.35899496 -0.10068057
0.070285387 -0.35897928 -0.10920422
-0.20021507 -0.29696336 -0.10217595
-0.17921811 -0.29695717 -0.10262711
-0.059189379 -0.29691631 -0.10559845
0.17137577 -0.26514012 -0.10689101
0.20924367 -0.25030047 -0.106891
0.214789 -0.13160653 -0.1084935
0.21194229 -0.075219899 -0.106891
0.22814456 -0.066471577 -0.1078866
0.17722605 -0.058236472 -0.106891
-0.225849 -0.042555571 -0.10511136
0.18969837 -0.0013442561 -0.106891
0.1930277 0.0071883276 -0.10689101
0.20077896 0.033442669 -0.10689101
0.19665872 0.04598416 -0.10689101
0.20862533 0.085909247 -0.106891
0.2141661 0.090008579 -0.10689101
0.146837 0.11798115 -0.10428447
0.1537243 0.18902791 -0.106891
0.16559234 0.2246666 -0.10689099
0.214789 0.23331794 -0.10960877
0.18688376 0.25947392 -0.10689101
0.17840517 0.307724 -0.10321906
-0.02109433 0.33166599 -0.10127968
0.21633482 0.331204 -0.10509443
-0.17447479 0.35488084 -0.10601991
-0.075512454 0.35484442 -0.10587095
0.21531042 0.35905299 -0.10258282
-0.18284777 -0.29700482 -0.098992467
-0.17482275 -0.29701638 -0.097982235
0.13406633 -0.2970528 -0.098940365
0.18136612 -0.29440001 -0.094097137
-0.225849 -0.28401402 -0.090128675
0.146837 -0.25726688 -0.097389936
0.22812136 -0.034818444 -0.094647162
0.146837 -0.026911281 -0.099970475
-0.225849 0.1336593 -0.099013805
0.22807898 0.1513541 -0.094742559
-0.225849 0.22223598 -0.092652112
-0.225849 0.30522507 -0.09156096
-0.10046691 0.33166599 -0.095941558
-0.065493204 0.33166599 -0.096367225
0.013942957 0.331204 -0.090349607
0.056024473 0.331204 -0.094364971
0.10271601 0.35485053 -0.093567871
0.034299795 -0.35901487 -0.082748622
0.085586086 -0.35900295 -0.08596161
-0.13154383 -0.29440001 -0.081157275
0.068884522 -0.29440001 -0.085021183
0.13667262 -0.29440001 -0.083545178
0.146837 -0.25010508 -0.083366923
0.22814301 -0.20640022 -0.0846586
0.22812974 -0.15129715 -0.085301787
0.146837 -0.11064576 -0.087574467
0.22807285 0.01660279 -0.08441513
0.146837 0.13754201 -0.084922537
-0.225849 0.15278414 -0.08288075
-0.225849 0.16466567 -0.080997512
0.22846001 0.25573552 -0.081703477
0.16758728 0.35487229 -0.085888207
-0.01853114 -0.35902101 -0.074538827
-0.16613306 -0.29440001 -0.070045523
-0.044930276 -0.2972241 -0.077382922
0.093721308 -0.29440001 -0.073023841
-0.225849 -0.25524259 -0.075306349
-0.225849 -0.17516938 -0.071036927
0.146837 0.10064082 -0.073515475
0.22796789 0.10509344 -0.073988646
0.146837 0.12817881 -0.07103879
0.146837 0.26792753 -0.079364344
-0.225849 0.32353932 -0.076262884
-0.1424 0.331204 -0.077190377
-0.087890014 0.33166599 -0.074866794
-0.073192783 0.33166599 -0.076851785
-0.048208475 0.33166599 -0.076903373
-0.023979582 0.33166599 -0.071404412
0.033172697 0.33166599 -0.070452914
-0.18151626 0.35498047 -0.073896617
-0.0085619716 0.35481042 -0.078112654
-0.22459966 -0.3518244 -0.064364254
-0.064539462 -0.29729337 -0.065791756
-0.015914693 -0.29730415 -0.063476793
0.15501814 -0.29439998 -0.065514639
0.22789468 0.15687868 -0.061146215
0.21455123 0.20770168 -0.064055584
-0.041395269 0.331204 -0.062181398
0.037825242 0.33166599 -0.06783136
0.1232504 0.33166599 -0.061220214
0.084457748 0.35483533 -0.067416973
-0.092921153 -0.35903263 -0.052148089
0.019036075 -0.29733604 -0.056602769
0.18718876 -0.29741114 -0.057956669
0.21437028 -0.29242933 -0.053434819
0.146837 -0.22442108 -0.058080144
0.146837 0.064110428 -0.059061788
0.22846001 0.31801784 -0.057255931
0.22846 0.32056415 -0.058511153
0.043389119 0.33166599 -0.051541202
0.075160958 0.33166599 -0.058860041
-0.080229066 0.35482863 -0.051989362
0.16211399 0.35485962 -0.052711882
0.22318088 -0.3588506 -0.040857129
-0.22195289 -0.29434052 -0.041944537
-0.21895193 -0.29440001 -0.044280455
-0.19494443 -0.29737252 -0.048685849
-0.18108743 -0.29739201 -0.044473998
0.22815563 -0.2602872 -0.042440817
0.22814062 -0.21779944 -0.04192118
0.146837 -0.13443334 -0.046089292
-0.225849 -0.029456191 -0.042515732
0.22805324 0.0018825717 -0.047545236
0.22798994 0.051531896 -0.043647274
0.22790083 0.13699058 -0.049521729
0.22788772 0.14221877 -0.045835737
-0.225849 0.16079091 -0.049163777
-0.225849 0.27342114 -0.044246573
0.15014203 0.307724 -0.0443528
-0.0070139533 0.331204 -0.041953698
0.063771762 0.33166599 -0.042162195
0.16374326 0.33166599 -0.041754149
0.11294106 0.35483804 -0.042718302
-0.21426389 -0.29440004 -0.038005635
0.18842271 -0.29440001 -0.03336269
0.20170601 -0.29440001 -0.037496142
0.146837 0.22764754 -0.037982229
0.057290539 0.33166599 -0.032566667
0.079277106 0.35482156 -0.03043565
-0.20388374 -0.35904458 -0.026826609
-0.22465506 -0.32155621 -0.024387386
-0.045433946 -0.29750419 -0.020016558
0.0021781661 -0.29749212 -0.02277948
0.14347795 -0.29752898 -0.026456706
-0.225849 -0.25715569 -0.027846482
0.2281341 -0.20537691 -0.02323566
-0.225849 -0.16471283 -0.022410741
0.22802021 0.0078884829 -0.024346469
0.146837 0.041965723 -0.020014066
0.146837 0.18047814 -0.022517549
0.18611096 0.307724 -0.024780182
-0.14301892 0.331204 -0.020019216
0.066102892 0.331204 -0.020036815
0.08543855 0.33166599 -0.027378641
-0.14932656 0.35484517 -0.023610409
0.13599047 0.35484022 -0.022587026
0.21908802 -0.35894483 -0.013480035
0.22300509 -0.35886711 -0.011385228
0.22807069 -0.34768975 -0.01094479
0.11173952 -0.29440001 -0.010123301
0.146837 0.074939653 -0.019715689
0.19291963 0.20601381 -0.012533849
0.146837 0.2944077 -0.019144991
-0.225849 0.31971699 -0.018591743
0.038911123 0.33166599 -0.013309252
-0.1578047 -0.35905299 -0.0043471702
0.11759206 -0.35903257 -0.0037629129
-0.093016602 -0.29440001 -0.005887365
-0.082857318 -0.29440001 -0.0090652741
-0.077082209 -0.29440001 -5.2927062e-05
-0.042114627 -0.29440001 -0.0092585795
-0.035833947 -0.29755005 -0.0053906674
0.025291618 -0.29755494 -0.0016613924
0.038185149 -0.29754254 -0.0091797728
0.05946485 -0.29440001 -0.0055655837
-0.225849 0.23726107 -0.0028714109
0.146837 0.27563921 -0.0004382059
0.22846001 0.27318615 -0.001147164
0.146837 0.29100201 -0.0052095368
-0.089421764 -0.35905299 0.0029548299
-0.039104447 -0.35905248 0.0088825729
0.011796769 -0.35905299 0.0042565786
-0.22464292 -0.33057848 0.0091013405
-0.088350683 -0.29755616 0.00093097519
0.01994992 -0.29755357 0.0032322917
0.16131595 -0.29440001 0.0030173901
-0.225849 -0.22455089 0.0025137626
-0.225849 0.032226078 0.0078997333
0.22779351 0.14943229 0.0095043778
-0.225849 0.27462494 0.00083719008
0.22832644 0.32916686 0.0031799555
-0.12826677 0.331204 0.0081040785
-0.12023888 0.35482669 0.00027620752
0.15014699 0.35484028 0.0062304866
-0.11739635 -0.35905075 0.01315245
0.20405227 -0.35899895 0.013378073
-0.10470684 -0.29440001 0.014674336
-0.038026124 -0.29440001 0.010145064
-0.012920067 -0.29753321 0.012864947
0.16578278 -0.29600191 0.011827144
-0.225849 -0.21593092 0.019314852
0.22808544 -0.085964411 0.011164721
0.22808319 -0.079456538 0.014091223
-0.225849 0.1107375 0.018164393
0.21842052 0.18072259 0.015009096
-0.225849 0.25384548 0.01869037
0.042889886 0.331204 0.011682124
-0.043679614 0.3548041 0.018793073
-0.075837381 -0.35904676 0.023006212
-0.13381016 -0.29749683 0.022103798
-0.05137679 -0.29747501 0.026874596
-0.021776706 -0.29439998 0.02937324
0.2281062 -0.1269913 0.029538611
0.2280954 -0.098445617 0.026761368
-0.225849 -0.050093964 0.027118264
0.146837 -0.05675064 0.020572022
0.146837 -0.041666128 0.0293063
0.146837 0.081704542 0.029271737
0.22755004 0.16268784 0.023470629
0.22169128 0.17860274 0.021942142
0.22846 0.23200695 0.025828283
-0.16112807 -0.35904041 0.035222199
-0.023425408 -0.35904008 0.035881333
-0.11289113 -0.29741591 0.039611936
0.11606027 -0.29440001 0.03979766
0.1842908 -0.29440001 0.036723603
0.22815813 -0.26740292 0.039692234
0.22808006 -0.040712994 0.036985293
-0.225849 -0.027108982 0.037593439
0.22803758 0.00066606328 0.030718043
0.22799817 0.036183521 0.036163129
0.21270619 0.18797463 0.033445861
0.22846 0.24015161 0.039921336
0.087178275 0.331204 0.030682756
-0.086702593 0.35482609 0.037439473
-0.025505587 -0.35903773 0.041283399
-0.035484768 -0.29440001 0.040976509
0.18588887 -0.29747865 0.043462347
0.21862487 -0.29739526 0.044120904
0.18799953 -0.27045801 0.0447185
-0.225849 0.058736287 0.047341652
0.22030196 0.18260136 0.045743473
-0.225849 0.28355283 0.04399316
-0.07994251 0.331204 0.044029929
-0.036838099 0.33166599 0.049074888
-0.01422558 0.33166599 0.047112025
0.15606441 0.35485575 0.047298014
-0.16833442 -0.3590315 0.054806557
-0.017376641 -0.35902944 0.058858778
0.059197865 -0.35903281 0.052141771
-0.19671145 -0.29733819 0.056483798
-0.225849 -0.10329197 0.059118681
-0.225849 -0.074993707 0.053942565
0.146837 -0.037880361 0.052982867
0.22792313 0.1266014 0.05814822
0.146837 0.15784045 0.051483743
-0.225849 0.23298314 0.058328062
-0.225849 0.26590014 0.059386425
0.22846 0.32345945 0.058169991
-0.104212 0.331204 0.055737339
-0.087726846 0.331204 0.058345016
0.11230191 0.331204 0.052570738
0.14238468 0.331204 0.057059631
0.20505904 0.33166599 0.058600541
0.22934133 0.3369112 0.058221355
-0.18566757 0.35521877 0.051226664
-0.12200258 0.3548463 0.059316404
-0.22460225 -0.35053527 0.068299308
0.052445382 -0.35902396 0.069744512
-0.14296041 -0.29440001 0.069356017
-0.08670637 -0.29730728 0.063211769
0.146837 -0.24073924 0.069379136
0.146837 -0.18443725 0.066379569
0.146837 -0.12829655 0.066480242
0.146837 -0.10464485 0.066635013
0.146837 -0.095436834 0.061678775
-0.225849 -0.059330516 0.061254516
-0.225849 -0.035228617 0.0623894
0.146837 0.045053493 0.063841894
0.214789 0.31811824 0.063538015
-0.1539584 0.33166599 0.061196126
-0.06447117 0.331204 0.063377574
-0.039301384 0.331204 0.066119485
0.22590697 0.33068222 0.064783394
0.17266893 0.35486871 0.068789966
0.10677592 -0.35900688 0.070711337
-0.054373916 -0.29726398 0.071483642
0.12196507 -0.29440001 0.079649366
0.19539362 -0.27045801 0.076361246
0.146837 -0.032016225 0.074982867
-0.225849 0.14036746 0.077072248
-0.225849 0.25199717 0.077980295
-0.12002052 0.331204 0.078875773
0.022537543 0.331204 0.071010344
0.048637129 0.33166599 0.075839743
0.19029827 0.331204 0.070869349
0.11937204 -0.35899094 0.086069405
0.0049134418 -0.29440001 0.087574884
0.081060633 -0.29714358 0.08844763
0.13142407 -0.297245 0.080661014
0.18994257 -0.27045798 0.087444618
0.20866318 -0.27045801 0.088508092
0.21033484 -0.27045801 0.086159892
-0.225849 -0.22317743 0.089681596
0.146837 -0.19623536 0.083399005
0.146837 -0.11139636 0.086947173
0.2268275 0.2097431 0.087429136
0.21361656 0.307724 0.086722039
-0.1793659 0.33166599 0.083272859
-0.089442119 -0.35899922 0.097494401
0.22814196 -0.33231771 0.097660542
-0.081383742 -0.2971034 0.090747602
0.17378494 -0.29578266 0.091364145
-0.225849 -0.1937996 0.092749864
0.146837 -0.18571068 0.092981167
0.2281417 -0.18958543 0.095310949
0.22813955 -0.14029901 0.098202184
-0.225849 -0.016169846 0.092661455
0.146837 -0.0068108737 0.095998488
0.22808078 0.13694166 0.094441988
-0.225849 0.14655703 0.097471997
0.146837 0.19204876 0.090154678
0.22846 0.31677121 0.095235407
-0.020949483 0.331204 0.09166275
0.090676464 0.33166599 0.0963718
0.21025622 0.331204 0.094204709
-0.085171245 0.3548446 0.096968696
0.068523489 0.35484031 0.099735372
0.10342981 0.35485259 0.097752236
0.20633608 0.35905302 0.091400161
-0.018200569 -0.3589884 0.1056193
0.10752101 -0.35897279 0.10457664
0.22664985 -0.35826123 0.1080703
-0.21632075 -0.29693219 0.10479519
0.072731622 -0.29691103 0.10695311
0.18306509 -0.20513479 0.107141
-0.225849 -0.19338068 0.10113934
0.214789 -0.03212098 0.10918014
0.21389663 0.039562959 0.107141
0.16668683 0.045557767 0.107141
0.16627792 0.064504698 0.107141
0.21362662 0.077754185 0.107141
-0.225849 0.1428611 0.10752105
0.17171615 0.22043347 0.107141
0.18436696 0.23750006 0.107141
0.146837 0.24228153 0.10307471
-0.099920936 0.331204 0.10608352
0.047882047 0.33166599 0.10477338
0.077640139 -0.35897452 0.11102805
0.22814153 -0.33237621 0.11436515
-0.17838106 -0.29440001 0.11707643
0.0066043027 -0.29680762 0.11385328
0.214789 -0.22507487 0.11016427
0.22845998 0.31256077 0.11586468
-0.04785037 0.33166599 0.11733985
0.030273564 0.33166599 0.1146193
0.11693791 0.33166599 0.11365171
-0.16326828 -0.35895979 0.12440173
-0.057769001 -0.35895625 0.12654744
0.09296982 -0.35894439 0.12672642
-0.22466964 -0.34178761 0.1256129
-0.22467294 -0.31676692 0.12726347
-0.16470413 -0.29440001 0.12224934
-0.020816661 -0.29440001 0.12528408
0.090530746 -0.29673132 0.12024502
0.17764144 -0.29440001 0.12606913
0.19656523 -0.29672149 0.12516898
0.22815847 -0.23642084 0.12353934
0.22846 0.31347007 0.12331306
-0.010081977 0.33166599 0.12310245
-0.13733488 0.3548727 0.12388983
0.17173436 0.35488528 0.12155057
-0.092420138 -0.3589406 0.13582206
-0.075393058 -0.3589409 0.13567457
0.15523767 -0.35890406 0.13732259
-0.063002311 -0.29440004 0.13080001
-0.012173243 -0.2964046 0.13910647
0.214789 -0.11634083 0.13129587
-0.225849 0.10439213 0.13331375
-0.19119552 0.331204 0.13076736
-0.069176994 0.331204 0.13993523
0.1756341 0.331204 0.13956544
-0.20082468 0.35905299 0.13134372
-0.15602587 0.35488176 0.13040581
0.21562153 0.35905299 0.13965541
-0.025082853 -0.29633152 0.14324614
-0.017506775 -0.2962485 0.14794685
-0.0073782038 -0.29636604 0.14129023
0.083923697 -0.29440001 0.14641277
0.18117446 -0.2964626 0.14020503
0.22815801 -0.052706197 0.14246254
0.214789 -0.026636004 0.1475337
0.214789 0.01213704 0.14736958
-0.225849 0.26719657 0.14039764
0.214789 0.28749105 0.14522788
-0.14583163 0.331204 0.144054
-0.080912456 0.33166599 0.14635739
-0.22461104 -0.34693602 0.15641606
-0.028572753 -0.29610765 0.1556074
0.22806078 -0.28884369 0.15911123
0.214789 -0.1783251 0.15420446
0.214789 -0.057840064 0.15792373
0.228159 -0.050628506 0.15483038
0.214789 0.14232521 0.1577066
0.214789 0.30096126 0.15949935
-0.22314087 0.33128804 0.15680134
0.078717858 0.3548604 0.15042642
-0.20356742 -0.3588796 0.16742265
0.054593384 -0.35888767 0.16364653
0.12115972 -0.35885572 0.16846344
0.22809777 -0.34300721 0.16072336
-0.019837312 -0.29440001 0.16803801
0.15069158 -0.29603842 0.16208449
-0.225849 -0.17809369 0.16354561
-0.225849 0.28936717 0.16551463
-0.052985653 0.331204 0.16380937
0.12781146 -0.3588402 0.17461617
-0.18335626 -0.29571235 0.17517659
-0.16507494 -0.29440001 0.17780787
-0.013057319 -0.29440001 0.17046277
0.072512493 -0.29440001 0.17099896
0.18519577 -0.29440004 0.17665677
0.20504764 -0.29440001 0.17240487
0.214789 -0.24943878 0.17286538
-0.225849 -0.13332325 0.17287827
-0.225849 -0.053605191 0.17289436
0.22815901 0.053814262 0.17367852
-0.225849 0.20919913 0.17865525
0.214789 0.20960593 0.17893547
-0.10506508 0.331204 0.17010495
-0.070100933 0.33166599 0.17794004
0.039178986 0.331204 0.17484719
0.22876412 0.35719705 0.17702726
-0.2245983 -0.35263357 0.18969764
-0.17892164 -0.35882971 0.18959865
0.17967026 -0.3587988 0.18446714
0.17570907 -0.29440001 0.18165925
0.20739523 -0.29440001 0.18447074
0.228159 -0.25049484 0.18294565
0.22815898 -0.094780982 0.1801604
-0.225849 0.033880249 0.18785441
0.214789 0.24437702 0.18521176
0.22846 0.30954501 0.18638605
-0.15936007 0.331204 0.18676646
-0.090316936 0.33166599 0.18472667
0.15167379 0.33166599 0.18591426
-0.18631841 0.35536885 0.18459931
-0.12670369 0.35488701 0.18041009
-0.22468445 -0.34218711 0.19480519
-0.22468449 -0.3296091 0.19108099
-0.087835051 -0.29518449 0.19835082
-0.030870635 -0.29533187 0.19224514
-0.012674782 -0.29515645 0.19951022
0.025449634 -0.29440001 0.19846618
0.036806308 -0.29440001 0.19055556
0.15993887 -0.29440001 0.19085294
0.22815891 -0.069727093 0.19343066
0.228159 0.05707676 0.19026074
-0.17150056 0.33166599 0.19890364
0.077504531 0.33166599 0.19641173
-0.081456512 0.35487473 0.19360264
0.084995329 0.35487536 0.19000363
0.11068728 -0.35877666 0.2039253
0.0018475205 -0.29440001 0.2092908
0.014838975 -0.29440001 0.20699616
0.1104501 -0.29440001 0.20994912
0.214789 -0.24173073 0.20960775
0.22815806 -0.13424481 0.20951739
-0.225849 0.20358996 0.20235735
-0.225849 0.218027 0.206091
0.214789 0.28608459 0.20495719
0.22845823 0.31177744 0.20876551
0.22845894 0.3238233 0.20252773
0.18215853 0.33166599 0.20839405
0.12829165 0.35489526 0.20242628
0.044801701 -0.3587625 0.21637703
0.17970923 -0.3587299 0.21232103
-0.19456179 -0.29482117 0.21323955
-0.16526428 -0.29440001 0.21619746
-0.014729708 -0.29440001 0.21441513
0.022051467 -0.29466534 0.21935716
0.214789 -0.13203561 0.21204703
0.2281567 -0.035330679 0.21755126
0.214789 0.21119118 0.21116981
0.214789 0.2370681 0.21655276
-0.1154978 0.33166599 0.21289195
-0.1241397 0.35507098 0.21027043
-0.098299697 0.3573398 0.21997304
-0.0080163898 0.35626101 0.21650377
0.046247888 0.35536844 0.21283284
-0.0099826278 -0.35872886 0.22886007
0.099792756 -0.35873681 0.22064865
-0.13650402 -0.29451427 0.22528803
0.061818868 -0.29454452 0.22416615
0.096680604 -0.29454476 0.22502582
0.15210262 -0.29452151 0.22729115
-0.225849 -0.2327397 0.22848867
0.22815534 -0.22519524 0.22481818
0.214789 -0.12338884 0.22825167
0.214789 -0.11267954 0.22642311
0.22815603 -0.039105523 0.2211096
-0.225849 -0.017747022 0.22373267
-0.225849 0.019227058 0.22396547
0.214789 0.050444275 0.22235949
0.22146982 0.21715376 0.22754027
0.21461183 0.32855743 0.2246149
-0.054693315 0.331204 0.22687866
-0.021054901 0.33166599 0.22419032
0.18892226 0.33166599 0.22318995
-0.13308474 0.35900223 0.22628501
-0.17377704 -0.35872185 0.23143446
-0.12511738 -0.29440001 0.23110406
0.22815147 -0.028596569 0.23519632
-0.225849 0.025795773 0.23348404
-0.225849 0.12339702 0.23381019
0.22815137 0.20399913 0.2354432
-0.22960524 0.331204 0.23507114
-0.10713976 0.331204 0.23636919
-0.037332803 0.331204 0.23318832
0.010543972 0.33166599 0.23623207
0.14177078 0.33166599 0.23522766
0.1623116 0.331204 0.23308739
-0.22285995 -0.29398692 0.24536452
-0.074226469 -0.29394147 0.24708566
0.0071832766 -0.29440001 0.24938811
-0.225849 -0.17803901 0.24468838
0.214789 -0.012092325 0.24922752
0.214789 0.19435465 0.24460657
-0.16295202 0.33166599 0.24886261
0.19704315 0.33166599 0.24155712
0.14171989 0.35905299 0.24441025
-0.10533449 -0.34180984 0.25996444
-0.069441468 -0.34630829 0.25982732
0.21676892 -0.34912968 0.25853908
0.052422784 -0.33049899 0.25997996
0.22258817 -0.33984032 0.25838158
-0.22469652 -0.32406116 0.25764418
0.045361932 -0.32931936 0.25999755
0.20571902 -0.32045242 0.25911295
0.084164232 -0.30314311 0.25987846
0.22017354 -0.30389613 0.25867185
-0.12668501 -0.2930634 0.25758663
0.015641622 -0.2905274 0.25879598
0.053485632 -0.29905033 0.25999892
-0.21023731 -0.28661761 0.25886199
-0.046334252 -0.28450817 0.25886199
0.19062318 -0.282756 0.25886199
0.214789 -0.2882292 0.2522099
-0.090198413 -0.25087953 0.25886199
0.12984711 -0.25640225 0.25886199
0.1891555 -0.259617 0.25886199
0.11678183 -0.22323386 0.25886199
0.19707516 -0.22268738 0.25886199
-0.1510985 -0.21494618 0.25886199
0.14882034 -0.21181223 0.25886199
-0.07636901 -0.20984921 0.25886199
0.093929939 -0.20487988 0.25886199
0.10494053 -0.19703329 0.25886199
0.1473486 -0.1825344 0.25886199
-0.225849 -0.15165849 0.25109524
-0.19765899 -0.15165731 0.25886199
0.0037979111 -0.14581527 0.25886199
0.12160493 -0.14739044 0.25886199
0.12502608 -0.13762482 0.25886199
0.16322371 -0.13164923 0.25886199
-0.21838096 -0.12597263 0.25886199
-0.065272629 -0.12225697 0.25886199
0.032556444 -0.12102909 0.25886199
0.2272108 -0.11897878 0.2534408
-0.15449032 -0.076857723 0.25886199
-0.13308841 -0.065218382 0.25886199
0.12605953 -0.069440782 0.25886199
-0.04727488 -0.041202277 0.25886199
0.028482266 -0.045914635 0.25886199
0.091381602 -0.034517191 0.25886199
-0.074468285 -0.023115769 0.25886199
-0.19999203 -0.012909248 0.25886199
-0.10326178 -0.019811183 0.25886199
0.13987853 -0.013794132 0.25886199
0.21468543 -0.011815369 0.25533202
-0.21160589 -0.0074375272 0.25886199
-0.18554196 0.010977089 0.25886199
-0.21529657 0.025529036 0.25886199
0.17148015 0.033963166 0.25886199
-0.03982465 0.049384564 0.25886199
0.11842705 0.048893452 0.25886199
0.16732195 0.040360756 0.25886199
0.10268013 0.053434979 0.25886199
-0.18096703 0.086197548 0.25886199
0.12891309 0.09013544 0.25886199
-0.20505206 0.10945731 0.25886199
-0.15465537 0.10274895 0.25886199
-0.009473227 0.10117165 0.25886199
0.0374511 0.10439773 0.25886199
-0.14575633 0.11996029 0.25886199
-0.094741404 0.11024605 0.25886199
-0.039882541 0.11585741 0.25886199
0.18685634 0.11183858 0.25886199
-0.1958148 0.12937424 0.25886199
0.029454809 0.13125677 0.25886199
-0.14039095 0.15429842 0.25886199
-0.12833679 0.15571898 0.25886199
0.055933461 0.15991077 0.25886199
0.17568395 0.15688621 0.25886199
-0.17090112 0.16618241 0.25886199
0.14893454 0.16532061 0.25886199
-0.19143552 0.17280659 0.25886199
-0.014304079 0.17707852 0.25886199
-0.19247395 0.18808278 0.25886199
-0.16034599 0.18562911 0.25886199
0.18621868 0.18493618 0.25886199
0.033865321 0.194343 0.25886199
-0.096359573 0.20891394 0.25886199
0.099804454 0.20487316 0.25886199
0.22807392 0.20800169 0.25098205
-0.19006072 0.22116506 0.25886199
-0.11310948 0.22477342 0.25886199
0.074116282 0.2238988 0.25886196
-0.036075488 0.23644692 0.25886199
-0.0015699565 0.23044655 0.25886199
-0.18045713 0.24043502 0.25886199
-0.12032206 0.24165887 0.25886199
-0.09502627 0.24006668 0.25886199
0.20129198 0.25101119 0.25886199
0.054186273 0.2615132 0.25886199
0.22163188 0.27099481 0.25879836
0.092364758 0.28368929 0.25886199
0.087868914 0.29101136 0.25886199
-0.1980398 0.30340365 0.25886199
0.026288949 0.30582446 0.25886199
0.12234653 0.30638275 0.25886199
-0.17554283 0.31786752 0.25886199
0.011664845 0.31117755 0.25886199
-0.092115365 0.32855618 0.25859144
-0.033042766 0.32008773 0.25886199
0.1892423 0.32380563 0.25886199
-0.048452102 0.3309831 0.25693196
0.20686121 0.33166599 0.25332904
-0.03450394 0.34762764 0.25997749
0.048581645 0.34921283 0.25992632
0.10037453 0.35905299 0.25441864
0.16117868 0.35905299 0.25237662
0.18643789 0.35518682 0.25973344
-0.091611654 -0.32829982 0.2601319
0.045586452 -0.32094201 0.26003581
-0.074200183 -0.31635702 0.26015937
0.21637487 -0.065416135 0.26018372
-0.060226675 0.34247056 0.26014394
