# .PCD v0.7 - Point Cloud Data file format
VERSION 0.7
FIELDS x y z
SIZE 4 4 4
TYPE F F F
COUNT 1 1 1
WIDTH 968
HEIGHT 1
VIEWPOINT 0 0 0 1 0 0 0
POINTS 968
DATA ascii
-0.054077052 -0.428541 -0.16408633
0.037930977 -0.428541 -0.16659397
0.048103899 -0.42716795 -0.166655
-0.12370174 -0.41539526 -0.166655
-0.075089648 -0.41684094 -0.166655
-0.058632161 -0.41267464 -0.166655
0.041699819 -0.41866815 -0.166655
0.027633876 -0.40119132 -0.166655
-0.14072834 -0.39812958 -0.166655
-0.066137284 -0.39191639 -0.166655
0.10570059 -0.38582554 -0.166655
0.1264728 -0.38717499 -0.166655
0.14504446 -0.38322625 -0.166655
-0.18617111 -0.37281632 -0.166655
-0.14837001 -0.36517319 -0.166655
-0.020782884 -0.36814642 -0.166655
0.021052346 -0.36243522 -0.166655
-0.069339052 -0.35967922 -0.166655
-0.057769444 -0.35411781 -0.166655
-0.0041391775 -0.33230346 -0.166655
0.018694028 -0.33710384 -0.166655
0.04794316 -0.33938742 -0.166655
0.0745482 -0.33438897 -0.166655
-0.14618924 -0.32641751 -0.166655
-0.010601033 -0.32223526 -0.166655
0.033528984 -0.32478285 -0.166655
-0.074844651 -0.3182703 -0.166655
-0.0011941828 -0.31608361 -0.166655
-0.17822389 -0.29428485 -0.166655
0.120556 -0.29032102 -0.166655
0.15344389 -0.29345793 -0.166655
-0.013766346 -0.28044486 -0.166655
0.083041236 -0.28718415 -0.166655
-0.036277622 -0.2726658 -0.166655
0.076030836 -0.27821708 -0.166655
-0.045207787 -0.26994905 -0.166655
0.13711491 -0.25996161 -0.166655
-0.19420369 -0.24861953 -0.166655
0.042950854 -0.24205533 -0.166655
0.11055855 -0.24650055 -0.166655
0.12484054 -0.24692322 -0.166655
0.13898993 -0.24033707 -0.166655
0.066798471 -0.23605517 -0.166655
-0.023743086 -0.22751112 -0.166655
0.044921972 -0.22819065 -0.166655
0.059529148 -0.22279835 -0.166655
0.090829223 -0.22886935 -0.166655
0.10361035 -0.22725911 -0.166655
0.14472617 -0.22365795 -0.166655
0.039983857 -0.2182468 -0.166655
0.11364096 -0.21809864 -0.166655
-0.1266903 -0.20679972 -0.166655
0.015312279 -0.20355636 -0.166655
0.052441835 -0.20672852 -0.166655
0.087562613 -0.20124134 -0.166655
0.1302667 -0.19134617 -0.166655
-0.17692673 -0.18538804 -0.166655
-0.16485855 -0.18191412 -0.166655
0.05500862 -0.18475327 -0.166655
0.078347176 -0.18225488 -0.166655
-0.0082747787 -0.17402145 -0.166655
-0.11434771 -0.16960847 -0.166655
0.086318925 -0.16976137 -0.166655
-0.024766929 -0.15212455 -0.166655
0.12090979 -0.15430063 -0.166655
0.076559134 -0.14563036 -0.166655
0.083452746 -0.13326508 -0.166655
0.045689177 -0.12491274 -0.166655
0.058588382 -0.12296008 -0.166655
-0.18758656 -0.11861212 -0.166655
-0.10433508 -0.11454179 -0.166655
0.14467999 -0.11257058 -0.166655
0.048934437 -0.10727794 -0.166655
-0.083750553 -0.09985885 -0.166655
-0.026329376 -0.091068052 -0.166655
0.02419436 -0.089932024 -0.166655
0.048433959 -0.081271969 -0.166655
-0.061332583 -0.074094452 -0.166655
-0.00072007626 -0.074424483 -0.166655
0.083141536 -0.075327851 -0.166655
0.12226021 -0.077100031 -0.166655
-0.18229295 -0.057164978 -0.166655
-0.049350813 -0.051925723 -0.166655
0.024462096 -0.054715753 -0.166655
0.0093806833 -0.041771282 -0.166655
0.085256994 -0.041167371 -0.166655
-0.070915602 -0.031052077 -0.166655
-0.066810921 -0.035110533 -0.166655
0.042106166 -0.022837821 -0.166655
0.06869702 -0.013228937 -0.166655
0.084404968 -0.016928025 -0.166655
0.092012241 -0.019805279 -0.166655
-0.19641501 -0.0096276766 -0.16439998
-0.15484269 -5.5817e-09 -0.16090411
0.033816285 -0.0018402757 -0.166655
-0.11378342 0.0097842524 -0.166655
-0.019504495 0.006872769 -0.166655
0.014343157 0.0014623314 -0.166655
0.14082168 0.0028104819 -0.166655
-0.074174613 0.019118022 -0.166655
-0.029095531 0.010123261 -0.166655
-0.073676363 0.023564106 -0.166655
-0.026685804 0.037029844 -0.166655
-0.10989571 0.048839863 -0.166655
-0.096705116 0.044191718 -0.166655
0.011288755 0.044325642 -0.166655
0.13860713 0.049085729 -0.166655
-0.19641501 0.055012867 -0.16084035
-0.021346383 0.05986996 -0.166655
0.041138366 0.055894047 -0.166655
0.11736154 0.050052546 -0.166655
-0.18757257 0.062009763 -0.166655
0.12995726 0.067941919 -0.166655
0.13744882 0.068969034 -0.166655
-0.032350637 0.071422674 -0.166655
0.027309045 0.075846873 -0.166655
0.036581151 0.079786681 -0.166655
-0.096125543 0.08352875 -0.166655
0.084726311 0.088300079 -0.166655
-0.051475137 0.095439687 -0.166655
0.0092010051 0.09514001 -0.166655
0.033067167 0.095314518 -0.166655
-0.069842465 0.1005612 -0.166655
0.034225561 0.10298137 -0.166655
-0.18123955 0.11181252 -0.166655
-0.14035442 0.11466348 -0.166655
-0.052299306 0.12791492 -0.166655
0.083412766 0.13243313 -0.166655
0.011759624 0.14109345 -0.166655
0.001103932 0.15543932 -0.166655
-0.071324825 0.16506255 -0.166655
0.05708015 0.16337861 -0.166655
-0.11922309 0.17462537 -0.166655
-0.048360161 0.17244339 -0.166655
-0.027909674 0.17024076 -0.166655
0.0083732717 0.17325988 -0.166655
-0.19348642 0.19928767 -0.166655
0.00031568855 0.19147742 -0.166655
-0.19641501 0.20643744 -0.16093673
-0.18328822 0.20727229 -0.166655
-0.14717042 0.20253207 -0.166655
0.06523867 0.20420134 -0.166655
-0.045129918 0.21847381 -0.166655
0.1204076 0.21678473 -0.166655
0.17091954 0.21117701 -0.166655
-0.19289018 0.22794907 -0.166655
0.0084469542 0.22842824 -0.166655
-0.17059951 0.23885116 -0.166655
-0.12453963 0.23861033 -0.166655
0.11116287 0.23799098 -0.166655
0.051538486 0.25383997 -0.166655
-0.1137896 0.26175928 -0.166655
-0.064990088 0.26754349 -0.166655
0.11172734 0.2641798 -0.166655
0.11630279 0.27576503 -0.166655
0.1534729 0.27939352 -0.166655
-0.18773146 0.28839985 -0.166655
-0.11187752 0.28018773 -0.166655
-0.19641501 0.29312491 -0.16259588
-0.16658223 0.29655844 -0.166655
-0.1492366 0.29733729 -0.166655
-0.097933084 0.2936877 -0.166655
0.120576 0.29878211 -0.166655
0.16273008 0.29231432 -0.166655
0.172607 0.2936132 -0.16028295
-0.098348655 0.30104473 -0.166655
-0.17962015 0.31186393 -0.166655
0.074202135 0.31375876 -0.166655
0.091043159 0.31117824 -0.166655
-0.069383435 0.32381001 -0.166655
0.12556003 0.32123664 -0.166655
0.14185756 0.331045 -0.166655
-0.17577466 0.34695616 -0.166655
-0.13566345 0.35627201 -0.166655
0.13014098 0.35845196 -0.166655
0.17123617 0.35346931 -0.166655
-0.15774328 0.36322477 -0.166655
0.020914339 0.36816916 -0.166655
0.074806854 0.37162614 -0.166655
0.10634598 0.37192088 -0.166655
0.12567541 0.37813312 -0.166655
0.13362767 0.37334886 -0.166655
-0.17456745 0.3824583 -0.166655
-0.14847472 0.38770112 -0.166655
-0.13095205 0.38595703 -0.166655
-0.12661985 0.3855291 -0.166655
0.094873279 0.38198659 -0.16665502
0.16859786 0.38897571 -0.166655
-0.12036721 0.39925078 -0.166655
0.085352063 0.39198089 -0.166655
-0.10915218 0.40320787 -0.166655
-0.090866864 0.40144378 -0.166655
0.017336763 0.41698191 -0.166655
0.033837013 0.428541 -0.16078834
0.12300655 0.42271146 -0.166655
-0.090959519 -0.428541 -0.15306979
0.010825738 -0.428541 -0.15620488
0.14724815 -0.428541 -0.15326968
0.172607 -0.3444618 -0.15395629
0.172607 -0.20239568 -0.15620607
-0.19641501 -0.11861538 -0.15900534
0.172607 -0.091917425 -0.15255806
-0.0040448043 -5.5817e-09 -0.15838966
0.0034235902 -5.5817e-09 -0.15299404
0.172607 0.064612247 -0.15735851
-0.19641501 0.16957757 -0.15597245
0.172607 0.33164775 -0.15405114
-0.13853566 0.428541 -0.15175734
0.062576883 0.428541 -0.15444106
0.15567648 0.428541 -0.15185663
-0.17496178 -0.428541 -0.14440656
0.172607 -0.4102025 -0.1434865
-0.19641501 -0.40565979 -0.14840043
0.172607 -0.34568354 -0.14930317
0.172607 -0.24924652 -0.14223857
0.172607 -0.1751615 -0.14980194
0.172607 -0.10943876 -0.14212115
-0.13768534 -5.5817e-09 -0.14545332
-0.10158137 -5.5817e-09 -0.14482877
-0.092819169 -5.5817e-09 -0.14772153
0.0095450208 -5.5817e-09 -0.14815879
0.11948875 -5.5817e-09 -0.14125764
0.16664369 -5.5817e-09 -0.14572546
0.172607 0.01638384 -0.1451987
-0.19641499 0.10536821 -0.14802246
0.172607 0.20169356 -0.14358331
0.172607 0.27773899 -0.14910655
0.172607 0.30057755 -0.14555325
-0.19641499 0.39904436 -0.14672986
0.011584707 0.428541 -0.14654073
0.029187649 0.428541 -0.14571911
0.067817405 0.428541 -0.14177953
0.11324033 0.428541 -0.14342389
-0.19641501 -0.42667145 -0.13156979
-0.084250048 -0.428541 -0.13979757
0.013877179 -0.428541 -0.13194719
0.038079269 -0.428541 -0.13177118
0.079454303 -0.428541 -0.13795552
0.17165203 -0.428541 -0.13406877
0.172607 -0.40066037 -0.13996257
-0.19641501 -0.39825985 -0.13570218
-0.19641501 -0.21172236 -0.13496353
0.18400532 -0.20044893 -0.13069065
-0.066763602 -5.5817004e-09 -0.13051885
-0.024654381 -5.5817e-09 -0.13458799
0.079300135 -5.5817e-09 -0.13600494
-0.19641501 0.062813602 -0.1398509
-0.19641501 0.12631099 -0.13535175
-0.19641501 0.15712687 -0.13657355
-0.19641501 0.16894846 -0.13246047
0.12888975 0.428541 -0.13785535
-0.089327052 -0.428541 -0.12725496
0.017333064 -0.428541 -0.1271048
0.061327234 -0.428541 -0.1276471
0.172607 -0.28862098 -0.12038444
-0.19641501 -0.27949023 -0.12778458
0.18732865 -0.162386 -0.12395929
-0.19641501 -0.11911178 -0.12521136
0.172607 -0.10983902 -0.1280079
0.172607 -0.044074174 -0.12590566
-0.19641501 -0.023394335 -0.12159196
-0.15427688 -5.5817e-09 -0.12693197
-0.031204186 -5.5817004e-09 -0.12617235
0.097855702 -5.5817e-09 -0.12315455
0.18062526 0.21511215 -0.12948692
0.18218896 0.25795713 -0.12675945
0.17914759 0.26041844 -0.12633558
-0.0034001023 0.428541 -0.12619774
0.097083248 0.428541 -0.12194708
-0.12960233 -0.428541 -0.11303403
-0.19641501 -0.37392569 -0.11279802
0.172607 -0.29929957 -0.11037827
-0.19641501 -0.2860336 -0.11196349
0.18266696 -0.2640433 -0.11497191
0.19641501 -0.20438364 -0.11614168
-0.19641501 -0.15358873 -0.11432758
-0.19641501 -0.09502431 -0.1171961
-0.17326012 -5.5817e-09 -0.11136225
-0.14808553 -5.5817e-09 -0.11287523
-0.019208509 -5.5817e-09 -0.11333853
0.015495759 -5.5817e-09 -0.11863879
0.037497561 -5.5816995e-09 -0.11633381
0.052799135 -5.5817e-09 -0.11793084
0.172607 0.022290375 -0.11786719
-0.19641501 0.17238353 -0.11691873
0.19641501 0.26757583 -0.11645862
0.18177998 0.28255379 -0.11716633
-0.19641501 0.34775469 -0.118871
0.172607 0.41230619 -0.11069816
-0.11591797 0.428541 -0.11884075
-0.012209177 0.428541 -0.11524359
0.0062818527 0.428541 -0.11286636
0.15940425 -0.428541 -0.10733837
-0.19641501 -0.41274416 -0.10538219
0.172607 -0.36157736 -0.10022239
-0.19641501 -0.22559817 -0.1030497
0.18451101 -0.22829732 -0.10316041
0.18754365 -0.17157437 -0.10199511
0.19641501 -0.17346522 -0.10795586
-0.19641501 -0.14001223 -0.10847019
-0.19641501 -0.11874914 -0.10174835
-0.19641501 -0.073770776 -0.10929593
0.172607 -0.048711531 -0.10258777
-0.18002588 -5.5817004e-09 -0.10102911
0.061859563 -5.5816995e-09 -0.10883868
0.1075082 -5.5817e-09 -0.10289198
-0.19641501 0.11789442 -0.1064069
0.18460025 0.1531335 -0.10759164
0.172607 0.32574391 -0.10612462
-0.19641501 0.33422804 -0.10861564
-0.19641501 0.36918938 -0.10550646
-0.028823927 0.428541 -0.10870212
0.020210668 0.428541 -0.10908014
0.083726488 0.428541 -0.10218126
0.10261436 0.428541 -0.10321712
-0.19537574 -0.428541 -0.095305577
-0.044236138 -0.428541 -0.098043568
0.10755114 -0.428541 -0.094140232
-0.076622576 -5.5817e-09 -0.093411237
-0.012359466 -5.5817e-09 -0.094047792
0.172607 0.10882314 -0.095204562
-0.19641501 0.13185248 -0.090642318
-0.19641501 0.34374282 -0.092171028
0.172607 0.39744908 -0.094899826
0.17230192 0.42479694 -0.092875555
-0.17913583 -0.428541 -0.082442969
-0.067709774 -0.428541 -0.086454421
-0.0037883967 -0.428541 -0.081161708
0.18715805 -0.26364541 -0.086607888
0.18451101 -0.22407681 -0.089455135
0.18451101 -0.17575896 -0.081552766
0.172607 -0.077373534 -0.088648543
-0.12542576 -5.5817e-09 -0.08569821
-0.093792208 -5.5817e-09 -0.08071243
0.018236101 -5.5817e-09 -0.084673345
0.082110152 -5.5817e-09 -0.083999231
0.13840356 -5.5817e-09 -0.08553347
-0.19641501 0.26101831 -0.084905617
0.18451102 0.27794132 -0.086160555
0.18560687 0.29167318 -0.083369762
-0.16137291 0.42854103 -0.089420132
-0.10285758 0.428541 -0.083115675
-0.19641501 -0.11401826 -0.0796149
0.172607 -0.058984894 -0.076818019
-0.14471047 -5.5817e-09 -0.077463873
-0.0018947572 -5.5817e-09 -0.070464909
0.005552765 -5.5817e-09 -0.073163159
0.172607 0.0075916685 -0.077037737
-0.19641501 0.091367126 -0.072018944
-0.19641501 0.15669461 -0.075454287
-0.19641501 0.24827002 -0.071295828
0.19641501 0.33178058 -0.072876059
0.021790249 0.428541 -0.076418862
-0.11790261 -0.428541 -0.069071203
-0.0011788085 -0.428541 -0.064098105
0.098369256 -0.428541 -0.06605953
-0.19641501 -0.16863577 -0.06914638
0.19195743 -0.11870693 -0.065121487
-0.18885875 -5.5817e-09 -0.060392424
-0.11976041 -5.5817004e-09 -0.069131449
-0.070946395 -5.5816995e-09 -0.066393301
-0.0024517998 -5.5817e-09 -0.060182843
0.1464822 -5.5817e-09 -0.064623497
-0.19641501 0.058753211 -0.062198617
-0.19641501 0.23422679 -0.069289938
0.18451101 0.27649242 -0.069213815
0.18721263 0.33895123 -0.066284396
0.172607 0.36683422 -0.065043241
-0.17698911 0.428541 -0.063641854
-0.018563889 0.428541 -0.067877129
0.04221138 0.428541 -0.067718059
-0.089079142 -0.428541 -0.056715652
0.011326745 -0.428541 -0.054250345
0.06989938 -0.428541 -0.059944008
-0.19641501 -0.39521727 -0.050671019
0.172607 -0.37657654 -0.057274863
-0.19641501 -0.31517094 -0.050534643
0.17758408 -0.31842795 -0.059045337
0.18451101 -0.29283524 -0.050965283
0.18451101 -0.25049573 -0.050995722
0.18451101 -0.24950354 -0.058197848
-0.19641501 -0.23408437 -0.050078616
0.18451101 -0.17532171 -0.050984573
0.19641501 -0.097286507 -0.050475746
-0.19641501 -0.044865355 -0.052644283
0.172607 -0.020625202 -0.059914809
0.18451101 0.22309507 -0.057805918
-0.19641501 0.23385304 -0.052198425
0.18451101 0.29409558 -0.053001754
0.172607 0.40714863 -0.050476879
-0.10990354 0.428541 -0.055242047
0.0051533431 0.428541 -0.056749567
0.030915681 0.428541 -0.050596748
-0.060490519 -0.428541 -0.040567309
0.172607 -0.42244965 -0.044074006
-0.19641501 -0.38255671 -0.04001341
-0.19641501 -0.29892763 -0.04551639
-0.19641501 -0.20986028 -0.049071766
-0.19641501 -0.15798597 -0.047291666
-0.19641501 -0.12384755 -0.045646191
-0.19641501 -0.11737809 -0.044390697
0.172607 -0.071381904 -0.04130654
0.172607 -0.045410234 -0.042347774
-0.13297959 -5.5817e-09 -0.044568427
-0.026310038 -5.5817004e-09 -0.044588964
0.15023707 -5.5817e-09 -0.043462496
-0.19641501 0.00032707298 -0.041951969
-0.19641501 -0.4235515 -0.037929438
0.10967147 -0.428541 -0.030813929
0.14078927 -0.428541 -0.035862342
0.172607 -0.3333081 -0.034908365
-0.19641501 -0.078065194 -0.035197329
0.19162869 -0.077673219 -0.038206398
-0.17392118 -5.5817e-09 -0.038830683
-0.049637832 -5.5817e-09 -0.039783657
-0.037789553 -5.5817e-09 -0.030604348
0.038382757 -5.5817e-09 -0.035455506
0.048353404 -5.5817e-09 -0.035756633
0.080078915 -5.5817e-09 -0.035366669
0.17087775 -5.5816995e-09 -0.032459632
-0.19641501 0.0011330922 -0.038738064
-0.19641501 0.057294697 -0.03877848
-0.19641501 0.19541185 -0.032019999
-0.19641501 0.2032776 -0.038783375
0.17839976 0.3505806 -0.03890093
0.18976571 0.35274071 -0.033246908
0.19079685 0.35153353 -0.036600228
-0.19641501 0.40551192 -0.031362366
-0.19641501 0.41537899 -0.038235083
-0.12279983 0.428541 -0.033674166
-0.00525067 0.428541 -0.038779408
0.050338682 0.428541 -0.033559136
0.060428217 -0.428541 -0.028418019
0.11787002 -0.428541 -0.025434092
0.19501349 -0.33044714 -0.021744404
0.18451101 -0.19296117 -0.020767167
-0.19641501 -0.18669839 -0.021214379
-0.13509004 -5.5817e-09 -0.028297611
-0.049677923 -5.5817e-09 -0.026831986
0.13091476 -5.5816995e-09 -0.026610821
0.1574626 -5.5816995e-09 -0.022513248
0.18902831 0.12288576 -0.027658287
0.19641501 0.33353549 -0.020375317
-0.18434787 0.428541 -0.027765185
-0.00068243127 0.428541 -0.026780328
0.015302798 0.428541 -0.023672454
0.1372114 0.428541 -0.02637472
-0.17061941 -0.428541 -0.011488825
-0.092491508 -0.428541 -0.014372006
-0.037783377 -0.428541 -0.014639392
-0.19641501 -0.34651962 -0.016046062
0.19641501 -0.32941115 -0.011685445
0.18451101 -0.24093127 -0.013721582
-0.19641501 -0.23054279 -0.017600298
-0.19641501 -0.10746446 -0.011203293
0.18451101 -0.10578823 -0.013106232
-0.19641501 -0.039776061 -0.018200304
-0.19641501 -0.019176412 -0.014443767
0.172607 -0.017945889 -0.016125213
-0.16699773 -5.5817e-09 -0.013450839
-0.080964744 -5.5817e-09 -0.019611018
-0.076817572 -5.5817e-09 -0.012183622
-0.02526246 -5.5817e-09 -0.016442891
-0.0050248876 -5.5817e-09 -0.010262698
-0.19641501 0.27124515 -0.017594205
-0.19641501 0.41614687 -0.017947316
0.0091249272 0.428541 -0.010828771
0.15926529 0.428541 -0.010578774
-0.17794979 -0.428541 -0.0033704415
0.037740409 -0.428541 -0.0065352377
0.12987624 -0.428541 -0.0055824593
0.18301043 -0.33211452 -0.0090802563
-0.19641501 -0.27885342 -0.007209979
-0.19641501 -0.26771957 -0.0041777343
-0.19641501 -0.18865199 -0.0067963377
0.18451101 -0.15223992 -0.00073479116
-0.13732594 -5.5817e-09 -0.0039850473
0.05450717 -5.5817e-09 -0.0053623235
0.085120872 -5.5817e-09 -0.0042135417
0.192633 0.12023955 -0.0075553944
-0.19641501 0.31744927 -0.0064242929
-0.11622614 -0.428541 0.0076758713
0.172607 -0.3648836 0.0048178621
-0.19641501 -0.3556585 0.0041572358
0.17551874 -0.33258975 0.0054706912
0.18451101 -0.29747069 0.005676467
0.18451101 -0.2637313 0.00069346838
0.18451101 -0.25396025 0.0050126016
-0.19641501 -0.2328531 0.0091797095
0.18451101 -0.10978505 0.0085911229
0.17902158 -0.071544036 0.00091632112
-0.19313252 -5.5817e-09 0.0071402341
-0.088560909 -5.5817e-09 0.0032936484
0.086535156 -5.5817004e-09 0.0015277267
0.14181162 -5.5817e-09 0.0019624382
0.172607 0.032974284 0.0071327016
0.172607 0.079511784 0.008372223
-0.19641501 0.19669232 0.0037821685
0.18451101 0.19500092 0.0091300346
-0.19641501 0.21273281 0.0083624199
0.18451101 0.22246327 0.00035163015
0.18451101 0.27859965 0.0026055526
-0.19641501 0.31310695 0.006874498
0.172607 0.36441407 0.0070735477
-0.10412437 0.428541 0.0068331361
0.020521522 -0.428541 0.01890327
0.032621842 -0.428541 0.016742703
-0.19641501 -0.35707706 0.013439812
0.18451101 -0.25125921 0.018769544
0.18451101 -0.13497922 0.010377273
0.18451101 -0.11107332 0.015074033
0.19641501 -0.096558176 0.010966606
-0.082526721 -5.5817e-09 0.012878358
-0.041545216 -5.5817e-09 0.018960744
-0.020238545 -5.5817e-09 0.014762353
0.13677032 -5.5817e-09 0.01228869
0.18451101 0.21730512 0.019636108
0.18451101 0.27685499 0.017630095
0.19641501 0.33311683 0.012531403
0.12895262 -0.428541 0.028852791
-0.19641501 -0.41535884 0.021440998
0.18451101 -0.30648506 0.021237502
0.19641501 -0.089799352 0.022362679
-0.19641501 -0.077841461 0.024692832
0.172607 -0.055706456 0.023110524
-0.12413843 -5.5817e-09 0.026291057
0.075867884 -5.5817e-09 0.029198235
0.18451101 0.1577301 0.025078546
0.18451101 0.27840492 0.025652634
-0.036107056 0.428541 0.025502473
0.069723107 0.428541 0.029016703
-0.19584021 -0.428541 0.038316786
0.058292042 -0.428541 0.030014038
0.10720976 -0.428541 0.037514701
-0.19641501 -0.2739619 0.039474476
0.19318826 -0.10287046 0.036825154
-0.19641501 -0.069190644 0.037004121
-0.018618584 -5.5817e-09 0.03647247
0.033651136 -5.5817e-09 0.038091175
0.172607 0.086276107 0.03210099
0.18862268 0.10110228 0.037293296
-0.19641501 0.23893172 0.038810816
0.172607 0.3581219 0.03178408
0.12480396 -0.42854103 0.04133869
0.172607 -0.40386963 0.042914756
-0.19641501 -0.38845184 0.040374309
-0.19641501 -0.23989321 0.043651931
0.18451101 -0.13450976 0.045683313
-0.19641501 -0.10069563 0.047715575
-0.19641501 -0.082320735 0.04218537
0.1906282 -0.081366219 0.04712192
-0.13484327 -5.5817e-09 0.048248708
-0.049812887 -5.5817e-09 0.040782571
0.059492987 -5.5817e-09 0.041894525
0.10849944 -5.5817e-09 0.04371753
0.172607 0.0061476706 0.044603519
-0.19641501 0.17348841 0.048220068
0.18451101 0.17321542 0.042526305
0.18451101 0.32272568 0.040973511
0.172607 0.41175702 0.044731557
-0.10315637 -0.428541 0.05381836
-0.045651555 -0.428541 0.056886204
0.024190761 -0.428541 0.050227363
0.172607 -0.38177347 0.054304175
-0.19641501 -0.31200016 0.052038368
0.18451101 -0.26604861 0.055453643
-0.19641501 -0.21916533 0.05093744
0.18451101 -0.14270765 0.057424679
-0.19641501 -0.13339598 0.058963038
-0.19641501 -0.068599984 0.057506226
-0.18371086 -5.5817e-09 0.058901757
-0.020924037 -5.5817e-09 0.055504549
0.064782135 -5.5816995e-09 0.053053446
0.093316846 -5.5817e-09 0.056719821
0.10159524 -5.5816995e-09 0.057024468
0.1721043 -5.5817e-09 0.058773953
0.18451101 0.29123434 0.051702499
0.172607 0.39483869 0.050240248
-0.18462768 0.428541 0.055017237
0.0064706821 0.428541 0.052309722
0.14400837 0.428541 0.050515123
-0.075897396 -0.428541 0.068368122
0.19641501 -0.31244192 0.061616566
-0.19641501 -0.29947084 0.064865351
-0.19641501 -0.23252262 0.062063567
0.172607 -0.082697675 0.063072637
-0.19641501 -0.041524343 0.063413799
-0.13135147 -5.5817e-09 0.06781207
-0.099504821 -5.5817e-09 0.061571077
-0.010801114 -5.5817e-09 0.067634486
0.043838415 -5.5817e-09 0.06870687
0.12227175 -5.5817e-09 0.063543566
0.13754012 -5.5817e-09 0.068415835
0.18451101 0.27059138 0.062924244
0.17680506 0.33886856 0.066392116
0.172607 0.36606783 0.060216047
0.172607 0.39712322 0.063623689
-0.14322576 0.428541 0.062067594
0.02030779 0.428541 0.063241586
0.14057904 0.428541 0.063536331
-0.081745327 -0.428541 0.074175023
0.05110959 -0.428541 0.073053032
0.10456 -0.428541 0.070383206
0.172607 -0.40377069 0.07602194
-0.19641501 -0.38308054 0.076049209
0.172607 -0.36326247 0.070846453
-0.19641501 -0.35744038 0.074571393
0.172607 -0.33006841 0.070307493
0.18451101 -0.17885552 0.071673453
0.18451101 -0.14025804 0.071273893
0.19641501 -0.11010019 0.077993639
0.172607 -0.091228016 0.070577145
-0.19641501 -0.04717283 0.07075505
-0.096136533 -5.5817e-09 0.075608604
0.071634755 -5.5817004e-09 0.070543543
0.12034667 -5.5816995e-09 0.071519122
0.14143842 -5.5817e-09 0.079840332
0.172607 0.088640518 0.076577038
-0.19641501 0.11279152 0.071027286
0.18451101 0.20574781 0.071814455
-0.19641501 0.22235656 0.075721607
0.19641501 0.32997715 0.074705303
0.1922275 0.33521166 0.071157716
-0.19641501 0.34280401 0.073517978
-0.034597632 0.428541 0.073575795
0.011618782 0.428541 0.077967137
0.12035648 0.428541 0.07198561
0.14528944 0.428541 0.076800138
-0.049607381 -0.428541 0.088276267
0.032673895 -0.428541 0.085295051
0.19641501 -0.26019841 0.089803033
0.18451101 -0.19944812 0.082431398
0.18451101 -0.14186399 0.08533188
0.19641501 -0.13167581 0.085301675
-0.19641501 -0.085059181 0.087697819
0.172607 -0.046561182 0.086831242
-0.16366836 -5.5817e-09 0.088240065
-0.14470164 -5.5817e-09 0.084214076
-0.030986637 -5.5817e-09 0.087783724
0.026796892 -5.5817e-09 0.088414453
-0.19641501 0.083611079 0.086130396
-0.19641501 0.11455496 0.089424208
-0.19641501 0.13987629 0.088839993
0.18451101 0.2102814 0.081803426
0.18451101 0.22516823 0.088721849
-0.16183795 0.428541 0.087052256
-0.10049006 0.428541 0.080209047
-0.038959369 0.428541 0.080092266
0.094009936 0.428541 0.080133498
0.172607 0.42704928 0.084785365
-0.17213857 -0.428541 0.096823961
-0.0082023367 -0.428541 0.094283193
0.172607 -0.36238018 0.097533852
-0.19641501 -0.34414205 0.098888904
-0.19641501 -0.33632588 0.093379021
0.19641501 -0.28281993 0.098272905
0.18451101 -0.18325859 0.097008489
-0.19641501 -0.036914483 0.091816716
-0.1136161 -5.5816995e-09 0.091655269
-0.10958996 -5.5817e-09 0.092444718
-0.092188627 -5.5817e-09 0.091053955
-0.039765179 -5.5817e-09 0.093588784
0.076926045 -5.5817e-09 0.092974126
0.084161244 -5.5817004e-09 0.090311937
0.12651527 -5.5817004e-09 0.098475978
-0.19641501 0.032698561 0.096375316
0.172607 0.11837229 0.090281822
-0.19641501 0.13409983 0.097773075
0.18451101 0.23895836 0.099831671
0.18451101 0.24199373 0.090550572
0.19641501 0.28584585 0.095322192
0.18929526 0.31124908 0.098357841
0.19641501 0.3105168 0.093409225
0.172607 0.38340843 0.095861055
-0.14522554 0.428541 0.097824842
0.13949409 0.428541 0.090843379
-0.19641501 -0.42379043 0.10040493
-0.069216199 -0.428541 0.10555837
0.172607 -0.42289478 0.1086169
0.172607 -0.39182836 0.10886358
-0.19641501 -0.28342357 0.10043801
0.19641501 -0.16354474 0.10232383
0.18569818 -0.12003221 0.10046057
-0.15809546 -5.5817e-09 0.10238563
-0.14035501 -5.5817e-09 0.10396413
-0.070025899 -5.5817e-09 0.10370362
0.0032977723 -5.5816995e-09 0.10731073
0.035386916 -5.5817e-09 0.10055491
0.084946707 -5.5817e-09 0.10047243
0.096381806 -5.5817e-09 0.10452141
-0.19641501 0.13422184 0.10326432
-0.19641501 0.14058159 0.10560938
0.178846 0.14696392 0.1028575
-0.19641501 0.18305188 0.10451683
0.18938689 0.22035491 0.1061638
-0.19641501 0.25952622 0.10144047
-0.19641501 0.3749603 0.1078488
-0.19641501 0.41068476 0.10317761
-0.19641501 -0.40399241 0.11682881
-0.19641501 -0.3341777 0.11041702
0.172607 -0.10858405 0.11719549
-0.1782562 -5.5817e-09 0.11138775
0.039973732 -5.5817e-09 0.11404441
0.090294339 -5.5817e-09 0.11366668
0.172607 0.027101548 0.11830293
-0.19641501 0.072862789 0.11412942
-0.19641501 0.14063448 0.11331094
0.1877436 0.2797986 0.11830762
0.172607 0.32859942 0.11339711
-0.038818952 0.428541 0.11840102
0.035313614 0.428541 0.11990753
0.13062307 0.428541 0.11756128
-0.15649974 -0.428541 0.1272593
0.070106871 -0.428541 0.12898317
0.172607 -0.31022954 0.12317577
0.172607 -0.29336041 0.12660889
0.172607 -0.28595978 0.12566122
-0.19641501 -0.2000145 0.12186781
0.172607 -0.16078022 0.12552434
-0.19641501 -0.09125609 0.12931475
-0.16283622 -5.5816995e-09 0.12028815
-0.10050476 -5.5817e-09 0.1267266
0.010547146 -5.5817e-09 0.12164146
0.1004663 -5.5817004e-09 0.12893452
0.11062279 -5.5817004e-09 0.12542105
0.16015509 -5.5817e-09 0.12456787
0.172607 0.051549636 0.12230462
0.17899963 0.18278801 0.1225484
-0.19641501 0.2243347 0.12381031
-0.19641501 0.23434393 0.12794489
0.172607 0.28396925 0.12473911
0.172607 0.3335062 0.12998609
-0.19641501 0.34484839 0.12827432
-0.19641501 0.35659891 0.12131547
-0.19641501 0.38003591 0.1225964
0.038214941 0.428541 0.1250789
0.057907481 0.428541 0.12900332
0.14699288 0.428541 0.12798098
-0.17933378 -0.428541 0.13125378
-0.039468504 -0.428541 0.13274091
0.172607 -0.4126718 0.13366111
-0.19641501 -0.29451728 0.13063924
-0.19641501 -0.20794009 0.13793835
0.172607 -0.20262551 0.13413167
-0.19641501 -0.083750136 0.13704807
-0.063978478 -5.5817e-09 0.13806506
-0.050502919 -5.5817e-09 0.13838759
-0.027046744 -5.5817e-09 0.13515455
0.17146578 -5.5817e-09 0.13660738
0.172607 0.012644161 0.13800997
0.172607 0.3229208 0.1341829
-0.19641501 0.41462228 0.13398132
-0.16813882 0.428541 0.13255769
-0.15760042 0.428541 0.13885018
-0.049323153 0.428541 0.13973968
0.1122386 0.428541 0.13561475
-0.084281459 -0.428541 0.14635558
0.0031134486 -0.428541 0.1445159
0.031253677 -0.428541 0.14100111
0.12252995 -0.428541 0.14110026
-0.19641501 -0.36603054 0.14116362
0.172607 -0.31508818 0.14182723
-0.11482637 -5.5816995e-09 0.14053895
0.099613965 -5.5817e-09 0.1428524
0.13597743 -5.5817e-09 0.14012375
-0.19641501 0.1606265 0.14668502
-0.19641501 0.3062138 0.1482465
-0.19641502 0.32052013 0.14142805
-0.19641501 0.35334185 0.14745641
0.018243792 0.428541 0.14039993
0.044900395 0.428541 0.14250347
0.078200139 0.428541 0.14529645
0.172607 -0.27322143 0.15732801
-0.19641501 -0.24168125 0.15521637
0.172607 -0.19999582 0.15446091
0.172607 -0.031372834 0.15022324
0.172607 -0.01842453 0.1501929
-0.13766685 -5.5817e-09 0.1524367
-0.083554372 -5.5817004e-09 0.1510676
-0.077459484 -5.5817e-09 0.15326437
0.172607 0.13925193 0.15773417
-0.19641501 0.289341 0.15722394
-0.19641501 0.32258931 0.15750594
-0.14031219 0.428541 0.15718269
-0.11271636 0.428541 0.157442
-0.051558834 0.428541 0.15347096
0.013738198 0.428541 0.15303645
0.1160133 0.428541 0.15783113
-0.19581765 -0.42839739 0.166655
0.063676879 -0.40434819 0.166655
0.078633219 -0.40791914 0.166655
0.080374032 -0.40679425 0.166655
-0.036465373 -0.39426267 0.166655
0.063709155 -0.39279789 0.166655
-0.19641501 -0.38701412 0.16515203
0.0036631301 -0.38530654 0.166655
0.045513112 -0.3875522 0.166655
-0.19641501 -0.37347078 0.16232727
-0.11792774 -0.37226233 0.166655
0.071479335 -0.37546107 0.166655
0.16125815 -0.37226367 0.166655
-0.12986602 -0.36500618 0.166655
-0.068923727 -0.36013871 0.166655
0.030775309 -0.36906499 0.166655
0.14391504 -0.36500221 0.166655
0.1543863 -0.36823159 0.166655
-0.19641501 -0.35269257 0.16538981
-0.18210667 -0.34899381 0.166655
-0.16186269 -0.34394252 0.166655
-0.092839003 -0.33837175 0.166655
-0.079345062 -0.32817781 0.166655
-0.0091582462 -0.32273594 0.166655
0.042329274 -0.32376733 0.166655
-0.11953622 -0.31237504 0.166655
0.017685128 -0.31497982 0.166655
0.078623131 -0.3085393 0.166655
0.172607 -0.30911964 0.16088723
-0.19641501 -0.29347488 0.16499083
-0.11148035 -0.29767749 0.166655
0.10669345 -0.29725441 0.166655
0.14304662 -0.29827672 0.166655
-0.16333799 -0.28214738 0.166655
-0.14848988 -0.28492799 0.166655
-0.13871521 -0.28719106 0.166655
0.08858721 -0.2898612 0.166655
-0.060210735 -0.27799338 0.166655
-0.057580844 -0.2754927 0.166655
0.16301998 -0.26961622 0.166655
-0.0015037972 -0.25332034 0.166655
0.04007709 -0.24478416 0.166655
0.13641155 -0.24608156 0.166655
-0.17100134 -0.23440222 0.166655
-0.041763783 -0.23981041 0.166655
-0.015185744 -0.23345359 0.166655
0.031331152 -0.22814107 0.166655
-0.13470483 -0.21358451 0.166655
0.060875215 -0.21378048 0.166655
0.11067438 -0.21490584 0.166655
0.040463384 -0.19733644 0.166655
-0.023381785 -0.18405747 0.166655
-0.017911883 -0.18423578 0.166655
0.05642793 -0.18850677 0.166655
-0.14984939 -0.1778045 0.166655
-0.0090613104 -0.1744864 0.166655
0.12429091 -0.17271125 0.166655
-0.19641501 -0.16541174 0.16289371
-0.0027392842 -0.16521835 0.166655
0.16807871 -0.15404132 0.166655
0.0065045059 -0.14094941 0.166655
0.159916 -0.14415035 0.166655
-0.13827877 -0.13486795 0.166655
0.043667935 -0.13729304 0.166655
0.068775341 -0.13562915 0.166655
0.099285647 -0.13224012 0.166655
0.15692326 -0.13516593 0.166655
-0.17392482 -0.12409785 0.166655
-0.1588171 -0.12766637 0.166655
0.030027751 -0.12998968 0.166655
0.14542866 -0.12510462 0.166655
0.15553981 -0.10702648 0.166655
0.172607 -0.1064221 0.1625956
-0.030936688 -0.097090401 0.166655
-0.19641501 -0.087992169 0.16013694
-0.019005414 -0.083324187 0.166655
0.013048967 -0.084931977 0.166655
0.084749304 -0.081701487 0.166655
0.019049376 -0.079921879 0.166655
0.025109287 -0.070088543 0.166655
0.020662643 -0.061102528 0.166655
0.028743446 -0.053353801 0.166655
-0.15406254 -0.046813641 0.166655
-0.078076944 -0.046538919 0.166655
0.058724526 -0.044392105 0.166655
-0.021486059 -0.039330155 0.166655
0.096679732 -0.038925949 0.166655
-0.099001929 -0.023759719 0.166655
0.036590084 -0.028520908 0.166655
0.15863129 -0.026380027 0.166655
-0.021742716 -0.017380435 0.166655
-0.0035545207 -5.5817e-09 0.16364928
0.012222056 -5.5817e-09 0.16583517
0.052006312 -5.5817e-09 0.16580959
0.0054807737 0.008966512 0.166655
0.11681627 0.0018296873 0.166655
0.17260699 0.0074376049 0.16541496
0.0052324384 0.01385646 0.166655
0.14780663 0.019023295 0.166655
-0.17539322 0.024098732 0.166655
0.047603786 0.025118537 0.166655
0.14050345 0.028758669 0.166655
-0.069229871 0.033045609 0.166655
-0.15225686 0.047514483 0.166655
-0.12567393 0.043985888 0.166655
0.015025161 0.040596373 0.166655
0.096849762 0.043434929 0.166655
0.11905795 0.047100578 0.16665502
0.14733152 0.04280962 0.166655
-0.068350822 0.05554074 0.166655
-0.19390632 0.067074604 0.166655
-0.13214506 0.064477935 0.166655
-0.12178932 0.066825412 0.166655
-0.14512607 0.075313896 0.166655
0.037999094 0.071275517 0.166655
-0.17509167 0.087731443 0.166655
-0.16916704 0.0834371 0.166655
0.05153881 0.090823881 0.166655
0.14744246 0.10077355 0.166655
-0.019041009 0.12173892 0.166655
0.16261716 0.12448324 0.166655
-0.19325383 0.14441533 0.166655
0.045265228 0.14719006 0.166655
-0.1930209 0.15475439 0.166655
-0.020448811 0.16377009 0.166655
-0.15778701 0.17450157 0.166655
0.11885332 0.17134504 0.166655
0.16505775 0.18377022 0.166655
-0.15973726 0.19131008 0.166655
-0.14944957 0.19776332 0.166655
-0.11600682 0.19558091 0.166655
0.048890859 0.19632483 0.166655
0.089812599 0.19065769 0.166655
0.1199436 0.19430265 0.166655
0.12176546 0.19892435 0.166655
-0.15826964 0.2040851 0.166655
-0.10985926 0.20369412 0.166655
0.08578296 0.2067835 0.166655
-0.13269004 0.21395837 0.166655
0.004792559 0.21304841 0.166655
-0.18243453 0.23189917 0.166655
-0.13074315 0.23986731 0.166655
0.10558664 0.2343993 0.166655
0.13823149 0.24749476 0.166655
0.1723724 0.24326485 0.166655
-0.18355536 0.25521013 0.166655
-0.17796141 0.25722751 0.166655
-0.036525205 0.26768795 0.166655
0.1497556 0.26323983 0.166655
0.13823397 0.27505863 0.166655
-0.059393756 0.29883042 0.166655
0.13635264 0.29881683 0.166655
0.025710326 0.30081049 0.166655
0.172607 0.32937908 0.16452689
-0.17999037 0.33606604 0.166655
-0.077442236 0.33359855 0.166655
0.05596064 0.33314499 0.166655
-0.092589654 0.34785146 0.166655
-0.021231808 0.3443566 0.166655
0.0013749599 0.35245606 0.166655
0.017934896 0.35254502 0.166655
0.10756977 0.36745948 0.166655
0.15013525 0.3659302 0.166655
-0.13246123 0.37680796 0.166655
-0.096929461 0.37920776 0.166655
-0.026702672 0.37454855 0.166655
-0.006271027 0.37329113 0.166655
0.075364135 0.37667364 0.166655
0.16114123 0.37907973 0.166655
0.172607 0.38095802 0.16087236
-0.18354954 0.39356923 0.166655
-0.12856314 0.39657533 0.166655
-0.04309544 0.39599514 0.166655
0.044594571 0.3924045 0.166655
0.05794201 0.3930524 0.166655
-0.15503979 0.40902552 0.166655
-0.14477001 0.40468785 0.166655
0.14252687 0.41897032 0.166655
0.12980843 0.42500845 0.166655
0.16101378 0.42854103 0.16372147
