# .PCD v0.7 - Point Cloud Data file format
VERSION 0.7
FIELDS x y z
SIZE 4 4 4
TYPE F F F
COUNT 1 1 1
WIDTH 971
HEIGHT 1
VIEWPOINT 0 0 0 1 0 0 0
POINTS 971
DATA ascii
-0.13344139 -0.33268487 -0.25112
0.024799548 -0.33186227 -0.25112
-0.12627126 -0.32811624 -0.25112
0.12541413 -0.32592109 -0.25112
0.16312686 -0.32693678 -0.25112
-0.23127778 -0.30684727 -0.25112
-0.016150467 -0.3052268 -0.25112
0.08794079 -0.30496791 -0.25112
-0.090386719 -0.29024705 -0.25112
-0.083479159 -0.28789765 -0.25112
-0.059008755 -0.28154796 -0.25112003
0.084102407 -0.28883314 -0.25112
0.096210115 -0.28778145 -0.25112
0.1316752 -0.27205113 -0.25112
0.16415757 -0.27249548 -0.25112
-0.24194622 -0.26763773 -0.25112
-0.16367766 -0.26336077 -0.25112
-0.15172863 -0.25367242 -0.25112
-0.14390315 -0.25113457 -0.25112
-0.090720847 -0.25973973 -0.25112
0.029118024 -0.25281549 -0.25112
0.1020374 -0.25455171 -0.25112
-0.24014914 -0.24587964 -0.25112
0.10741573 -0.23734479 -0.25112
-0.12054048 -0.22426823 -0.25112
-0.10829617 -0.22655204 -0.25112
-0.090577848 -0.22322381 -0.25112
0.07881356 -0.22741513 -0.25112
-0.18901128 -0.21078411 -0.25112
-0.06507729 -0.21544996 -0.25112
-0.059385501 -0.21420516 -0.25112
-0.0055155978 -0.20579629 -0.25112
0.029464826 -0.20499094 -0.25112
0.058765031 -0.20108229 -0.25112
0.067083642 -0.19138685 -0.25112
-0.14905898 -0.18269458 -0.25112
-0.18011513 -0.17759499 -0.25112
-0.14856485 -0.17941017 -0.25112
0.14710429 -0.16989008 -0.25112
0.21143867 -0.16827413 -0.25112
0.062594324 -0.15644224 -0.25112
0.21709922 -0.1492147 -0.25112
-0.23850745 -0.13191406 -0.25112
-0.153759 -0.13774239 -0.25112
-0.12750809 -0.13250922 -0.25112
-0.074751168 -0.13468972 -0.25112
-0.021387186 -0.13025191 -0.25112
0.19589275 -0.13699387 -0.25112
-0.11285698 -0.12182001 -0.25112
0.015512578 -0.12642574 -0.25112
0.12553494 -0.12229573 -0.25112
-0.17283398 -0.11022293 -0.25112
0.20067097 -0.11004955 -0.25112
-0.1768539 -0.10567603 -0.25112
-0.10863449 -0.10650484 -0.25112
-0.036617607 -0.10954457 -0.25112
-0.029307351 -0.10378368 -0.25112
0.076607138 -0.10337402 -0.25112
0.17356856 -0.10212902 -0.25112
-0.26322013 -0.094991483 -0.25112
-0.23546544 -0.093226865 -0.25112
-0.1315885 -0.097163349 -0.25112
0.045766063 -0.095025018 -0.25112
0.11492135 -0.09535794 -0.25112
0.14228986 -0.092118725 -0.25112
0.20383653 -0.096601605 -0.25112
0.23946804 -0.096492745 -0.25112
0.10307135 -0.084655382 -0.25112
0.20876759 -0.080063879 -0.25112
0.24405277 -0.084933273 -0.25112
-0.23438057 -0.075150661 -0.25112
-0.22295341 -0.078183316 -0.25112
0.050030433 -0.076016903 -0.25112
0.068636328 -0.070257321 -0.25112
0.055055708 -0.066422462 -0.25112
0.15600318 -0.06996239 -0.25112
-0.085540652 -0.055054933 -0.25112
0.23013303 -0.043339916 -0.25112
-0.11938179 -0.032771491 -0.25112
-0.094964072 -0.031805828 -0.25112
-0.079806201 -0.03840284 -0.25112
0.020361952 -0.032860562 -0.25112
0.24815169 -0.03587155 -0.25112
-0.17487839 -0.024709582 -0.25112
0.10712795 -0.023542117 -0.25112
-0.24016248 -0.0077702999 -0.25112
-0.18136451 -0.0068065897 -0.25112
0.04577601 -0.00012010336 -0.25112
-0.20282511 0.012017161 -0.25112
-0.18177611 0.018397234 -0.25112
-0.13270774 0.025234189 -0.25112
-0.031649485 0.025955018 -0.25112
0.011785559 0.029395491 -0.25112
0.11719798 0.022160005 -0.25112
0.19988781 0.027670749 -0.25112
0.22867763 0.029055147 -0.25112
-0.004886867 0.038659606 -0.25112
0.054393925 0.037731938 -0.25112
-0.13002142 0.046464823 -0.25112
-0.20769799 0.051056765 -0.25111997
-0.059512056 0.068132743 -0.25112
0.012684047 0.061807759 -0.25112
0.064287208 0.068778358 -0.25112
0.12955287 0.06815441 -0.25112
0.14798011 0.069840521 -0.25112
-0.20235109 0.076712944 -0.25112
-0.17967518 0.076149426 -0.25112
-0.081537828 0.070273623 -0.25112
-0.067948915 0.073815353 -0.25112
-0.0034233183 0.076694719 -0.25112
0.053322352 0.074657321 -0.25112
0.13041988 0.070510633 -0.25112
-0.23039111 0.085950367 -0.25112
-0.11662863 0.080614582 -0.25112
0.044278391 0.087642245 -0.25112
0.087022454 0.081414148 -0.25112
0.098183215 0.081842273 -0.25112
-0.25050363 0.095110409 -0.25112
-0.024261653 0.099851161 -0.25112
-0.014766477 0.092712834 -0.25112
0.10605276 0.10293646 -0.25112
0.14912127 0.1087876 -0.25112
0.18219721 0.10177051 -0.25112
0.20676969 0.10105689 -0.25112
-0.012175269 0.1126321 -0.25112
-0.00080905482 0.11076762 -0.25112
-0.25863767 0.12483846 -0.25112
-0.12562349 0.12935254 -0.25112
-0.0094441697 0.12859322 -0.25112
0.20750028 0.12699908 -0.25112
-0.076646991 0.13148314 -0.25112
-0.09581624 0.14690092 -0.25112003
-0.065277435 0.14280792 -0.25112
-0.26396099 0.15574473 -0.25028956
-0.017107096 0.15131395 -0.25112
0.013884619 0.16848621 -0.25112
0.15622637 0.16734807 -0.25112
-0.14599185 0.1771652 -0.25112
0.21906775 0.17863004 -0.25112
-0.2091949 0.19066793 -0.25112
-0.18030833 0.19010159 -0.25112
-0.13856257 0.19739687 -0.25112
0.0591074 0.1923309 -0.25112
0.13314857 0.19418395 -0.25112003
0.15294524 0.19923648 -0.25112
0.21881256 0.19916405 -0.25112
-0.13554001 0.20240116 -0.25112
-0.11099329 0.20775419 -0.25112003
0.19482091 0.20356427 -0.25112
-0.19926521 0.21125227 -0.25112
-0.18034333 0.21846759 -0.25112
-0.012270473 0.21630874 -0.25112
0.014583319 0.21877687 -0.25112
0.04057448 0.21287706 -0.25112
0.060553715 0.21966846 -0.25112
-0.18622191 0.22146872 -0.25112
-0.073761918 0.22950263 -0.25112
-0.0041699633 0.22060174 -0.25112
0.15798151 0.22966172 -0.25112
-0.06011986 0.23962682 -0.25112
0.096419491 0.23928045 -0.25111997
0.12427895 0.23374248 -0.25112
-0.19328637 0.25864601 -0.25112
-0.0044400916 0.25113526 -0.25112
0.059054121 0.25232428 -0.25112
-0.23631145 0.26506874 -0.25112
-0.10934781 0.2677533 -0.25112
-0.060087949 0.26112333 -0.25112
-0.16011837 0.27505821 -0.25112
-0.032244243 0.27138284 -0.25112
0.0467363 0.27023429 -0.25112
0.011403382 0.28918314 -0.25112
0.15958008 0.28278118 -0.25112
0.14984491 0.29749984 -0.25112
-0.14415473 0.31471294 -0.25112
-0.10120404 0.31081793 -0.25112
0.0034600981 0.31463781 -0.25112
-0.02224388 0.342437 -0.25026965
0.12287733 0.3415699 -0.25112
0.19937119 0.34096876 -0.25112
-0.043374743 -0.342437 -0.24119468
0.032554761 -0.342437 -0.24191113
-0.26396099 -0.26409605 -0.24987845
0.24969301 -0.052421588 -0.24541329
0.24969301 0.011420259 -0.24755789
-0.26396099 0.041129783 -0.24566355
0.24969301 0.14418162 -0.24675477
0.24969301 0.17661928 -0.24729668
-0.26396099 0.18201011 -0.24240655
0.23712946 0.20451099 -0.24976569
0.22504935 0.25723106 -0.24350998
0.029474378 0.29963201 -0.24632673
0.24180551 0.2910473 -0.24351001
-0.1748794 0.30053192 -0.24350998
-0.15819637 0.304389 -0.24733773
0.17637375 0.304389 -0.24943747
0.19978963 0.30047131 -0.24350999
-0.024828844 0.342437 -0.24173568
-0.015707329 0.342437 -0.24124825
0.14241587 0.342437 -0.24990943
-0.21063542 -0.342437 -0.23331818
0.086315662 -0.342437 -0.23491432
-0.26396099 -0.31661472 -0.23534159
-0.26396096 -0.029589042 -0.23840299
-0.26396099 0.022189334 -0.23296191
-0.26396099 0.26790249 -0.23286751
-0.26396099 0.27741763 -0.23543447
-0.11132886 0.342437 -0.23366293
-0.10336031 -0.342437 -0.22814745
0.072677277 -0.342437 -0.22204603
0.24969301 -0.24334848 -0.22847581
0.24969301 -0.23747748 -0.22427192
0.24969301 0.14850882 -0.22328453
0.24969301 0.18389566 -0.22082014
-0.14796129 0.342437 -0.22968307
-0.028613828 0.342437 -0.22585475
0.19825158 0.342437 -0.2244806
0.23937097 0.342437 -0.22838691
-0.19558716 -0.342437 -0.21316898
-0.12623395 -0.342437 -0.21923457
-0.0038152784 -0.342437 -0.21341753
0.24479964 -0.342437 -0.21439604
-0.26396099 -0.22337103 -0.21625909
-0.26396099 -0.12181544 -0.21394074
-0.26396099 -0.068164878 -0.21487126
0.24969301 -0.0045497864 -0.21083933
0.24969301 0.047414284 -0.21576984
-0.121447 0.34243697 -0.21655145
0.15922499 0.342437 -0.21371499
-0.25450215 -0.342437 -0.2075783
-0.030917853 -0.342437 -0.20302463
-0.0056251809 -0.342437 -0.20014538
0.15224069 -0.342437 -0.20566975
0.21017417 -0.342437 -0.20113513
0.24969301 -0.14039007 -0.2091786
-0.26396099 -0.13878405 -0.20605326
-0.26396099 -0.088069081 -0.20752984
-0.26396099 -0.046270832 -0.20907512
-0.26396099 0.090989791 -0.20294648
-0.26396099 0.33714414 -0.20541917
-0.21012042 0.34243703 -0.20361839
-0.19669709 0.342437 -0.20585287
-0.050598018 0.342437 -0.20101455
-0.037233226 0.34243697 -0.20801434
0.15876763 0.34243697 -0.20913371
-0.25175008 -0.342437 -0.19993664
0.24969301 -0.33158162 -0.19429757
-0.26396099 -0.32585603 -0.19552696
0.24969301 -0.18845202 -0.19455494
-0.26396099 -0.16753921 -0.19806901
-0.26396099 -0.12473772 -0.19524449
-0.26396099 -0.11410509 -0.19894662
0.24969301 -0.10841715 -0.19512224
-0.26396099 -0.044449821 -0.19332363
0.24969301 -0.028248701 -0.19328913
-0.26396099 0.026276261 -0.19511732
0.24969301 0.17571707 -0.19958276
-0.14432374 0.342437 -0.19853303
-0.13855231 0.342437 -0.19496056
-0.064788178 0.34243697 -0.19002753
0.15446323 0.342437 -0.19151287
-0.26396099 -0.34115228 -0.18608399
-0.0090436824 -0.342437 -0.18872917
0.052259553 -0.342437 -0.18281052
-0.26396099 -0.31542742 -0.180831
0.24969301 -0.28747016 -0.18449834
0.24969301 -0.07934583 -0.18321818
-0.26396099 -0.069159612 -0.18000689
0.24969301 -0.015802816 -0.1834055
-0.26396099 0.064276621 -0.18377833
0.26282737 0.23402508 -0.18312919
0.25444901 0.27334997 -0.18552938
-0.21989784 0.342437 -0.18243776
-0.19283909 0.342437 -0.18521184
0.2425597 0.342437 -0.18901548
-0.11428102 -0.342437 -0.17199907
-0.059579425 -0.342437 -0.17002866
-0.038179938 -0.342437 -0.17369393
0.08696489 -0.342437 -0.17233044
0.14429042 -0.342437 -0.17454964
0.22127259 -0.342437 -0.17083709
-0.26396099 -0.26491493 -0.17844601
0.24969301 -0.25863025 -0.17358659
-0.26396099 -0.22697066 -0.17409582
0.24969301 -0.22246833 -0.17149481
-0.26396099 -0.18685502 -0.17035961
0.24969301 -0.04254901 -0.17128578
0.24969301 0.012190554 -0.17265515
-0.26396099 0.13145699 -0.17228243
0.24969301 0.14003485 -0.17262103
0.26396099 0.26418248 -0.17989951
0.25444901 0.31154528 -0.17482218
-0.11105952 0.342437 -0.1773372
0.0035107546 0.34243697 -0.17619431
0.05477114 -0.342437 -0.16987012
0.24969301 -0.16399792 -0.1640594
0.24969301 -0.11042461 -0.16591263
0.24969301 -0.089371234 -0.16308086
0.24969301 0.087195784 -0.16897768
0.24969301 0.11022145 -0.16341659
0.25444901 0.22225025 -0.16839077
-0.26396099 0.23228875 -0.16680281
-0.26396099 0.31832543 -0.16478419
-0.26396099 0.34114543 -0.16256033
-0.22797699 0.342437 -0.16147825
-0.060815003 0.342437 -0.16883884
0.054738574 0.342437 -0.16380221
0.071306229 0.342437 -0.1619059
-0.047773141 -0.34243703 -0.15660173
-0.26396099 -0.31075498 -0.1555233
-0.26396099 -0.30586052 -0.15877339
-0.26396099 -0.14832377 -0.15461704
-0.26396099 -0.1258688 -0.1587097
-0.26396099 -0.087696835 -0.15881607
0.24969301 0.18884717 -0.15287438
-0.26396099 0.25855708 -0.15202384
0.25444901 0.28356707 -0.15405057
-0.26396099 0.29921061 -0.15585983
-0.21990137 0.34243697 -0.15835959
-0.093029685 0.34243697 -0.15771858
0.0073150098 0.342437 -0.1539464
0.063846633 0.342437 -0.15808533
0.10767068 0.342437 -0.15078029
0.22075191 0.342437 -0.15599562
-0.23172045 -0.342437 -0.14792079
-0.013975728 -0.342437 -0.14670832
0.14918546 -0.34243703 -0.14092492
-0.26396099 -0.2971544 -0.14833194
-0.26396099 -0.22615677 -0.14672062
0.25364146 -0.060311493 -0.1413234
-0.26396099 -0.050679028 -0.14747831
-0.26396099 -0.039014339 -0.14414918
-0.26396099 0.036640346 -0.1455165
-0.26396099 0.043748677 -0.14011139
0.25920501 0.046805993 -0.14537843
-0.26396099 0.10244848 -0.14299747
0.25444901 0.25678247 -0.14823434
-0.26396099 0.28081003 -0.1444459
0.25444901 0.29226518 -0.14646512
-0.17334613 0.342437 -0.14806287
-0.014174957 0.342437 -0.14079343
0.044532023 0.342437 -0.1421417
0.24969301 -0.16123062 -0.13480204
0.24969301 0.14157242 -0.13747306
-0.17326373 0.342437 -0.13257204
0.22548765 -0.342437 -0.12406063
-0.26396099 -0.27814212 -0.124197
0.24969301 -0.23453963 -0.12687427
-0.26396099 -0.20090474 -0.12135251
-0.26396099 -0.16863579 -0.12775674
0.25920501 0.061849043 -0.12826721
-0.26396099 0.10079158 -0.12161431
-0.26396099 0.17426443 -0.12648052
0.24969301 0.19254822 -0.1296124
0.25444901 0.20505047 -0.12205867
0.25444901 0.29692513 -0.1231112
-0.22309375 0.34243697 -0.12734401
-0.085102722 0.34243697 -0.12934533
-0.0036592148 -0.342437 -0.11701278
0.24969301 -0.33340517 -0.11835222
-0.26396099 -0.26818138 -0.11673708
-0.26396099 -0.16576402 -0.1171907
-0.26396099 -0.14858063 -0.11392814
0.216401 -0.0053136498 -0.11185439
-0.26396099 0.10171123 -0.11109471
-0.26396099 0.3310588 -0.11192608
-0.019221641 0.342437 -0.11261602
0.074020214 0.342437 -0.11238421
0.17304492 0.342437 -0.11216833
0.24969301 -0.33913726 -0.10871171
0.24969301 -0.2471267 -0.10377041
-0.26396099 -0.23118 -0.10981339
0.24969301 -0.14624773 -0.10972921
0.23346788 -0.04622145 -0.10673173
-0.26396099 0.052249387 -0.10652433
-0.23350365 0.34243697 -0.10038522
0.10606115 0.342437 -0.10660793
0.25104079 0.34243697 -0.10288305
-0.18327515 -0.342437 -0.09481588
-0.10255594 -0.342437 -0.093335614
-0.083594352 -0.342437 -0.094286457
-0.053522307 -0.342437 -0.09851706
-0.035572238 -0.34243703 -0.091499522
-0.26396099 -0.076849721 -0.090169579
-0.26396099 0.19496021 -0.095869794
0.25967839 0.27121341 -0.093885697
-0.26396099 0.28608692 -0.099175356
0.14405315 0.342437 -0.095383994
0.17389286 0.342437 -0.095768139
-0.051032625 -0.342437 -0.088826008
0.096741155 -0.342437 -0.080821998
-0.26396099 -0.21063189 -0.089197725
0.24969301 -0.20051633 -0.081533894
0.24969301 -0.1706489 -0.086084478
-0.26396099 -0.074976169 -0.080348685
0.216401 0.050070196 -0.084119521
-0.26396099 0.08339072 -0.087186694
0.25920501 0.1203784 -0.084538504
-0.26396099 0.23613092 -0.086345404
-0.26396099 0.25598106 -0.084712468
-0.21094453 0.342437 -0.080894321
0.0068210363 0.342437 -0.088522196
0.01915095 0.342437 -0.089984111
0.073677301 0.342437 -0.082334533
-0.26319468 -0.34243703 -0.077819742
0.13573036 -0.342437 -0.076466613
0.19892064 -0.342437 -0.070947342
-0.26396099 -0.30614531 -0.073651172
-0.26396099 -0.22136134 -0.072786376
0.24969301 -0.1844911 -0.075047076
-0.26396099 -0.072450891 -0.074273206
0.216401 -0.071137711 -0.074509464
0.21640101 0.00035088556 -0.07604374
-0.26396099 0.17858526 -0.076735064
0.25444901 0.21487603 -0.078862742
-0.26396099 0.24538597 -0.075703293
-0.26396099 0.2926577 -0.076059848
-0.042591043 -0.342437 -0.067750104
0.22206643 -0.342437 -0.064861625
-0.26396099 -0.15520304 -0.064633705
0.22600091 -0.090833008 -0.063607916
0.21698162 -0.083958171 -0.066796802
-0.26396099 -0.028515682 -0.068212025
-0.26396099 -0.01350579 -0.064263307
-0.26396099 0.073488481 -0.067402646
0.21640098 0.095502064 -0.060200136
0.25444901 0.27333727 -0.062312517
0.25444901 0.32761168 -0.064614758
0.20093822 0.342437 -0.068865433
0.25920501 -0.12425037 -0.053074531
-0.26396099 0.11649407 -0.056705978
-0.26396099 0.34129652 -0.056992214
0.15767187 0.342437 -0.054441877
-0.26396099 -0.34167433 -0.049020372
0.093798012 -0.342437 -0.042267218
0.15816054 -0.34243697 -0.040054552
0.17195505 -0.34243703 -0.044144571
0.21362579 -0.342437 -0.046786014
-0.26396099 -0.32883573 -0.042451635
-0.26396099 -0.16837907 -0.043924652
-0.26396099 0.12176114 -0.043840338
0.25229132 0.16105133 -0.04868006
0.24969301 0.18015112 -0.044704918
0.25617331 0.23563838 -0.047031019
0.24969301 0.30320314 -0.048428126
0.22246236 0.342437 -0.048801787
0.24969301 -0.33286482 -0.035207469
0.24969301 -0.21334706 -0.033767793
0.24969301 -0.20533749 -0.039035894
-0.26396099 -0.039783895 -0.034899101
-0.26396099 0.10851289 -0.032014579
0.24969301 0.18673134 -0.039411955
-0.26396099 0.29789558 -0.037028532
-0.15648538 0.342437 -0.038689438
-0.083265021 -0.34243697 -0.023158938
0.24969301 -0.33721343 -0.027654268
-0.26396099 -0.26279634 -0.023215108
0.25920501 -0.14628069 -0.024860799
-0.26396099 0.045407724 -0.027697708
-0.26396099 0.16689512 -0.025008
-0.26396099 0.2125437 -0.025720641
0.26106554 0.24802056 -0.020403247
0.25444901 0.32927203 -0.021557793
-0.25274563 0.342437 -0.028046407
-0.24582794 0.34243697 -0.025669649
-0.1100634 0.342437 -0.029534891
-0.10867479 0.342437 -0.020069927
-0.094184101 0.342437 -0.023876203
0.13823482 0.342437 -0.029777437
-0.19557878 -0.342437 -0.019238163
-0.13952039 -0.342437 -0.010173976
0.037512138 -0.342437 -0.011115029
0.066706553 -0.342437 -0.016453013
0.15791087 -0.342437 -0.017000288
0.22118624 -0.342437 -0.016369354
0.24969301 -0.29159918 -0.010136381
0.24969301 -0.26904902 -0.015046947
-0.26396099 -0.12467144 -0.013757162
-0.26396099 -0.048946276 -0.017559536
0.216401 -0.013715293 -0.01056144
-0.26396099 0.025508121 -0.011341944
-0.030223366 0.342437 -0.015730456
0.11498369 0.342437 -0.019540504
0.0014861152 -0.34243703 -0.0020806119
0.020774268 -0.342437 -0.00059569441
-0.26396099 -0.27931088 -0.0090552121
-0.26396099 -0.054727241 -0.0082017332
0.24969301 0.17302215 -0.0021012034
-0.24703217 0.342437 -0.0080861151
-0.20000106 0.342437 -0.0066252099
0.00089909881 0.342437 -0.0094676539
0.066447049 0.34243703 -0.0011674091
0.090718538 0.342437 -0.0073928088
0.1758174 0.34243703 -0.002486378
-0.16046365 -0.342437 0.0033071414
-0.020200022 -0.342437 0.0068592727
-0.26396099 -0.29966655 0.007666491
0.24969301 -0.23057139 0.0084907711
-0.26396099 -0.20009477 0.0090641305
-0.26396099 -0.11990745 0.00041534752
0.216401 0.0026199974 0.0032218359
0.22282042 0.1290291 0.00028980267
0.24969301 0.17367363 0.0040089856
0.25444901 0.21617603 0.0098763239
0.25444901 0.31805342 0.005741097
0.25444901 0.33751205 0.0039373636
-0.078998931 0.342437 0.0028012842
-0.15456408 -0.342437 0.017655239
0.13380668 -0.34243703 0.010473028
-0.12676071 0.342437 0.015407585
0.12840044 0.342437 0.018141663
0.18584754 0.342437 0.01840125
-0.26396099 -0.18564139 0.02876123
0.25263748 -0.15026107 0.028692696
-0.26396099 -0.10999237 0.028525706
-0.26396099 -0.026726356 0.025766009
0.21640098 0.07751283 0.025193963
-0.26396099 0.28091094 0.021783765
-0.22385052 0.342437 0.022160709
0.14224072 0.342437 0.023931101
0.19499809 0.342437 0.029675752
-0.24021034 -0.342437 0.039973304
0.085611835 -0.342437 0.037034489
-0.26396099 -0.26922178 0.039566651
0.24969301 -0.21623975 0.035952076
-0.26396099 0.11838104 0.036631335
0.10800444 0.342437 0.037359133
0.2094163 -0.342437 0.04511153
-0.26396099 -0.27036282 0.040610828
0.24969301 -0.27483046 0.045742065
0.216401 0.086206198 0.045569252
0.25398883 0.13610321 0.048744626
-0.26396099 0.28755689 0.041983448
-0.22965261 -0.342437 0.055821784
-0.20326382 -0.342437 0.053986587
-0.034165718 -0.342437 0.057062946
0.10556252 -0.342437 0.050795283
0.11572614 -0.34243697 0.058997191
0.14563699 -0.34243703 0.055270843
-0.26396099 -0.18253089 0.051193211
0.21640101 -0.06371206 0.054985508
-0.26396099 0.072990738 0.053970329
-0.26396099 0.09555199 0.050927565
0.25399709 0.204511 0.053687423
0.25444901 0.21723296 0.053779338
-0.2340599 0.342437 0.051466309
0.19119594 -0.342437 0.061343335
0.21640098 -0.009209061 0.060056496
0.216401 0.0092761498 0.068546198
0.25444901 0.27542466 0.062056419
-0.26396099 0.31145591 0.069566213
0.014729019 0.342437 0.061751559
-0.24695081 -0.342437 0.075968333
-0.01504831 -0.342437 0.072842047
-0.26396099 -0.31424895 0.077027425
0.24969301 -0.31405833 0.075003371
0.24969301 -0.19440851 0.079980381
0.24969301 -0.1393165 0.078608826
0.25613675 -0.10305703 0.078191958
-0.26396099 -0.069729388 0.077253446
0.24969301 0.15761214 0.075155951
0.25444901 0.25243774 0.075700969
-0.16106421 0.34243697 0.071176402
-0.11384191 0.342437 0.074491821
0.029616997 -0.342437 0.081580065
0.041516528 -0.342437 0.083867483
0.069524832 -0.342437 0.080793127
0.24969301 -0.18060344 0.084641822
0.23404562 -0.084744833 0.084299326
0.216401 -0.02301525 0.080567718
-0.26396099 0.074554376 0.08687783
0.25444901 0.30448553 0.086982131
-0.053814828 0.342437 0.085223906
0.029899562 0.342437 0.084967613
0.041731894 0.34243703 0.087409049
0.080536835 0.342437 0.086852506
0.181142 0.342437 0.083060198
0.2162749 0.342437 0.086545587
-0.013251461 -0.34243697 0.09816996
0.039617032 -0.34243703 0.091040358
0.24969301 -0.13299686 0.091122538
0.216401 -0.014041924 0.097559176
0.216401 0.016671674 0.099464461
-0.26396099 0.049980178 0.09643954
0.25444901 0.32651591 0.093075104
0.08393465 0.34243703 0.097131953
-0.23776433 -0.342437 0.10311016
-0.039925471 -0.342437 0.1023673
0.15058616 -0.342437 0.10276074
0.24969301 -0.29500008 0.1015523
0.24969301 -0.16857536 0.10716496
0.2547068 -0.11644825 0.10511419
0.25920501 -0.10104261 0.10753424
-0.26396099 -0.062019184 0.10169736
0.21640101 -0.026799072 0.10509202
0.216401 0.028039396 0.10518375
0.24969301 0.30405414 0.10065154
0.25444901 0.32809737 0.10990467
-0.24232896 0.342437 0.10974235
-0.13917667 0.342437 0.10016297
0.22968021 0.342437 0.1060189
0.2433182 0.342437 0.10037718
-0.19834365 -0.342437 0.11410011
0.24969301 -0.23892689 0.11333849
0.24969301 -0.20574984 0.11224434
-0.26396099 -0.1203201 0.11096208
0.21640101 0.029862346 0.11849545
-0.26396099 0.095596813 0.11437718
-0.25682402 0.342437 0.11109795
-0.086416245 0.342437 0.11253266
0.0032483377 0.342437 0.11591245
0.075728878 0.342437 0.11597657
-0.11410658 -0.342437 0.1298773
-0.028138205 -0.342437 0.12146801
0.056273952 -0.342437 0.12961724
0.24969301 -0.32333863 0.12671854
-0.26396099 -0.19514385 0.12551218
-0.26396099 -0.15021752 0.12163419
0.24969301 -0.14331785 0.12745404
-0.26396099 -0.10377177 0.12603785
0.25920501 -0.062139794 0.12628171
0.23364645 0.031629685 0.12534738
-0.26396099 0.29925469 0.12056588
-0.26396099 0.33640033 0.12891924
-0.1027797 0.342437 0.12788424
-0.084684864 0.342437 0.12711363
-0.071295254 0.34243703 0.12300933
0.21713987 0.34243697 0.12654057
-0.24578121 -0.342437 0.13980494
-0.030561382 -0.342437 0.13346836
-0.0061495416 -0.34243703 0.13517347
0.14318471 -0.342437 0.13520245
-0.26396099 -0.31327468 0.13743712
0.24969301 -0.13245055 0.13501741
0.24969301 -0.11488339 0.13634855
0.24969299 -0.093868434 0.13716294
-0.26396099 -0.065510511 0.13337764
-0.26396099 -0.031590432 0.13527444
-0.26396102 -0.0078856386 0.13468999
0.24686956 0.029723275 0.1307928
0.24969301 0.11592511 0.13773927
0.24969301 0.15755151 0.13829882
-0.26396099 0.1717504 0.13720593
0.25444901 0.20924422 0.13004741
0.25444901 0.2373026 0.13937184
-0.18394794 0.342437 0.13472423
-0.1553863 0.342437 0.13588253
-0.01469256 0.34243697 0.13640176
0.10770532 0.342437 0.1303447
0.20930851 0.342437 0.1356391
0.19470236 -0.342437 0.14727573
0.24969301 -0.22955656 0.1498982
-0.26396099 0.067466922 0.1415633
0.24969301 0.15810621 0.14763874
-0.26396099 0.24111129 0.14215657
0.25444901 0.28748694 0.14920087
0.20356636 0.342437 0.14832479
-0.24341351 -0.34243697 0.15235314
-0.18142724 -0.342437 0.15019828
0.057252776 -0.342437 0.15850946
0.24969301 -0.34242859 0.15077342
0.24969301 -0.30899832 0.1579037
0.24969301 -0.27765411 0.15893033
-0.26396099 -0.087007709 0.15541732
0.25920501 0.003224398 0.15696712
-0.26396099 0.10721128 0.15865085
-0.26396102 0.11845889 0.15725294
-0.26396099 0.14148356 0.15550449
-0.19731915 0.342437 0.15729313
-0.15690449 0.342437 0.15613841
-0.07696186 0.342437 0.15282759
0.0064477152 0.342437 0.15656844
0.014346512 0.342437 0.15287469
0.15817179 0.342437 0.15970191
0.211145 0.342437 0.15413728
-0.22105928 -0.342437 0.16033775
-0.14970289 -0.34243703 0.16253676
-0.12634841 -0.34243703 0.16786829
-0.087045096 -0.342437 0.16096476
0.17244987 -0.342437 0.16939074
-0.26396099 -0.32146695 0.16260415
0.2549901 0.0076404987 0.16415559
-0.26396099 0.085650861 0.16642246
-0.26396099 0.15762304 0.16688807
-0.26396099 0.21108255 0.16624977
0.25444901 0.28772756 0.16067721
-0.23505484 0.342437 0.16331586
-0.075842522 0.34243703 0.16837853
-0.036715847 0.342437 0.16915396
0.017512545 0.34243697 0.16175571
0.075365208 0.342437 0.16819085
0.24969301 -0.20978928 0.17854513
-0.26396099 -0.023660287 0.17944497
-0.26396099 0.016590074 0.17796111
-0.26396099 0.13448507 0.1745709
0.24969301 0.17748925 0.17045854
0.24969301 0.19596097 0.17458023
0.25444901 0.22853082 0.17044093
-0.062216781 0.342437 0.17221308
0.016939159 0.34243697 0.17764592
0.17493352 0.342437 0.17064148
-0.24291143 -0.342437 0.18865088
-0.11932428 -0.342437 0.18097848
-0.094847254 -0.342437 0.18745239
0.10199991 -0.342437 0.18516581
-0.26396099 -0.31198016 0.18476255
0.24969301 -0.28706622 0.18132858
-0.26396099 -0.27687782 0.18464881
-0.26396099 -0.25754619 0.1844171
0.24969301 -0.24030285 0.18396948
-0.26396099 -0.168957 0.18036559
0.24969301 0.10259071 0.18986133
-0.26396099 0.11642182 0.18299834
0.25444901 0.29589063 0.18860833
-0.09628585 0.34243697 0.18968785
-0.032000311 0.342437 0.18613519
0.16862908 0.342437 0.18490434
-0.26396099 -0.2458398 0.19097495
0.24969301 -0.089404888 0.19811584
-0.26396099 -0.058172062 0.19079266
-0.26396099 0.1925748 0.19711217
0.25444901 0.24483283 0.19115469
-0.26396099 0.28565928 0.19829321
-0.2490942 0.342437 0.19433652
-0.1436621 0.342437 0.19404295
0.039293505 0.342437 0.19452532
0.25444901 0.34207359 0.19204316
0.24969301 -0.25218487 0.20591533
-0.26396099 -0.24925622 0.20406052
-0.26396099 -0.21011153 0.20177771
0.24969301 -0.20076521 0.20645444
-0.26396102 -0.16930211 0.20433819
-0.26396099 -0.12134247 0.20433484
-0.26396099 0.12192948 0.20121258
-0.26396099 0.1550307 0.20325665
-0.20596755 0.342437 0.20297372
-0.040857702 0.34243697 0.2009539
0.12150253 0.342437 0.20834349
-0.2546097 -0.342437 0.21099243
-0.2205964 -0.342437 0.21542101
-0.20384985 -0.34243703 0.21429193
-0.16440046 -0.342437 0.21204418
-0.10899185 -0.342437 0.21709399
-0.087509058 -0.342437 0.21624917
0.15780614 -0.342437 0.21576165
0.24969301 -0.13213393 0.21223617
0.24969301 -0.0070078 0.21735218
-0.26396099 0.075387686 0.21936268
0.24969301 0.088047095 0.21707262
-0.26396099 0.13135593 0.21687099
0.24969301 0.16686766 0.21694694
-0.060357202 0.34243703 0.21485357
0.10990445 0.34243697 0.21317914
0.15620251 0.34243703 0.2102029
-0.26325652 -0.342437 0.22881015
-0.18249841 -0.342437 0.22746274
0.039224468 -0.342437 0.22609214
0.11579075 -0.342437 0.22259638
0.16172485 -0.342437 0.22599398
-0.26396099 -0.33075127 0.22053587
0.24969301 -0.31231382 0.22100306
-0.26396099 -0.16301227 0.22510031
-0.26396099 -0.15197164 0.22001918
0.24969301 0.030544579 0.22738919
-0.26396099 0.21293372 0.22451463
0.25444901 0.24519426 0.22815371
-0.26396099 0.32494843 0.2245394
-0.080786645 0.342437 0.22861646
0.18649751 0.342437 0.22846119
-0.13957936 -0.34243703 0.23072578
-0.093481548 -0.342437 0.23955256
-0.26396099 -0.33982319 0.23561703
-0.26396099 -0.1478935 0.23507741
0.24969301 -0.10921085 0.23376356
-0.26396099 -0.089597754 0.237573
-0.26396099 -0.068928093 0.23734221
-0.26396099 0.011086866 0.23469658
-0.26396099 0.085844465 0.23752382
0.24969301 0.14718103 0.23854505
0.25444901 0.263717 0.23656756
-0.26396099 0.31004971 0.23051003
0.24960417 0.342437 0.23263532
-0.058422193 -0.342437 0.24659632
-0.039562069 -0.342437 0.24800888
0.04729487 -0.342437 0.24183799
0.15458316 -0.342437 0.240477
0.23623772 -0.33508664 0.24351099
0.22010654 -0.2878485 0.24351102
0.21164501 -0.27886564 0.24512798
-0.26396099 -0.26487035 0.24428791
0.24338123 -0.2131654 0.24351102
-0.26396099 -0.017995074 0.24084544
-0.26396099 0.021721125 0.24912976
0.221157 0.20890519 0.24818923
-0.26396099 0.23943804 0.24729493
0.23734725 0.27347642 0.24351102
-0.1979409 0.342437 0.24693817
-0.11700875 0.34243703 0.24474663
0.033371419 0.342437 0.24988976
0.13655087 0.34243703 0.24518691
-0.13336366 -0.342437 0.25017592
-0.20841494 -0.3226909 0.25112
-0.159428 -0.32481277 0.25112
-0.090520442 -0.3299979 0.25111997
-0.073482879 -0.32575637 0.25112
0.083575554 -0.32035565 0.25112
-0.14625233 -0.31968534 0.25112
0.12634626 -0.31635106 0.25112
-0.20789784 -0.30545393 0.25112
-0.15446648 -0.30697596 0.25112
-0.22501361 -0.29251531 0.25112
-0.18007337 -0.29384127 0.25112
-0.14031562 -0.29100424 0.25112
-0.028985992 -0.2813884 0.25112
-0.029253699 -0.270208 0.25112
-0.10367218 -0.26786807 0.25112
-0.087130152 -0.26474276 0.25112
-0.11507011 -0.25483757 0.25112
0.0080434829 -0.2521815 0.25112
-0.15923414 -0.23410343 0.25112
-0.10857177 -0.23035315 0.25112
-0.081316352 -0.23467915 0.25112
-0.020552412 -0.23967808 0.25112
0.173602 -0.23129594 0.25112
-0.14814951 -0.22316745 0.25112
-0.0801768 -0.22273764 0.25112
-0.024300676 -0.22123435 0.25112
0.11385666 -0.22219901 0.25112
-0.16943975 -0.21681151 0.25112
-0.1321701 -0.2174046 0.25112
-0.061585486 -0.21862194 0.25112
0.0081801713 -0.21486366 0.25112
0.12336146 -0.21790616 0.25112
-0.035471339 -0.20974687 0.25112
0.1847952 -0.20897752 0.25112
-0.21097898 -0.19624925 0.25112
-0.054628968 -0.19253869 0.25112
0.16615455 -0.19060151 0.25112
0.17197637 -0.19166005 0.25112
0.211501 -0.19893323 0.25112
-0.18029727 -0.18637457 0.25112
-0.20393559 -0.17261305 0.25112
0.15618008 -0.17760529 0.25112
-0.086005755 -0.16839518 0.25112
0.070643462 -0.16944481 0.25112
-0.076804601 -0.15460207 0.25112
-0.15440056 -0.14803255 0.25112
-0.12071557 -0.14635535 0.25112
0.22677469 -0.13628796 0.25112
0.24200171 -0.1348263 0.25112
0.22254646 -0.12096231 0.25112
-0.22548763 -0.11184546 0.25112
-0.1637574 -0.11251759 0.25112
-0.081575423 -0.11809325 0.25112
-0.0041680485 -0.11787102 0.25112
-0.219469 -0.099177197 0.25112
-0.092405044 -0.097443819 0.25112
-0.022737026 -0.085802689 0.25112
0.17314817 -0.086424813 0.25112
-0.044480428 -0.075258896 0.25112
-0.017810881 -0.078065872 0.25112
0.11864602 -0.063318461 0.25112
0.21458516 -0.06162826 0.25112
-0.14191049 -0.053431831 0.25112
-0.11721527 -0.055011448 0.25112
-0.0080985799 -0.055306673 0.25112
0.046525545 -0.0521378 0.25112
0.14284779 -0.052811824 0.25112
0.22907817 -0.054981247 0.25112
-0.24267851 -0.049226135 0.25112
0.12142126 -0.048481636 0.25112
-0.25032192 -0.037511379 0.25112
-0.18702427 -0.037348375 0.25112
-0.20843138 -0.02634855 0.25112
-0.23424336 -0.010949242 0.25112
0.066505231 -0.019278303 0.25112
0.1291586 -0.010694616 0.25112
-0.10582215 -0.0090465993 0.25112
-0.052834108 -0.004730463 0.25112
-0.17293151 0.0095077008 0.25112
0.050026115 0.0070763826 0.25112
-0.14142203 0.011712864 0.25112
-0.069946498 0.011059142 0.25112
0.084702648 0.019836605 0.25112
0.11424261 0.018789142 0.25112
0.23795758 0.017950131 0.25112
0.241414 0.012355272 0.25112
-0.016460158 0.026223108 0.25112
0.22053123 0.028438568 0.25112
0.19874091 0.031982355 0.25112
-0.18717141 0.049880102 0.25112
0.068598539 0.045789231 0.25112
0.075133413 0.048990197 0.25112
0.10327695 0.045451012 0.25112
-0.2129264 0.055677012 0.25112
-0.086383007 0.059411343 0.25112
0.078364596 0.061665468 0.25112
0.16881955 0.069813818 0.25112
0.18823372 0.060859099 0.25112
-0.15220636 0.070514016 0.25112
0.22178262 0.07696636 0.25112
-0.059313886 0.09373039 0.25112
0.18065719 0.093753129 0.25112
-0.21712485 0.1044471 0.25112
-0.074627697 0.10791788 0.25112
-0.21160737 0.11489591 0.25112
-0.02532867 0.11834183 0.25112
-0.23215804 0.12864509 0.25112
0.04807416 0.1248937 0.25112
0.099046573 0.12868264 0.25112
0.19524626 0.12720209 0.25112003
-0.14878474 0.130141 0.25112
-0.010988876 0.13282415 0.25112
0.045366615 0.13068885 0.25112
0.24403009 0.13727292 0.25112
-0.10079944 0.14343271 0.25112
-0.065428622 0.14344598 0.25112
0.01588073 0.14486827 0.25112
0.13375816 0.14395411 0.25112
-0.097721711 0.15729326 0.25112
0.15974627 0.15569678 0.25112
0.10356317 0.16933721 0.25112
0.24076854 0.16082808 0.25112
-0.1274564 0.17888315 0.25112
0.057161961 0.17871715 0.25112
0.062266558 0.17629658 0.25112
0.12164717 0.17101832 0.25112
0.0061731786 0.18959779 0.25112
0.013247561 0.18677077 0.25112
0.10151835 0.18388571 0.25112
0.21272033 0.18066305 0.25112
-0.12130439 0.1920487 0.25112
0.16119055 0.21897234 0.25112
-0.094551921 0.22238347 0.25112
-0.00019669533 0.22612193 0.25112
0.15319559 0.2289423 0.25112
-0.0016421257 0.23155144 0.25112
0.16549623 0.23849136 0.25112
-0.088229239 0.24040553 0.25112
-0.011306128 0.24002075 0.25112
0.063187331 0.24245641 0.25112
0.14202859 0.24565974 0.25112
0.19886039 0.24188003 0.25112
0.21585673 0.2458328 0.25112
-0.18046796 0.25845891 0.25112
-0.022821313 0.25984254 0.25112
0.050710447 0.25156245 0.25112
0.08206062 0.2500158 0.25112
0.20927307 0.25749201 0.25112
0.094197527 0.26088369 0.25112
-0.10876688 0.27529719 0.25112
-0.058376104 0.27006647 0.25112
-0.010230124 0.27896214 0.25112
-0.20947395 0.28194094 0.25112
-0.13836884 0.28644058 0.25112
-0.17890503 0.29398638 0.25112
-0.10446612 0.29661614 0.25112
-0.0926973 0.29019144 0.25112
0.11952102 0.29337439 0.25112
-0.12273123 0.30570653 0.25112
0.13761818 0.30867919 0.25112
-0.21990187 0.31804386 0.25111997
0.15164393 0.31989312 0.25112
0.17239867 0.31011078 0.25112
-0.22859442 0.32688737 0.25112
-0.18288438 0.32876188 0.25112
0.18132664 0.3281858 0.25112
-0.18230227 0.33395019 0.25112
0.041189708 0.33313847 0.25112
0.17609856 0.33919102 0.25112
0.079544388 0.34229544 0.25112
