# .PCD v0.7 - Point Cloud Data file format
VERSION 0.7
FIELDS x y z
SIZE 4 4 4
TYPE F F F
COUNT 1 1 1
WIDTH 973
HEIGHT 1
VIEWPOINT 0 0 0 1 0 0 0
POINTS 973
DATA ascii
0.033926398 -0.34621048 -0.24793598
0.055091299 -0.34674287 -0.247936
0.10136998 -0.34711 -0.24348208
0.16524521 -0.34711 -0.24744493
-0.10124412 -0.3314769 -0.24793601
-0.023721851 -0.33529615 -0.247936
0.073254928 -0.32866398 -0.247936
0.16758159 -0.32037953 -0.247936
-0.22885291 -0.31353778 -0.247936
-0.026025116 -0.3182137 -0.24793601
0.076299481 -0.31134975 -0.247936
0.20976894 -0.31194386 -0.247936
-0.26019028 -0.30908927 -0.247936
-0.13522108 -0.30772993 -0.24793598
0.11806713 -0.3091197 -0.24793601
0.030396573 -0.29731834 -0.24793598
0.053433023 -0.29331565 -0.24793598
0.089237675 -0.29331949 -0.247936
0.11970431 -0.29037541 -0.24793601
-0.091624446 -0.28979588 -0.24793601
-0.21248323 -0.27403429 -0.247936
-0.062671959 -0.27879509 -0.24793598
-0.260849 -0.2624059 -0.24671021
-0.20891342 -0.26743475 -0.24793601
-0.049541667 -0.26299065 -0.247936
-0.019492432 -0.26469684 -0.24793598
0.029583365 -0.24222957 -0.24793598
0.099946395 -0.24409814 -0.24793601
0.20283765 -0.24533299 -0.247936
-0.01013913 -0.22162214 -0.24793598
0.23502199 -0.22413941 -0.24651082
-0.20660214 -0.21139579 -0.247936
-0.19040038 -0.2194906 -0.247936
-0.030539669 -0.2175447 -0.24793598
-0.013572112 -0.21390882 -0.247936
-0.17149301 -0.2037119 -0.24793601
-0.15322207 -0.20724861 -0.247936
0.17721951 -0.20133498 -0.24793598
-0.18464506 -0.19225989 -0.247936
-0.151058 -0.18072204 -0.247936
-0.041846745 -0.1844797 -0.24793598
0.065029077 -0.18638244 -0.24793598
-0.1027423 -0.17913967 -0.24793598
0.16239467 -0.17296785 -0.24793598
-0.064341992 -0.16821806 -0.24793601
-0.031751677 -0.15350612 -0.247936
0.077144019 -0.15851152 -0.24793598
-0.10387926 -0.13914199 -0.24793601
0.16832562 -0.13658702 -0.24793601
0.21840525 -0.13635495 -0.247936
-0.22518986 -0.12448738 -0.247936
0.032758489 -0.12350802 -0.24793601
0.096079454 -0.11454901 -0.247936
0.10577446 -0.11737017 -0.247936
-0.048363283 -0.10911082 -0.247936
0.16720283 -0.10328342 -0.247936
-0.18518829 -0.097594604 -0.247936
-0.076946363 -0.096237198 -0.24793598
-0.042231292 -0.098866746 -0.24793598
-0.019267414 -0.08449652 -0.247936
0.23269853 -0.081223592 -0.247936
-0.23687863 -0.069588728 -0.24793598
-0.20137405 -0.062652513 -0.247936
0.11222621 -0.068790093 -0.24793598
0.18656236 -0.067183062 -0.247936
0.050075844 -0.055277437 -0.24793601
0.11441319 -0.052575264 -0.24793598
0.17136565 -0.047956191 -0.247936
-0.24268903 -0.028557763 -0.247936
-0.058018662 -0.021592498 -0.247936
0.051055312 -0.0018831715 -0.24793601
0.20833884 -0.0095563978 -0.24793601
0.18159942 0.0091696084 -0.24793598
-0.22686195 0.019119557 -0.247936
-0.21129999 0.016499966 -0.24793601
0.078711919 0.01594891 -0.247936
-0.15375161 0.026190102 -0.24793601
-0.12526998 0.023334295 -0.24793601
0.0093309637 0.029376954 -0.247936
0.16349494 0.024077632 -0.24793598
-0.21320635 0.03719499 -0.24793601
-0.15905358 0.034362726 -0.24793598
-0.19441065 0.046942603 -0.247936
-0.0050879568 0.044657424 -0.24793601
0.083881512 0.04024221 -0.247936
0.12009279 0.044193044 -0.247936
0.23502198 0.042273443 -0.24520317
-0.20934075 0.059462473 -0.24793601
-0.15492435 0.051807027 -0.24793598
0.04266144 0.050887447 -0.247936
0.17986859 0.0548466 -0.247936
-0.260849 0.067611337 -0.24254873
-0.23345737 0.06901443 -0.24793598
-0.21200541 0.069385797 -0.24793601
0.13543318 0.067897275 -0.24793601
-0.23871739 0.076467715 -0.24793598
-0.13943996 0.078883819 -0.247936
-0.079828501 0.07131581 -0.24793598
0.017409783 0.071061902 -0.247936
-0.260849 0.088992119 -0.2458066
-0.032277305 0.081808738 -0.24793598
-0.0122189 0.081335828 -0.24793601
0.15134078 0.082050413 -0.247936
-0.21973303 0.097964719 -0.24793598
-0.16941188 0.090918481 -0.24793598
-0.17031693 0.10934141 -0.247936
0.0043472871 0.10964784 -0.24793601
0.078338146 0.11231191 -0.24793598
0.18468688 0.11218657 -0.247936
-0.15117793 0.12926637 -0.24793601
-0.068960011 0.12854895 -0.24793601
0.12374935 0.12705453 -0.247936
0.14137924 0.12581858 -0.247936
0.19118652 0.12419231 -0.24793598
-0.25663951 0.13286941 -0.24793601
-0.23843235 0.13479173 -0.24793601
0.16469292 0.13029248 -0.24793598
0.14885464 0.14970598 -0.24793598
0.19832881 0.14955454 -0.247936
-0.14023249 0.15177745 -0.24793601
0.037340865 0.15839572 -0.24793601
0.1358377 0.15219992 -0.24793601
0.18174206 0.15200822 -0.247936
-0.18082212 0.16642064 -0.247936
-0.10972501 0.16479841 -0.247936
0.20312393 0.16196069 -0.247936
-0.13675582 0.17938921 -0.24793601
0.08230672 0.17030352 -0.24793598
0.14736484 0.17121843 -0.24793598
-0.21362872 0.18182835 -0.247936
0.2214084 0.18666646 -0.24793601
-0.260849 0.19153574 -0.2471161
-0.23315099 0.20498842 -0.24793598
0.026644327 0.20932969 -0.24793601
-0.22545519 0.21194507 -0.247936
-0.19616333 0.21938658 -0.24793601
-0.12532099 0.2146325 -0.24793601
0.10206687 0.21356198 -0.24793601
0.042917043 0.22777256 -0.247936
0.061767183 0.22311062 -0.247936
0.18622515 0.22120766 -0.24793598
-0.25759032 0.2384517 -0.247936
-0.090565756 0.23127863 -0.247936
-0.015446998 0.23594913 -0.24793598
0.012066655 0.23258129 -0.24793601
-0.13890907 0.24962005 -0.24793601
0.090224855 0.24984121 -0.24793601
-0.10261457 0.25502133 -0.247936
-0.011610262 0.27294976 -0.247936
-0.19416758 0.28394014 -0.247936
-0.069557033 0.2872988 -0.24793601
-0.010250166 0.28508538 -0.24793601
0.013801694 0.28134543 -0.247936
-0.16996285 0.29598093 -0.247936
-0.095641576 0.29357737 -0.24793598
0.11191244 0.29401642 -0.247936
0.23502199 0.29197326 -0.24337965
-0.1967729 0.31109965 -0.247936
-0.1813677 0.31294888 -0.24793598
-0.15930189 0.31760508 -0.24793601
0.14397123 0.31283242 -0.24793598
-0.13712078 0.33859119 -0.247936
0.0014039874 0.33258456 -0.247936
0.074815281 0.3311772 -0.247936
0.15067071 0.3380962 -0.247936
-0.21223788 0.34710997 -0.24654315
-0.10737827 0.34711 -0.24639377
0.025503054 0.34710997 -0.24648853
0.067024156 0.34711 -0.2441743
0.13183369 0.34447485 -0.247936
0.1460235 0.34414598 -0.247936
0.20448102 0.34241322 -0.247936
-0.19636917 -0.34711 -0.23417081
0.23502198 -0.085124403 -0.23624764
-0.260849 -0.0088514984 -0.23538023
-0.260849 0.047132507 -0.23000813
0.23502201 0.23633517 -0.23876238
0.23502199 0.26298267 -0.23568773
-0.260849 0.32309127 -0.23244935
0.10405868 0.34710997 -0.23049814
-0.10549928 -0.34711003 -0.22349174
0.16887559 -0.34711 -0.22895955
-0.260849 -0.32043049 -0.22703712
0.23502198 -0.19689637 -0.22552982
-0.260849 -0.17959209 -0.22591317
0.23502199 -0.13108811 -0.22657408
0.23502198 -0.05544164 -0.22133908
-0.260849 0.12774397 -0.22139788
0.218493 0.26338786 -0.22005874
-0.260849 0.3128033 -0.22991493
-0.11574764 0.34711003 -0.22004321
-0.024000242 0.34711 -0.22215897
-0.014740214 0.34711003 -0.2232286
0.11702012 0.34711 -0.22217283
0.16739333 0.34711 -0.22049849
0.18549971 0.34711 -0.22947085
-0.1287955 -0.34711 -0.2147779
-0.047295429 -0.34711 -0.21616858
-0.260849 -0.30450043 -0.21667671
0.23502201 -0.28217101 -0.21081704
-0.260849 -0.10856883 -0.21122813
-0.260849 -0.049708933 -0.21478704
-0.260849 -0.03856042 -0.21771002
0.23502199 -0.037761431 -0.21327132
0.23502199 0.3273049 -0.21160281
0.099251896 0.34711 -0.21839178
0.17011909 0.34711 -0.21333182
-0.25310296 -0.34711 -0.20878553
-0.04487928 -0.34711 -0.20209917
0.023691369 -0.34711 -0.20576878
0.23502199 -0.18385647 -0.20831291
-0.260849 -0.12691569 -0.20344064
0.23502199 0.17530057 -0.20765002
-0.260849 0.24539128 -0.20393284
-0.068030424 0.34711003 -0.20184413
0.14634311 0.34711 -0.20961154
0.18196839 0.34711 -0.20347379
0.23502199 -0.29761201 -0.19619821
-0.260849 -0.15800646 -0.19555762
0.23502199 -0.15316166 -0.19351332
-0.260849 -0.11172846 -0.19276893
-0.260849 0.051551379 -0.19264339
0.23502199 0.05916198 -0.19057804
-0.260849 0.28533778 -0.19644423
-0.15328611 0.34711 -0.1905994
0.10386668 -0.34711003 -0.18535286
-0.260849 -0.2841157 -0.18561664
0.23502199 -0.2483692 -0.18385212
-0.260849 -0.14417771 -0.18299346
0.23502201 -0.128453 -0.18864843
-0.260849 -0.037656069 -0.18029818
-0.260849 0.092638247 -0.18144816
0.22645675 0.23037399 -0.18465248
-0.16173396 0.34711 -0.18375768
0.21881622 0.34711003 -0.18453258
0.2337608 0.34711 -0.18345955
-0.260849 -0.33556297 -0.17080346
0.23041452 -0.3216691 -0.17028941
-0.260849 -0.22226508 -0.1718884
0.24191637 -0.032147013 -0.17127207
0.2427083 -0.0054881461 -0.17785475
0.23751643 0.076542385 -0.17427869
0.23502201 0.14399123 -0.17450264
-0.260849 0.16527525 -0.17009801
0.23502199 0.2060924 -0.17946437
0.23502201 0.21146534 -0.17732336
0.23502201 0.28505254 -0.17105484
0.03111149 0.34711 -0.17217675
0.11449472 -0.34711 -0.16070729
0.23182586 -0.32216826 -0.16408497
0.23366949 -0.209712 -0.1656882
-0.260849 -0.19246623 -0.16901821
-0.260849 -0.016374297 -0.16224912
-0.260849 0.01101017 -0.16181999
-0.260849 0.05642873 -0.1655308
0.23406993 0.23037399 -0.1609218
-0.260849 0.27429688 -0.16468789
0.23502199 0.27785543 -0.16396827
-0.063168749 0.34711 -0.16696131
-0.048891947 0.34711 -0.16259976
0.13970807 -0.34710997 -0.15789208
0.21728086 -0.34711003 -0.15968946
0.23502199 -0.27383897 -0.15327665
-0.260849 -0.24055584 -0.15886195
0.23502199 -0.19161867 -0.15840876
0.25178039 -0.025995314 -0.15591288
0.25981599 0.0014849037 -0.15690832
-0.260849 0.03247118 -0.15505752
0.25981599 0.079178125 -0.15120235
-0.260849 0.19072895 -0.15081461
-0.260849 0.24516782 -0.15389484
0.23502199 0.28649047 -0.15454528
0.23502199 0.29543614 -0.15343918
-0.260849 0.30269885 -0.1500963
-0.097475573 0.34711 -0.15768206
-0.260849 -0.34324336 -0.14427376
0.23502201 -0.30404106 -0.14160654
-0.260849 -0.29966351 -0.14105736
0.23502201 -0.27174315 -0.14143638
0.22768733 -0.2020252 -0.1429773
0.25981599 -0.11054612 -0.14242272
0.25981599 -0.072495952 -0.14940628
-0.260849 -0.019042335 -0.14232147
0.25981599 0.055183254 -0.14460078
-0.260849 0.13391057 -0.14118439
-0.260849 0.21359619 -0.14387414
0.23109558 0.23037399 -0.14947484
-0.21480149 0.34711 -0.14832385
-0.12331273 0.34711 -0.1477823
0.00072592869 0.34711 -0.14186615
0.13976343 0.34711 -0.14069757
-0.260849 -0.34561476 -0.13364655
-0.14209381 -0.34711 -0.13997698
0.038765587 -0.34711 -0.13765839
0.13837519 -0.34711 -0.13002144
0.23502199 -0.27304453 -0.13514087
0.21996294 0.042684451 -0.13118942
-0.260849 0.07044296 -0.13833489
0.24668157 0.089862399 -0.13957849
-0.260849 0.13889968 -0.13280901
-0.260849 0.15874007 -0.13227727
0.22483647 0.23140699 -0.13020882
0.23502199 0.30315322 -0.13991873
-0.260849 0.34666499 -0.13667527
-0.24191426 0.34710997 -0.13671941
-0.14773501 0.34711 -0.13200824
-0.1211286 0.34711 -0.13129163
-0.075957932 0.34711 -0.1316241
-0.23652431 -0.34710997 -0.12399827
0.14290991 -0.34711 -0.12718968
0.21745084 -0.34711 -0.12521169
-0.260849 -0.21449296 -0.12749803
0.25981599 -0.08970397 -0.12178452
0.22477067 -0.033055931 -0.12290241
0.25981599 0.13517533 -0.12546015
0.25981599 0.14637527 -0.12523258
0.21849298 0.23762469 -0.12255686
-0.260849 0.28823805 -0.12380289
-0.042272244 0.34711 -0.12316631
0.18832341 0.34711 -0.12163917
0.17439851 -0.34711 -0.11925709
0.22937025 -0.22283486 -0.11450581
0.22688584 -0.21643604 -0.1194163
-0.260849 -0.19497137 -0.1172978
-0.260849 -0.13750796 -0.11248362
0.2357327 -0.11364794 -0.11460508
0.25981599 0.019461378 -0.11031844
-0.260849 0.024950087 -0.11003698
0.25981599 0.036549039 -0.11470494
0.25981599 0.052086681 -0.11713355
0.25981599 0.063402444 -0.1153748
-0.24605185 0.34711 -0.11401574
-0.18219568 0.34711 -0.11338095
0.1918931 0.34711 -0.11144628
0.23502199 -0.27275151 -0.10934372
0.23178071 -0.26293758 -0.10274189
0.23546422 -0.12151089 -0.10435808
0.22944464 -0.069324106 -0.10318612
0.25981599 -0.053621016 -0.10188076
0.21849298 0.002370877 -0.10518371
0.25981599 0.1659137 -0.10452068
-0.260849 0.22122984 -0.10313524
0.23027977 0.23140699 -0.10896844
0.218493 0.27387574 -0.10979754
0.218493 0.30581462 -0.10467413
0.039429419 0.34711 -0.10594755
0.065372556 0.34711 -0.10140444
0.084039882 0.34710997 -0.10810459
0.23502199 0.34409875 -0.10964762
0.23502199 -0.33543879 -0.099243522
0.2447668 -0.095963001 -0.090869591
0.21849301 -0.056152441 -0.09616673
0.218493 -0.0088315485 -0.093570985
-0.260849 0.026960731 -0.097419396
-0.260849 0.15758701 -0.090393305
-0.260849 0.17634407 -0.092800118
0.24253574 0.17801677 -0.098035097
0.23119208 0.231407 -0.09319061
0.23502198 0.31424379 -0.091616496
-0.260849 0.33246475 -0.097917899
-0.19212955 -0.34711003 -0.083367571
-0.17290965 -0.34711 -0.088287309
-0.1637506 -0.34711 -0.08277268
0.018302664 -0.34711 -0.080709331
0.23502198 -0.22679141 -0.089121483
0.25981599 -0.10593753 -0.081752524
0.218493 -0.071525209 -0.085241094
-0.260849 -0.059950843 -0.08902631
0.218493 -0.0031510638 -0.081415184
0.218493 0.094739102 -0.082058877
0.23502198 0.19254133 -0.081113182
-0.260849 0.23687783 -0.087666065
-0.260849 0.27537811 -0.085444391
-0.260849 0.32886216 -0.089136466
0.14181715 0.34711 -0.087378368
0.15662305 0.34710997 -0.086810872
0.16471598 0.34711 -0.08962094
0.17237657 0.34711 -0.082819946
0.0065346006 -0.34711003 -0.073916435
0.19674313 -0.34711 -0.076538786
-0.260849 -0.25651914 -0.072963417
0.23502199 -0.14336173 -0.075591326
0.25981599 -0.13441378 -0.076103508
0.25272211 -0.12200916 -0.071323082
0.24875867 -0.11959635 -0.077147938
-0.260849 -0.055194713 -0.073331468
0.25981599 -0.025297858 -0.075105242
0.21849301 -0.0046268818 -0.079139233
0.21849301 9.1464724e-05 -0.076129481
0.25981599 0.044466458 -0.07126148
0.21849298 0.082385257 -0.071443364
0.21849301 0.10406756 -0.077702455
0.22093949 0.13977906 -0.070040166
0.24221477 0.15514949 -0.077727698
0.24638796 0.16046125 -0.07536272
0.25700665 0.16976154 -0.074917719
-0.260849 0.21623142 -0.07576213
0.23502201 0.33525622 -0.078981847
-0.19964701 0.34710997 -0.072477162
-0.14504442 0.34710997 -0.076064937
-0.066198334 0.34711 -0.079968616
-0.22357833 -0.34711 -0.064452708
-0.17628875 -0.34711 -0.065598175
0.10060919 -0.34711 -0.062397927
0.14928624 -0.34711 -0.066419475
0.17501861 -0.34711003 -0.063570246
0.22541527 -0.34710997 -0.067104988
0.21849298 0.0064029074 -0.06380526
-0.260849 0.076364666 -0.063001625
-0.260849 0.10259835 -0.066548035
-0.260849 0.31388924 -0.067313939
-0.14600289 -0.34711 -0.058030963
-0.059416704 -0.34711 -0.055952974
-0.260849 -0.31503999 -0.056939349
0.23502199 -0.29416221 -0.056825664
0.23502199 -0.28478432 -0.05136985
0.21849298 -0.067333981 -0.055953801
-0.260849 -0.022508949 -0.05222784
0.21849301 0.037666366 -0.056871101
0.21849301 0.055952705 -0.058163747
0.21849301 0.071905717 -0.059196223
-0.260849 0.090154082 -0.052004196
0.25981599 0.17012294 -0.058833025
-0.260849 0.3466832 -0.059763685
0.23502198 0.34336692 -0.052141368
-0.260849 -0.3462854 -0.048398845
-0.037983675 -0.34711 -0.045654375
-0.260849 -0.29931095 -0.045281008
-0.260849 -0.20944032 -0.045874052
0.23502199 -0.20701209 -0.041163292
0.25981599 -0.097352684 -0.041100211
0.25981599 -0.054537863 -0.045889668
0.218493 0.0061385487 -0.041207213
0.260849 0.073873766 -0.040376551
-0.260849 0.15479185 -0.043284472
0.2208043 0.1528251 -0.040774662
0.23502199 0.20606706 -0.042504106
0.218493 0.23131092 -0.04773102
-0.260849 0.27216655 -0.044115685
-0.2321296 0.34711 -0.043441914
0.076711893 0.34711 -0.043352753
-0.23179154 -0.34711003 -0.034600511
-0.076955169 -0.34711 -0.038661223
-0.056291424 -0.34711 -0.034250565
0.13939941 -0.34711 -0.036937099
0.16146952 -0.34711 -0.037838802
0.25981599 -0.16146405 -0.036760967
0.24430701 -0.12227221 -0.036343977
0.21849301 -0.040586777 -0.034457278
0.25981599 -0.038554162 -0.030943729
-0.260849 -0.019874405 -0.034456614
0.218493 0.0028168061 -0.030318828
0.260849 0.0065754605 -0.032935657
0.25981599 0.17729527 -0.038700901
0.25981599 0.21559605 -0.033866737
-0.260849 0.33083925 -0.039830275
-0.16900618 0.34711 -0.030130543
-0.00037344545 0.34711 -0.033315126
0.063618317 0.34711 -0.031590946
-0.0028024539 -0.34711 -0.02964361
0.17571031 -0.34711 -0.02414082
0.23502199 -0.24377641 -0.025312778
-0.260849 -0.23902822 -0.026458815
-0.260849 -0.18286417 -0.028030913
-0.260849 -0.17677942 -0.027135029
0.25981599 -0.16523264 -0.028713863
0.25981599 -0.14121915 -0.021874303
0.21849301 -0.069450945 -0.025873739
-0.260849 -0.053979337 -0.022111021
0.218493 0.029729413 -0.02032133
-0.260849 0.072236776 -0.027346525
0.21849298 0.078659989 -0.021279866
-0.260849 0.25294808 -0.025394522
-0.23103623 0.34711 -0.029023655
-0.17305766 0.34711 -0.028315812
0.22926353 0.34711 -0.021437842
-0.24302861 -0.34711 -0.01407294
-0.10522428 -0.34711 -0.014456697
-0.028234415 -0.34711 -0.015908726
0.058996487 -0.34711 -0.017284505
0.12964584 -0.34711 -0.019384041
0.23502201 -0.16779922 -0.012954385
0.24938117 -0.15401711 -0.016202683
-0.260849 0.17504999 -0.01487413
0.084618136 0.34711 -0.014415104
-0.14250138 -0.34711 -0.003689602
-0.041087802 -0.34711 -0.00027269404
0.17842111 -0.34711003 -0.0057663806
0.25317124 -0.13296461 -0.0089905243
0.25981599 -0.10523832 -0.0077475365
-0.260849 -0.097790003 -0.0056683049
-0.260849 0.019824488 -0.0058242027
-0.260849 0.15036988 -0.00061203539
-0.260849 0.20416573 -0.001481995
0.22709841 0.23140702 -0.0039183795
0.064412102 0.34711 -0.0025408939
-0.042635128 -0.34711 0.0044098273
-0.031386718 -0.34711 0.0017357543
-0.260849 -0.27779478 0.0048637167
0.25981599 -0.094669871 0.00078057498
0.218493 -0.067842275 0.0067554675
0.218493 0.2367911 0.0042892396
0.23502199 0.27227417 0.0016178187
0.24891353 0.27158251 0.0061122612
0.1331884 0.34711 0.0071370378
-0.25262541 -0.34711003 0.01757098
-0.13584086 -0.34711 0.010433957
0.14890435 -0.34711 0.015028372
0.23502199 -0.34212431 0.01514744
0.23502199 -0.33668202 0.015222237
-0.260849 -0.29123199 0.012508601
-0.260849 -0.28436288 0.017728701
0.23502199 -0.18297398 0.017948756
-0.260849 -0.099456333 0.0180877
-0.260849 -0.070788383 0.019761942
0.21849301 -0.023623314 0.012356725
-0.260849 0.015527681 0.01582771
0.25981599 0.10407943 0.019930005
0.25981599 0.21367224 0.015594678
0.23502201 0.24181595 0.017606642
0.23502199 0.3293936 0.017206807
0.046917826 -0.34711 0.024908463
0.18668786 -0.34711 0.028601222
0.21849298 0.052855007 0.024040204
0.218493 0.27835903 0.021295646
0.218493 0.3201476 0.022370193
0.218493 0.33553523 0.026052749
-0.20276779 0.34710997 0.027912587
0.14761332 0.34711 0.025800109
-0.260849 -0.34620902 0.039706707
-0.056768991 -0.34711 0.034616355
0.23502199 -0.26148406 0.039608169
-0.260849 -0.14224726 0.031254094
-0.260849 -0.12569237 0.031679206
0.21849298 0.050197944 0.030600179
-0.260849 0.15113723 0.036166873
-0.0243521 0.34711 0.035426762
0.10354204 0.34711 0.038699608
0.20784973 0.34711 0.032266129
-0.260849 -0.31360084 0.042298961
0.23502198 -0.22905684 0.047744222
0.25981599 -0.13807236 0.046086296
0.25981599 0.014848266 0.046245717
0.21849301 0.048880208 0.043163557
0.25981599 0.088514984 0.040750578
0.25981599 0.095767364 0.041253574
0.25981599 0.18870784 0.04629131
-0.260849 0.33405411 0.041451126
-0.081027128 0.34711003 0.049323417
-0.22532302 -0.34711 0.053128883
0.23502199 -0.32099181 0.059512127
0.23502198 -0.28192505 0.052065909
0.23502201 -0.2577346 0.052065123
0.23502198 -0.24674387 0.056873765
-0.260849 -0.22091404 0.058342166
0.25981599 -0.15140033 0.058631703
-0.260849 -0.08642143 0.054309905
-0.260849 -0.078508444 0.054950058
0.21849301 -0.041328494 0.056136459
-0.260849 0.021694377 0.051467165
0.218493 0.12036595 0.059259027
-0.260849 0.13148952 0.05186715
0.23502199 0.32455206 0.059995655
-0.19923289 0.34710997 0.051616274
-0.14915247 0.34711 0.053453527
0.22863844 0.34711 0.05672054
-0.12607193 -0.34711 0.061050415
-0.089657716 -0.34711 0.061378099
-0.260849 -0.24165599 0.062252305
-0.260849 -0.22793163 0.060400955
-0.260849 -0.16094199 0.061643064
-0.260849 0.033243686 0.061984062
0.25981599 0.042217266 0.068508446
-0.260849 0.076609105 0.063795492
0.25981599 0.1394417 0.061730132
0.218493 0.33041966 0.063485637
-0.090524569 0.34711 0.063301027
-0.029534396 0.34711 0.065007672
-0.00060306489 -0.34711 0.076359704
0.20859602 -0.34710997 0.072575971
-0.260849 -0.14738971 0.079229951
0.23502199 -0.14600192 0.076327659
0.25981599 -0.038906835 0.07201305
-0.260849 0.09228766 0.076518185
0.24124375 0.15472555 0.076989591
0.25981599 0.18604372 0.07772857
0.23502201 0.19606699 0.073594168
0.23502198 0.2201567 0.072387785
0.23502199 0.28553474 0.075868383
0.23502199 0.33161038 0.077458575
-0.13272895 0.34711 0.07477808
-0.25906551 -0.34711 0.080635391
-0.060328558 -0.34711 0.08146511
0.027275249 -0.34711 0.08646448
0.23502199 -0.1556623 0.082927123
0.25368258 -0.15188012 0.084852703
0.25981599 -0.088730238 0.086232841
0.218493 0.067810789 0.088174537
0.218493 0.091997601 0.084900126
-0.260849 0.10375081 0.085776292
-0.20124777 0.34711 0.087116934
-0.12705418 0.34711 0.088651977
0.082394361 0.34711 0.080450878
-0.14858836 -0.34711 0.090623669
0.23502199 -0.21106896 0.094529606
-0.260849 -0.056615565 0.091894992
0.25981599 -0.056079518 0.091844395
0.25981599 -0.0083226627 0.097409286
-0.260849 0.045810957 0.096117951
0.258865 0.15980375 0.094593257
0.23502199 0.18723693 0.092568465
0.22540587 0.23089051 0.094230562
0.21849298 0.26656106 0.092560053
-0.24728593 0.34711 0.095663801
-0.22701544 0.34711 0.097079203
-0.13007528 0.34711 0.094190374
0.055608895 0.34710997 0.090360537
0.18522146 0.34711 0.097308248
0.19004308 0.34711 0.095438607
0.20231855 0.34711 0.092606157
0.21849298 0.34334356 0.097797319
0.22373039 0.34711 0.096553661
-0.21167293 -0.34711 0.10331477
-0.12371042 -0.34711 0.10252636
0.10141984 -0.34711003 0.10092625
0.23502201 -0.3126879 0.10280141
0.23502199 -0.21652526 0.1092975
0.24755844 -0.12200019 0.10372044
0.24411008 -0.096481308 0.1098009
0.23502201 0.25484946 0.10919528
0.074360967 0.34711 0.10266247
-0.13497113 -0.34711 0.11896063
-0.260849 -0.29817635 0.11280724
-0.260849 -0.25398815 0.11968926
0.23502198 -0.25533277 0.11202665
0.24260244 -0.072001725 0.11428566
0.218493 -0.035674598 0.11030649
-0.260849 0.073904037 0.11658317
0.23502198 0.23680407 0.11793771
0.23211294 0.2696479 0.11541105
0.23708898 0.29767942 0.11679268
0.23502199 0.33151725 0.11626261
-0.260849 0.34670204 0.1190372
-0.2554839 0.34711 0.1151894
-0.047352329 0.34711 0.11954823
0.14007732 0.34711003 0.11048864
0.16395788 0.34711003 0.11129208
-0.12082571 -0.34711 0.1217602
-0.077232957 -0.34711 0.12758233
-0.034179531 -0.34711 0.12965405
0.054573681 -0.34710997 0.12437628
0.11243099 -0.34711 0.12284912
0.14785907 -0.34711 0.12771709
0.15538071 -0.34711 0.1277865
-0.260849 -0.20827235 0.12762271
0.25981599 -0.12838666 0.1200802
-0.260849 -0.061527397 0.12675001
0.25981599 0.024925983 0.12929992
-0.260849 0.23541525 0.12255523
-0.058177374 0.34711 0.12710932
0.09586297 0.34711 0.12217417
0.23502201 0.34265774 0.12806235
-0.0014847182 -0.34711 0.1380474
0.034402806 -0.34711003 0.1336579
0.21210502 -0.34711003 0.13963707
-0.260849 -0.26453096 0.13902093
0.25181162 -0.11470443 0.13989146
0.23908105 -0.097619332 0.13269058
0.25981599 -0.065317616 0.1385005
0.22654158 0.040995158 0.13667417
-0.260849 0.24801667 0.13830158
-0.260849 0.27556482 0.13051336
-0.17852509 0.34711 0.1335239
-0.026617229 0.34711 0.13160782
0.017242901 0.34711 0.13768291
0.17491649 0.34711 0.1356838
-0.13091227 -0.34710997 0.1446304
0.14216197 -0.34711003 0.14598081
0.23502199 -0.12625012 0.14574151
0.23502199 -0.095836133 0.14033866
-0.260849 -0.068917125 0.14601703
-0.260849 -0.058885761 0.14072293
-0.260849 0.015449375 0.14288938
-0.260849 0.077453211 0.14323016
-0.260849 0.11266892 0.14824711
0.23502201 0.24909189 0.14593592
-0.076992862 0.34711 0.14780471
-0.053484306 0.34711003 0.14175203
0.069503777 0.34710997 0.14138234
-0.21409798 -0.34710997 0.15409121
-0.2053636 -0.34710997 0.15803075
-0.1897825 -0.34711 0.15851103
0.1543878 -0.34711 0.15731171
0.23502201 -0.26697123 0.15663898
-0.260849 -0.17282848 0.15196204
0.25981599 -0.074513353 0.1525614
0.25793532 -0.027417935 0.15370911
0.25248545 -0.019397093 0.15235278
0.25981599 0.012774541 0.15372631
0.25861111 0.086328484 0.1512834
0.21849301 0.30823636 0.15505002
0.017982552 0.34711 0.15493527
0.040155433 0.34711 0.15775059
-0.22036251 -0.34711 0.16066273
-0.022398734 -0.34710997 0.16478586
-0.260849 -0.33806828 0.16734286
0.23502198 -0.17477718 0.16667709
-0.260849 -0.13039336 0.16748594
-0.260849 -0.083049744 0.169462
0.25981599 -0.085744098 0.16012219
-0.260849 0.038894266 0.16647324
-0.260849 0.11574857 0.16431235
-0.260849 0.19260897 0.16086674
0.23502198 0.33903888 0.16400099
0.11549886 0.34711 0.16374113
0.13522032 0.34711 0.16334668
0.17194286 0.34711 0.16661657
-0.081307583 -0.34711 0.17799264
0.23502199 -0.31237897 0.17372456
0.23502199 -0.16829421 0.17375931
-0.260849 -0.15953936 0.17807871
0.25981599 -0.038462617 0.17392722
-0.260849 -0.0053647161 0.17282856
-0.260849 0.16854927 0.17235747
-0.260849 0.24264422 0.17336529
0.14088331 0.34711 0.17111228
-0.260849 -0.34047911 0.1896082
-0.20711647 -0.34711 0.18594334
-0.1686081 -0.34710997 0.18025824
-0.024935853 -0.34711 0.18374997
0.1670786 -0.34710997 0.18089479
0.23502201 -0.2858111 0.18776444
0.23502201 -0.14182603 0.18304703
-0.260849 -0.13718686 0.18835317
-0.260849 0.086354122 0.18800923
0.25981599 0.087572634 0.1806474
-0.260849 0.1186743 0.18251023
-0.260849 0.19080579 0.18197721
0.23502201 0.31822801 0.18916716
-0.20565271 0.34710997 0.18690006
-0.12817612 0.34711 0.1848906
-0.0014316291 0.34711 0.1807826
0.16641375 -0.34711003 0.19010767
0.23502201 -0.34704587 0.19838744
0.23502201 -0.28718784 0.19611934
-0.260849 -0.27629033 0.19406712
0.23502198 -0.16938876 0.19058374
-0.260849 -0.097470291 0.19817728
0.23502199 -0.046837118 0.19743198
-0.260849 0.14613074 0.19816619
-0.260849 0.19563726 0.1920225
-0.17653923 0.34711003 0.19865605
0.0093769729 0.34711 0.19289264
0.084851712 0.34711 0.19093373
-0.16622186 -0.34711 0.20150642
-0.12969081 -0.34711 0.20230317
-0.076953396 -0.34711 0.20295727
0.16449253 -0.34711 0.20062907
-0.260849 -0.30183157 0.20723847
-0.260849 -0.2421883 0.20563164
-0.260849 -0.076156229 0.20858505
0.23502198 -0.017109804 0.20307106
0.23502201 0.068608329 0.20360932
0.23502201 0.082950473 0.20689517
0.23502199 0.093982138 0.20970951
0.23502199 0.20406877 0.20092265
-0.19564502 0.34711 0.20698886
0.1878939 0.34711003 0.20057288
-0.11391928 -0.34711 0.21432388
0.17150408 -0.34710997 0.21543229
-0.260849 -0.16053861 0.21627179
-0.260849 -0.054016024 0.21988568
-0.260849 0.057442367 0.21874517
0.23502199 0.098111272 0.21630067
-0.260849 0.10465179 0.21658131
-0.260849 0.14190874 0.21862261
-0.260849 0.15659659 0.2140438
0.22109777 0.231407 0.21649504
-0.053488776 0.34711003 0.21777348
0.054399706 -0.34711 0.22983631
-0.260849 -0.25043365 0.22310953
0.23502198 -0.11082417 0.22374563
0.23502201 0.01848948 0.22451131
-0.260849 0.065683484 0.22115225
-0.260849 0.24681017 0.22880092
0.23502199 0.24318357 0.22824493
0.218493 0.2640574 0.22313714
-0.18797413 0.34711 0.22507773
-0.13626617 0.34710997 0.22202688
-0.032894604 0.34711 0.22166222
0.067963697 0.34711 0.22913313
-0.260849 -0.34428391 0.23262958
0.012446113 -0.34711 0.23718894
0.027836442 -0.34711 0.23945376
0.23502199 -0.30235225 0.23854531
-0.260849 -0.21006651 0.23478845
-0.260849 -0.1562334 0.23076475
-0.260849 -0.027227744 0.23870073
-0.260849 0.155242 0.23663518
0.23502199 0.23955867 0.23347998
0.218493 0.33768854 0.23919316
-0.07253582 0.34711 0.23943689
0.05709349 0.34711 0.23757827
-0.26068833 -0.34711 0.2471333
-0.015173241 -0.34093487 0.247936
-0.20767687 -0.3349992 0.24793598
0.033472687 -0.33927596 0.24793598
-0.086531878 -0.32486033 0.247936
-0.0553873 -0.32397431 0.24793598
-0.2499129 -0.31629297 0.247936
0.096425526 -0.31370339 0.24793601
-0.25131586 -0.30052206 0.247936
-0.16978593 -0.30830204 0.24793598
-0.12657197 -0.30641896 0.24793601
0.16423121 -0.30807099 0.247936
0.22154091 -0.30816147 0.247936
-0.2291369 -0.29128227 0.247936
-0.078733623 -0.291769 0.247936
-0.2439754 -0.27080888 0.24793601
-0.21102783 -0.27674708 0.24793601
-0.11093757 -0.27209616 0.247936
-0.00095703453 -0.27707183 0.24793598
0.07740356 -0.27585453 0.247936
0.10798661 -0.27013835 0.247936
0.23187457 -0.27611887 0.24793601
0.087396182 -0.26126885 0.24793598
-0.11078855 -0.25239545 0.247936
-0.0099810585 -0.25713611 0.247936
0.20375139 -0.25831565 0.247936
0.062887982 -0.2426582 0.247936
0.18122353 -0.24584332 0.247936
-0.16572456 -0.23164637 0.24793598
0.046810616 -0.23885539 0.24793598
0.069641009 -0.23082219 0.24793598
-0.21562327 -0.2216249 0.24793598
-0.15529948 -0.22997722 0.247936
0.029531833 -0.22622529 0.247936
-0.16644505 -0.20596635 0.24793598
-0.12630871 -0.20103925 0.24793601
-0.098528758 -0.20919284 0.247936
0.20533548 -0.20112963 0.247936
0.23502199 -0.2074981 0.24032965
-0.20517771 -0.1999788 0.247936
-0.15770231 -0.19449036 0.24793598
0.016525086 -0.19197434 0.24793598
-0.22268206 -0.18879035 0.247936
-0.0010123812 -0.18377098 0.24793598
0.049268447 -0.17738064 0.24793601
0.19201925 -0.17581971 0.24793601
0.22853637 -0.17140989 0.24793601
-0.14807771 -0.14989762 0.24793601
0.18009545 -0.14136869 0.24793598
-0.15052293 -0.1351161 0.24793601
-0.11647835 -0.13510194 0.247936
0.044718042 -0.12332579 0.247936
0.1093553 -0.12471725 0.24793601
0.052851856 -0.11316269 0.247936
-0.26007667 -0.10866775 0.24793601
-0.21788356 -0.10995792 0.24793601
-0.13049296 -0.10838582 0.24793601
-0.083926134 -0.10322861 0.24793601
-0.077030756 -0.1045443 0.247936
0.040984619 -0.096413851 0.247936
0.12470623 -0.096512459 0.24793601
0.20603994 -0.097794719 0.247936
-0.21600752 -0.084091842 0.247936
-0.087945454 -0.082217656 0.24793601
0.021978721 -0.078491718 0.247936
0.16282293 -0.071860567 0.24793598
0.12514901 -0.051900677 0.24793598
-0.059964433 -0.041373655 0.24793601
0.063141629 -0.041643724 0.24793598
0.22016321 -0.041209459 0.247936
-0.0092308689 -0.037380751 0.24793601
0.13481587 -0.03724768 0.24793598
0.14323953 -0.03115236 0.247936
-0.063719824 -0.026741007 0.24793598
-0.13620007 -0.013380557 0.247936
-0.12177964 -0.017133333 0.24793598
0.078395665 -0.018543094 0.247936
0.093318313 -0.012176119 0.24793601
-0.17932671 -0.0086587109 0.247936
-0.10360456 -0.00050566718 0.24793598
-0.0047789016 -0.0025494555 0.247936
0.071958132 -0.0019571856 0.247936
0.13804546 -0.0088313371 0.24793598
0.12913045 0.0054637045 0.24793601
0.17291665 0.0042053834 0.247936
0.046844743 0.0231521 0.247936
-0.16910446 0.033420824 0.247936
-0.02898195 0.047385644 0.24793598
0.19236276 0.047198199 0.247936
0.20199092 0.047702424 0.247936
-0.20036246 0.059073519 0.24793601
0.14177749 0.059543662 0.24793601
-0.083674826 0.066320598 0.24793601
-0.017485475 0.062076636 0.24793601
0.10658516 0.069135897 0.247936
-0.0092734732 0.076176047 0.247936
0.044466995 0.071819663 0.24793598
0.11943208 0.073791347 0.24793601
0.12800814 0.074934296 0.24793601
0.13397858 0.079703502 0.247936
-0.20941353 0.083340153 0.24793601
-0.17766693 0.088965692 0.247936
0.078263253 0.083228074 0.24793598
-0.11587072 0.094801836 0.24793601
0.20200799 0.098746054 0.24793598
-0.22357492 0.1055379 0.247936
-0.260849 0.11948054 0.24292442
0.002733767 0.11356367 0.24793598
0.046833403 0.11439595 0.247936
0.23502199 0.1132076 0.24340819
0.12325206 0.12126089 0.247936
0.083107904 0.13236049 0.24793598
-0.21201111 0.1402954 0.247936
0.0036094412 0.14605516 0.24793598
-0.22280677 0.15312368 0.247936
-0.056689408 0.15632626 0.247936
0.19901831 0.15500841 0.247936
-0.074394621 0.17031081 0.247936
-0.13656399 0.18918487 0.24793598
-0.10961809 0.18312998 0.247936
-0.04590055 0.18459271 0.24793598
-0.17874652 0.19730413 0.247936
-0.11513206 0.19294025 0.247936
-0.081845909 0.19879591 0.247936
-0.20026568 0.20979239 0.247936
-0.0304024 0.20537272 0.24793601
0.019028954 0.20826396 0.24793598
-0.12293272 0.21093717 0.247936
-0.050340969 0.21785492 0.247936
0.050841399 0.21113829 0.247936
0.0269005 0.22326477 0.247936
-0.19975935 0.23493636 0.247936
-0.089799047 0.2350755 0.247936
0.021124512 0.23761135 0.24793601
0.16474989 0.23892404 0.247936
-0.25174221 0.25534448 0.247936
-0.18033443 0.25606114 0.24793601
-0.25142422 0.27820089 0.24793601
-0.033624627 0.27437785 0.24793598
0.004133448 0.27401185 0.247936
0.10315441 0.27176118 0.247936
0.11982106 0.2791211 0.247936
0.19139916 0.27229118 0.247936
0.052361712 0.28935418 0.247936
0.15903662 0.28391033 0.247936
-0.23844317 0.2904571 0.247936
-0.14729857 0.29727972 0.24793601
-0.052516606 0.29495358 0.24793601
0.095542818 0.29180306 0.24793598
0.16857879 0.29734191 0.24793601
-0.13431406 0.30370012 0.247936
-0.081510261 0.30299422 0.24793598
0.015720963 0.31596136 0.24793598
0.10853005 0.31817323 0.247936
-0.15483101 0.32770517 0.24793598
-0.087524205 0.32187098 0.247936
-0.075128891 0.32660538 0.247936
0.026016891 0.32402873 0.24793601
0.1142076 0.3267124 0.24793601
-0.080628268 0.33212185 0.24793601
0.14892811 0.33626872 0.24793598
0.1992432 0.33915898 0.24793601
0.21849298 0.33997652 0.24179822
-0.2104307 0.34711 0.24391177
-0.052616611 0.34711 0.24591562
-0.045433193 0.34332651 0.247936
-0.032004174 0.34711 0.24392237
0.0061375797 0.34710997 0.24340603
0.044142112 0.34711 0.24240758
0.1009419 0.34711 0.2474274
