# .PCD v0.7 - Point Cloud Data file format
VERSION 0.7
FIELDS x y z
SIZE 4 4 4
TYPE F F F
COUNT 1 1 1
WIDTH 972
HEIGHT 1
VIEWPOINT 0 0 0 1 0 0 0
POINTS 972
DATA ascii
-0.22889626 -0.33199456 -0.262431
0.233171 -0.33350161 -0.26212585
-0.11204749 -0.32945144 -0.262431
-0.1001397 -0.32269716 -0.262431
-0.088200405 -0.31962702 -0.262431
0.11383666 -0.31814814 -0.262431
0.13820605 -0.31318963 -0.262431
0.041603908 -0.3001534 -0.262431
0.054762952 -0.30146372 -0.262431
0.082766145 -0.30513787 -0.262431
-0.076936893 -0.29533488 -0.262431
0.16622771 -0.2806977 -0.262431
-0.24281 -0.27139241 -0.26006427
-0.14985248 -0.26973382 -0.262431
-0.051329091 -0.26445493 -0.262431
-0.01599782 -0.26204032 -0.262431
0.10285995 -0.26253662 -0.262431
-0.16290382 -0.25774059 -0.262431
-0.06663695 -0.25064105 -0.262431
0.15298969 -0.24162292 -0.262431
-0.14300835 -0.23484425 -0.26243103
-0.081725426 -0.23722409 -0.262431
-0.076197565 -0.23682697 -0.262431
-0.016046278 -0.23661703 -0.262431
0.0027294531 -0.23611993 -0.262431
0.077026866 -0.23067194 -0.262431
-0.24281001 -0.22091678 -0.26043871
0.017443866 -0.22828591 -0.262431
0.081291609 -0.22581665 -0.262431
0.098593272 -0.22626045 -0.262431
0.19685267 -0.2147575 -0.262431
0.10593466 -0.20277762 -0.262431
0.1923279 -0.20032531 -0.262431
-0.1748682 -0.19058983 -0.262431
0.14030407 -0.19710088 -0.262431
-0.19375619 -0.18190776 -0.262431
0.0031804889 -0.18234205 -0.262431
-0.24253029 -0.17056191 -0.262431
-0.11910069 -0.17527708 -0.262431
-0.013800692 -0.17916188 -0.262431
-0.0066032857 -0.17554143 -0.262431
0.10789333 -0.17107145 -0.262431
0.22267662 -0.17105766 -0.26243097
-0.16622826 -0.16979957 -0.262431
0.20820747 -0.16844019 -0.262431
-0.10757982 -0.15710951 -0.262431
0.10322755 -0.15337564 -0.262431
0.1818822 -0.14786705 -0.262431
-0.030165799 -0.13938928 -0.262431
0.040477224 -0.13176437 -0.262431
0.15819599 -0.13323221 -0.262431
0.059808083 -0.12038264 -0.262431
0.062160671 -0.12516461 -0.262431
0.21039373 -0.12663934 -0.262431
-0.032210726 -0.11554797 -0.262431
0.23287839 -0.11789274 -0.262431
0.03162431 -0.10932031 -0.262431
0.19314747 -0.10261182 -0.262431
0.18178719 -0.099765316 -0.262431
-0.039214492 -0.089737974 -0.262431
-0.011762418 -0.087375343 -0.26243103
0.013369001 -0.08002679 -0.262431
0.17225157 -0.085221417 -0.262431
-0.23385844 -0.070466198 -0.262431
-0.094973207 -0.074224189 -0.262431
-0.07479544 -0.074649103 -0.262431
-0.050635882 -0.074632719 -0.262431
0.098542631 -0.06796781 -0.262431
-0.10844435 -0.05502126 -0.262431
0.0087728528 -0.055406537 -0.262431
0.014704614 -0.055177856 -0.262431
0.076816738 -0.058673792 -0.262431
0.10843801 -0.052463345 -0.262431
-0.016453944 -0.031233318 -0.262431
0.18935359 -0.02372735 -0.262431
-0.014687422 -0.017039701 -0.262431
-0.10791823 -0.0078196377 -0.262431
0.036184281 -0.0026159286 -0.262431
-0.12483974 0.0093004853 -0.262431
-0.17824936 0.019100234 -0.262431
0.23191246 0.0181036 -0.262431
-0.23165418 0.033921398 -0.262431
-0.10112885 0.032399688 -0.262431
-0.054347493 0.03016738 -0.262431
-0.1109501 0.046693925 -0.262431
-0.009009622 0.047316097 -0.262431
0.0088070761 0.043650489 -0.262431
0.10549835 0.04336185 -0.262431
0.23317099 0.049215764 -0.26029712
0.062352855 0.055215925 -0.262431
0.15349594 0.050449606 -0.262431
0.20015484 0.053911604 -0.262431
0.22754532 0.052960325 -0.262431
0.010613412 0.066565156 -0.26243103
0.10536653 0.065834306 -0.262431
-0.075164437 0.079000548 -0.262431
-0.05717773 0.075695843 -0.262431
0.13168943 0.075461522 -0.262431
0.22413474 0.078126483 -0.262431
-0.15307516 0.085431635 -0.262431
-0.23029865 0.097245321 -0.262431
-0.19573511 0.094651073 -0.26243097
-0.16723102 0.099718809 -0.262431
0.033023886 0.095177427 -0.262431
-0.23276871 0.1083359 -0.262431
-0.12572703 0.1091714 -0.262431
0.072903179 0.10244489 -0.262431
0.16729967 0.10958198 -0.262431
0.18493427 0.10080487 -0.262431
0.036284853 0.11552986 -0.262431
-0.15650223 0.12029803 -0.262431
-0.023304701 0.12217441 -0.262431
0.10583158 0.12045827 -0.262431
-0.096086629 0.1328747 -0.262431
-0.02192615 0.1384505 -0.262431
-0.20244536 0.14362669 -0.262431
0.089460678 0.14928693 -0.262431
0.090041071 0.14702424 -0.262431
0.11006866 0.14729424 -0.262431
-0.24250486 0.15736537 -0.262431
0.22475888 0.15361984 -0.262431
-0.10005388 0.16225328 -0.262431
-0.023061961 0.16703446 -0.262431
-0.24249759 0.17943387 -0.262431
-0.2123602 0.17666005 -0.26243097
-0.15126839 0.17290333 -0.262431
-0.096633166 0.17323028 -0.262431
-0.053117611 0.17258379 -0.262431
-0.17291494 0.18425772 -0.262431
-0.13558981 0.18288743 -0.262431
0.008236587 0.18193692 -0.262431
0.16107637 0.1851714 -0.262431
-0.19288683 0.19671825 -0.262431
-0.11813787 0.20882273 -0.262431
-0.043508962 0.20812395 -0.262431
-0.068335451 0.22682041 -0.262431
0.12714194 0.22439131 -0.262431
0.14757305 0.22948423 -0.262431
0.18694726 0.22647834 -0.262431
-0.20045686 0.23691933 -0.262431
-0.014192879 0.23877478 -0.262431
0.21710996 0.23109367 -0.262431
-0.17306817 0.24841577 -0.262431
-0.040164888 0.24312428 -0.262431
0.094033666 0.24002478 -0.262431
0.071785353 0.25102308 -0.262431
0.10351513 0.25679243 -0.262431
0.044602014 0.26469922 -0.262431
0.082198262 0.26542822 -0.262431
-0.21928816 0.27854058 -0.262431
0.025440749 0.27793002 -0.262431
0.069618993 0.27454543 -0.262431
-0.22634193 0.28130317 -0.262431
-0.037135154 0.29125017 -0.26243097
0.11831497 0.2967433 -0.262431
-0.13614295 0.30634621 -0.262431
-0.06583555 0.30952641 -0.262431
-0.051176161 0.30636176 -0.262431
0.0012493879 0.30079246 -0.262431
-0.20141101 0.31725645 -0.262431
0.17509501 0.32733792 -0.262431
-0.11716229 -0.33588099 -0.25098428
-0.081277691 -0.33588099 -0.25157091
0.020314477 -0.33588099 -0.25464562
-0.24281 -0.2459064 -0.25561616
0.233171 -0.2029558 -0.25190955
-0.24281 -0.13228324 -0.25981042
0.23317102 -0.13579658 -0.25151497
0.23317102 -0.094650134 -0.25639194
-0.24280998 -0.04788579 -0.25144911
0.233171 -0.036361866 -0.25254533
-0.24281 0.044000149 -0.25997147
-0.24281 0.099082991 -0.25603908
-0.24281001 0.13588433 -0.25599039
-0.24280998 0.18189013 -0.25216705
0.05678156 0.33292401 -0.25459367
0.067332938 0.33292401 -0.25328571
-0.017178863 -0.33588099 -0.24662079
0.090938769 -0.33588099 -0.24635963
0.23317099 -0.2969051 -0.24066831
0.233171 -0.20350321 -0.24775639
0.23317099 -0.048600815 -0.24828321
0.23317102 0.058866411 -0.24157099
0.233171 0.11487307 -0.24416047
-0.24281 0.16531029 -0.24012394
0.233171 0.18088378 -0.24703403
0.242369 0.29155678 -0.24652191
0.028625479 0.33231455 -0.24807301
0.073395908 0.33177501 -0.24680945
0.13916802 0.33177501 -0.2480426
-0.24281 -0.23701873 -0.23651557
0.233171 -0.21959314 -0.23396578
0.233171 -0.18807337 -0.23502845
0.23317099 -0.04816423 -0.23075882
0.233171 0.20183744 -0.23349699
-0.24281 0.21502018 -0.23520555
-0.24280998 0.25625533 -0.23105495
-0.26137 0.32212603 -0.23381931
-0.021163963 0.33177501 -0.23938502
-0.062301144 -0.33588099 -0.22929385
0.037869804 -0.33588099 -0.22735962
0.19394496 -0.33588099 -0.22648191
-0.24281001 -0.19448882 -0.22228982
0.233171 0.011106506 -0.22036371
0.23317099 0.16251519 -0.22637349
0.233171 0.19491115 -0.22941688
-0.10374931 0.33177501 -0.2247766
-0.037501834 0.33177501 -0.22920674
0.042535827 -0.33588099 -0.21342453
0.23317102 -0.30427402 -0.21561915
0.23317102 -0.24071625 -0.21114989
0.23317102 -0.16058794 -0.21842152
-0.24281 -0.1433862 -0.21503547
-0.24281 -0.10272262 -0.21506184
-0.24281 -0.064332858 -0.21270999
-0.24281001 -0.02167204 -0.21863057
-0.24280998 0.046252713 -0.21721098
-0.24281 0.16540875 -0.21865411
-0.24280998 0.232235 -0.21580906
-0.12730625 0.33177501 -0.21545224
-0.11585617 0.33177501 -0.21977565
0.066694915 -0.33588099 -0.2078397
-0.24280998 -0.28289297 -0.20841612
0.23317099 -0.28673318 -0.2071224
0.233171 -0.26121044 -0.20623091
0.233171 -0.22889894 -0.20307577
0.23317099 -0.18792641 -0.20741549
-0.24280998 -0.030620798 -0.20636246
0.233171 -0.030592544 -0.2038492
0.23317102 0.047987252 -0.20425336
0.233171 0.050166771 -0.2041195
0.233171 0.068907589 -0.20794225
0.233171 0.10376515 -0.20420098
-0.24281 0.23585105 -0.20363142
0.242369 0.29572353 -0.20906037
0.242369 0.31071201 -0.2092301
-0.20250341 0.33177501 -0.20886604
-0.078168325 0.33177501 -0.20534343
-0.072959393 -0.33588099 -0.19846602
-0.03220538 -0.33588099 -0.19102955
0.035105534 -0.33588099 -0.19818586
0.233171 -0.29843992 -0.19357297
-0.24281 -0.25480872 -0.19446562
0.233171 -0.055792876 -0.19299614
0.23317099 -0.0021092743 -0.19524832
-0.24280998 0.088673629 -0.19190477
-0.24280998 0.091541596 -0.19371077
0.23317102 0.10337069 -0.19642602
0.233171 0.18867674 -0.19023721
0.242369 0.26262704 -0.19839782
0.242369 0.27203813 -0.19285706
0.13672145 0.33177501 -0.1916972
-0.013979211 -0.33588099 -0.18461683
0.10703847 -0.33588099 -0.18117052
0.17411469 -0.33588099 -0.18342951
0.21383287 -0.33588096 -0.18962237
-0.24281 -0.32064354 -0.18648361
-0.24281 -0.2043927 -0.1839699
0.233171 -0.091638476 -0.18052302
-0.24281 -0.080083497 -0.18411148
0.233171 -0.031972978 -0.18502209
0.23317099 -0.029486082 -0.18468192
0.23317102 0.12697311 -0.18030566
-0.24280998 0.25157061 -0.18688062
0.242369 0.254565 -0.18540075
0.242369 0.28634021 -0.18924904
-0.24281 0.29570195 -0.18028037
-0.1961666 0.33177501 -0.18870427
0.045984045 0.33177501 -0.18147123
-0.21539356 -0.33588099 -0.17032972
-0.093012005 -0.33588099 -0.17993698
0.12700488 -0.33588099 -0.17363966
0.13717651 -0.33588099 -0.17108735
0.21621498 -0.33588099 -0.17770782
-0.24281 -0.31612295 -0.17373803
0.233171 -0.24188754 -0.17761424
-0.24281001 -0.06203112 -0.17584208
0.23317102 0.0033771656 -0.17304972
0.233171 0.12449755 -0.17876181
0.24149558 0.23856202 -0.17957309
0.242369 0.25102931 -0.17899711
0.25156599 0.27225608 -0.17310187
-0.20735161 0.33177501 -0.17877464
0.079867601 0.33177501 -0.17977579
-0.10586074 -0.33588099 -0.16919333
-0.029368695 -0.33588099 -0.16229995
0.233171 -0.32821438 -0.16381198
0.233171 -0.29796052 -0.16245605
0.233171 -0.25719255 -0.16459751
-0.24281 -0.24622014 -0.16252843
-0.24281 -0.19318563 -0.16500439
0.23317102 -0.13107562 -0.16778728
-0.24281001 -0.12796497 -0.1686818
-0.24280998 0.25307077 -0.16024016
-0.22423749 0.33177501 -0.16545334
-0.17523855 0.33177501 -0.16337425
0.057672203 0.33177501 -0.16944295
0.086271733 0.33177501 -0.16166262
0.12342915 0.33177501 -0.16887839
-0.098114789 -0.33588099 -0.15456298
-0.24281 -0.31886089 -0.15332925
-0.24281 -0.20243637 -0.15810727
-0.24281 -0.081370182 -0.15826279
0.23434971 -0.058807783 -0.15998574
0.24250212 -0.058808539 -0.15998562
0.24516 0.027446536 -0.15095067
0.23317099 0.04678072 -0.15400748
0.2418848 0.23856202 -0.15191802
-0.24281 0.26328018 -0.1549806
0.24858063 0.26340249 -0.15672323
-0.17797408 0.33177501 -0.15437731
-0.15854044 0.33177501 -0.15761469
-0.08607085 0.33177501 -0.15398796
0.131384 0.33177501 -0.1552102
-0.10497436 -0.33588099 -0.14242822
-0.057662982 -0.33588099 -0.14301252
0.08811827 -0.33588099 -0.14471632
0.13859785 -0.33588099 -0.14217974
0.233171 -0.1065932 -0.14848018
0.242369 0.31400543 -0.1462999
0.242369 0.32078764 -0.145845
0.064144462 0.33177501 -0.14557648
0.16409969 0.33177501 -0.14520174
0.1707612 0.33177501 -0.14617489
-0.22974475 -0.33588099 -0.1326651
-0.20678483 -0.33588102 -0.1301308
0.16711093 -0.33588099 -0.13354713
0.18764466 -0.33588099 -0.13186634
0.20630002 -0.33588099 -0.1371296
0.21680158 -0.33588099 -0.13914856
0.25715101 -0.087615222 -0.13018167
-0.24281001 0.051440414 -0.13370056
-0.24281 0.13540015 -0.13562642
0.24384701 0.28765631 -0.13161792
-0.09469112 0.33177501 -0.1386053
-0.046527356 0.33177501 -0.13887067
0.075441636 0.33177501 -0.13073194
0.11546002 0.33177501 -0.13679516
0.20870578 0.33177501 -0.13927568
-0.038267292 -0.33588099 -0.12075043
-0.026451692 -0.33588099 -0.12198803
0.066859648 -0.33588099 -0.12223401
-0.24281 -0.31175095 -0.12681851
-0.24281 -0.23906638 -0.12589315
-0.24280998 -0.15521318 -0.12875724
0.23317102 -0.089045115 -0.12612242
-0.24280998 -0.073633894 -0.12483843
0.23317099 0.046796273 -0.12692447
-0.24281 0.19385952 -0.12582159
-0.18351199 0.33177501 -0.12134748
0.14622808 0.33177501 -0.12730084
-0.22594365 -0.33588099 -0.11393344
-0.21652187 -0.33588099 -0.11260893
0.233171 -0.23326571 -0.1193962
-0.24281 -0.22651435 -0.11011923
-0.24281 -0.1800766 -0.11244109
0.24807839 -0.13317959 -0.11068158
-0.24281001 -0.095560454 -0.11975439
0.23979859 -0.061227567 -0.1169568
-0.24280998 -0.054693952 -0.11742729
0.25367087 -0.0012440761 -0.11693396
-0.24281001 0.14001238 -0.11475067
0.23317099 0.15425985 -0.11241925
-0.11023378 0.33177501 -0.11109474
0.018924601 -0.33588099 -0.1085081
0.233171 -0.28456751 -0.10203312
0.23317099 -0.27209342 -0.10963766
0.23317099 -0.22728318 -0.10428268
-0.24281001 -0.1191461 -0.10907111
0.233171 -0.11806236 -0.10257877
0.24680835 0.023760095 -0.10707068
0.233171 0.15171902 -0.10994224
-0.24281 0.29444057 -0.10045534
-0.15106189 0.33177501 -0.10231755
-0.11928455 0.33177501 -0.10442802
0.10391898 0.33177501 -0.10595855
0.0939245 -0.33588099 -0.097654648
0.15527129 -0.33588099 -0.098528087
0.25715101 -0.14613394 -0.09179128
0.2557956 0.039246857 -0.09732759
-0.24281001 0.045460701 -0.097188875
0.233171 0.06827262 -0.092421778
0.23317099 0.07817845 -0.094269589
-0.24281001 0.15453285 -0.097731262
0.242369 0.25647303 -0.095575266
-0.2530607 0.30002499 -0.091198646
0.242369 0.30975884 -0.095733754
-0.22741412 0.33177501 -0.093867205
-0.12459271 0.33177501 -0.091018066
0.013209976 0.33177501 -0.097873226
0.1152311 -0.33588099 -0.086532034
0.21270582 -0.33588099 -0.089028575
0.233171 -0.30246291 -0.082830243
0.233171 -0.28600118 -0.08502508
0.24517633 -0.15253057 -0.087573752
0.23317099 -0.12831664 -0.087625861
-0.24281001 0.011130244 -0.082196653
0.23677951 0.051495407 -0.08770664
-0.24280998 0.19558056 -0.080210976
0.23317099 0.23342875 -0.083696589
0.24319001 0.26932377 -0.082095928
-0.24135679 0.33177501 -0.089256495
0.0070015509 -0.33588099 -0.071869642
-0.24281 -0.22999924 -0.076064825
0.23587494 0.05931405 -0.079311498
0.233171 0.11225644 -0.077139683
0.242369 0.31573856 -0.072714716
-0.21404587 0.33177501 -0.076381922
-0.17077157 0.33177501 -0.071106911
0.17475542 0.33177501 -0.074810147
0.20529336 0.33177501 -0.071905956
-0.23358861 -0.33588099 -0.060859747
-0.24281 -0.24996819 -0.063403375
-0.24281 -0.19379924 -0.063898057
-0.24281 -0.090600304 -0.064793319
-0.24281 -0.029813349 -0.061493598
-0.24281 -0.0032034181 -0.061851129
0.24735074 0.072733805 -0.061406184
0.23317102 0.093260519 -0.06649328
0.233171 0.14888862 -0.061851196
-0.24281001 0.17872244 -0.06873852
0.23317102 0.19644816 -0.069087639
0.23317102 0.21227235 -0.0604048
-0.024550628 0.33177501 -0.065048397
-0.16249974 -0.33588099 -0.058300395
-0.1460371 -0.33588099 -0.052351091
-0.11691548 -0.33588099 -0.05736579
-0.0053679869 -0.33588099 -0.055151947
-0.24281 -0.095502071 -0.059982963
-0.24281 -0.045912102 -0.050421771
0.23317102 0.11668839 -0.053386532
-0.24280998 0.13896099 -0.059639759
0.233171 0.22700641 -0.059160285
-0.24281001 0.23522797 -0.052458838
-0.24281 0.26368663 -0.052178051
-0.24281001 0.27066466 -0.057813082
-0.059657298 0.33177501 -0.059948266
-0.19137794 -0.33588099 -0.041569561
-0.012568732 -0.33588099 -0.041340381
0.11817655 -0.33588099 -0.041682899
0.18791422 -0.33588099 -0.046783566
-0.24281 -0.32376274 -0.049222004
-0.24281 -0.24592996 -0.045903109
0.24516 0.11715855 -0.042703755
0.23317102 0.22140314 -0.048969142
-0.24281001 0.23169297 -0.044956356
-0.24281 0.26585245 -0.049386211
0.24319001 0.27978027 -0.041915793
0.24319002 0.29297626 -0.045539983
-0.15439264 -0.33588099 -0.037128128
-0.13816874 -0.33588099 -0.034101725
-0.080210403 -0.33588099 -0.036087587
0.062726289 -0.33588099 -0.036098734
-0.24281001 -0.1177021 -0.033834651
-0.24281001 -0.062963262 -0.03608302
-0.24281001 -0.039273426 -0.033763058
0.25588071 0.084133781 -0.034479633
-0.24280998 0.15838037 -0.038709864
-0.24281 0.21188638 -0.035490751
0.24368301 0.25414371 -0.030157836
-0.24281 0.26473695 -0.030507058
-0.18753028 -0.33588099 -0.024585225
0.015729502 -0.33588099 -0.027821302
0.15328753 -0.33588099 -0.0272163
-0.24281 -0.086044498 -0.021359406
-0.24281 0.064545527 -0.024434566
-0.24280998 0.12165642 -0.024828847
-0.24280998 0.16498087 -0.025979787
-0.24281 0.23682114 -0.028121121
0.18398817 0.33177501 -0.027728848
-0.24280998 -0.33083442 -0.018350452
-0.22647515 -0.33588099 -0.015559345
-0.062475733 -0.33588099 -0.014477476
0.017540842 -0.33588099 -0.011489332
0.089054361 -0.33588099 -0.017392773
0.17964436 -0.33588099 -0.016778566
-0.24281 -0.25102177 -0.014376819
0.2541444 -0.17923866 -0.017792435
-0.24281001 0.096891932 -0.013443921
-0.24281 0.15794715 -0.019800916
-0.24281 0.25493699 -0.014455259
-0.0011301786 0.33177501 -0.014334299
0.078563251 0.33177501 -0.016779821
0.14724459 0.33177501 -0.014093511
-0.18521342 -0.33588099 -0.003775239
-0.14265889 -0.33588099 -0.00467816
0.015806818 -0.33588099 -0.00074204151
0.15363854 -0.33588099 -0.0016758703
0.19509801 -0.33588099 -0.0070491433
-0.24281 -0.31326067 -0.0085711554
0.243026 0.27629882 -0.0064570205
-0.25461072 0.30002499 -0.0058147013
-0.24960533 0.30002499 -0.0089764595
0.07617344 -0.33588099 0.0072437823
0.233171 -0.17986971 0.0039290553
0.24270634 0.13318375 0.00071334525
-0.24281 0.22868317 0.0065786596
-0.17401582 0.33177501 0.0069599226
-0.13690768 0.33177501 0.00730142
-0.14824928 -0.33588099 0.01957541
-0.097459719 -0.33588099 0.018649075
0.073659867 -0.33588099 0.018374652
0.14048153 -0.33588099 0.014782965
0.23317099 -0.28549391 0.017510971
0.233171 -0.24337138 0.018278666
-0.24280998 -0.21774614 0.017217621
-0.24281 -0.19510949 0.015254494
0.233171 -0.16353786 0.015322864
-0.24281 0.030945644 0.016324908
0.25114557 0.11797345 0.014456088
-0.24280998 0.12873402 0.010825247
-0.24280998 0.19830507 0.010389239
-0.24281001 0.21794692 0.011353534
-0.24280998 0.23884588 0.018134944
0.242369 0.23942837 0.013405155
-0.26137 0.31635645 0.01316829
-0.22745803 0.33177501 0.014504813
-0.025018722 0.33177501 0.016985931
0.05981129 0.33177501 0.01836805
0.16823147 -0.33588099 0.026511766
-0.24280998 -0.21328922 0.026881609
0.23317102 0.11449993 0.021362733
-0.24281001 0.27593356 0.021590985
-0.26137 0.3113113 0.026134415
-0.027575785 0.33177501 0.025579002
0.12851614 0.33177501 0.020477243
-0.15407403 -0.33588099 0.038235478
0.062228024 -0.33588099 0.031475149
0.22080526 -0.33588099 0.038590424
-0.24281 -0.29139519 0.030105531
0.23317099 -0.27485448 0.033324361
-0.24281 -0.19234771 0.033041216
-0.24280998 -0.13680285 0.030056708
-0.24280998 0.0013030469 0.032328628
0.24516 0.11779547 0.038352489
-0.24281 0.18685795 0.031350061
0.242369 0.31789213 0.037902787
-0.00028675795 0.33177501 0.030784033
0.233171 -0.24414369 0.048521426
-0.24281 -0.041672777 0.041466422
0.23317099 0.12811548 0.048437051
-0.24281 0.22112417 0.047368158
-0.059480932 0.33177501 0.041106187
0.0072329082 0.33177501 0.042723279
0.17651027 0.33177501 0.040775634
-0.18926492 -0.33588099 0.055627584
-0.097450018 -0.33588099 0.055937365
0.25715101 -0.16509086 0.056945782
-0.24280998 0.061839595 0.059727341
0.24037345 0.238562 0.050158486
-0.24280998 0.26822537 0.052612238
-0.18199648 0.33177501 0.054615892
-0.029457813 0.33177501 0.056916066
-0.23743869 -0.33588099 0.065763406
-0.079132527 -0.33588099 0.060790502
0.2204366 -0.33588099 0.062198848
-0.24281 -0.32955217 0.069104858
-0.24280998 -0.29109576 0.063329346
0.23317099 -0.22512537 0.063690059
0.25715101 -0.15746987 0.063939743
0.233171 0.19254415 0.060902394
0.23317102 0.22426 0.066762887
-0.16833615 0.33177501 0.067614488
0.14761597 0.33177501 0.067729145
0.16455433 0.33177501 0.061249185
0.242369 0.33123097 0.066779673
-0.19478944 -0.33588099 0.075093254
0.233171 -0.27633488 0.078612171
-0.24280998 -0.23786449 0.07060951
0.233171 -0.16558683 0.074726202
0.23317099 0.06814231 0.076423049
0.23317102 0.070575155 0.075556248
0.233171 0.11321239 0.077560417
0.233171 0.19498235 0.071694106
-0.24281 0.2467128 0.079576708
0.242369 0.28695387 0.078196168
0.19148329 0.33177501 0.075124517
-0.010756208 -0.33588099 0.082717553
0.12479854 -0.33588099 0.084460124
0.17066219 -0.33588099 0.08186996
0.19504267 -0.33588099 0.083936416
-0.24281001 -0.19220163 0.083606675
0.233171 -0.15953743 0.087633982
0.25184727 0.049067903 0.088381439
-0.24281001 0.051681984 0.080496915
0.23976433 0.052410312 0.085876487
0.233171 0.068521135 0.084807359
0.24516001 0.10320397 0.081697002
-0.24280998 0.11193496 0.085197762
-0.26137 0.3025431 0.083967768
-0.022308707 0.33177501 0.08909665
0.19605014 0.33177501 0.080665536
-0.16663238 -0.33588099 0.090186812
-0.14444366 -0.33588099 0.098190218
-0.13168682 -0.33588099 0.091115423
0.233171 -0.30701005 0.092916347
0.25453532 -0.14704287 0.093203664
-0.24280998 -0.074014142 0.099335693
0.23562378 0.238562 0.092106804
0.242369 0.32186517 0.095563315
-0.21876922 0.33177501 0.092787854
-0.15295959 -0.33588099 0.10112727
0.233171 -0.31808341 0.10040212
-0.24281001 -0.28447255 0.10078339
0.233171 -0.23127258 0.10170135
0.25715101 -0.12572595 0.10461473
-0.24280998 0.068066001 0.10294283
0.23317102 0.064232796 0.10915411
0.233171 0.089252859 0.10840416
0.23317099 0.15754099 0.10486382
0.23317099 0.19023731 0.10443699
0.242369 0.3218413 0.10894719
-0.15591793 0.33177501 0.10859271
0.11530419 0.33177501 0.10609356
-0.17590144 -0.33588099 0.11152327
-0.075596571 -0.33588099 0.11567853
0.035683326 -0.33588099 0.11089283
0.052321371 -0.33588099 0.11932893
-0.24281 -0.30693978 0.11952898
-0.24281 -0.097419381 0.11596005
0.233171 -0.078302287 0.11834456
0.24877593 -0.065020755 0.11424379
0.25705338 -6.6748704e-05 0.1153684
0.233171 0.013987652 0.11238465
0.25715101 0.041113462 0.11013111
-0.24543843 0.30002499 0.11262089
-0.18366562 0.33177501 0.11677892
-0.12019116 0.33177501 0.11400609
-0.054149788 0.33177501 0.11521708
-0.061190739 -0.33588099 0.12716278
0.018094957 -0.33588099 0.12572458
0.067540891 -0.33588099 0.12060522
-0.24281 -0.31868744 0.12101781
0.23317102 -0.16994514 0.12778334
-0.24280998 -0.11028017 0.12015979
-0.24281001 -0.054296568 0.12711285
0.233171 -0.034118723 0.12573226
-0.15846513 0.33177501 0.12908569
0.17203708 0.33177501 0.12080991
-0.24281 -0.33268061 0.1326727
-0.029734606 -0.33588099 0.13446963
0.233171 -0.20800409 0.13659197
-0.24281 -0.18444325 0.13684133
-0.24281001 -0.09472084 0.13171487
0.233171 0.029470472 0.13353115
-0.24280998 0.033598512 0.13485712
0.233171 0.045312978 0.13582844
0.24120677 0.069795132 0.13103804
-0.18379618 0.33177501 0.13037962
0.040137209 0.33177501 0.13929588
0.233171 -0.32618022 0.14718223
0.233171 -0.17144866 0.1489044
0.233171 -0.11459724 0.14732292
0.233171 -0.060239829 0.14155303
0.24516 0.0061056078 0.14803948
0.23317102 0.078459606 0.14974773
-0.24281 0.12720419 0.1436276
0.233171 0.17500147 0.14940655
0.233171 0.18915811 0.14000081
0.22068436 0.2767204 0.1458215
-0.21990527 -0.33588099 0.15402851
0.091371819 -0.33588099 0.15954544
0.10641434 -0.33588099 0.15775362
0.233171 -0.32016242 0.15362747
-0.24281 -0.2849997 0.15076239
0.24810918 -0.021539785 0.15277275
-0.24281001 -0.019824162 0.15684223
-0.24701962 0.30002499 0.15789363
-0.26137 0.31994876 0.15973791
-0.25501728 0.33292401 0.15951462
-0.13508555 0.33177501 0.15372069
0.233171 -0.31818882 0.16206609
-0.24281 -0.30031317 0.16250876
-0.24281001 -0.2752957 0.16433597
-0.24280998 -0.26592737 0.1657221
0.233171 -0.25448126 0.16488896
0.23317099 -0.2091358 0.16818871
-0.24281 -0.093186468 0.16121787
0.23941129 -0.059962802 0.16448893
0.23816681 -0.026293855 0.16762742
0.2408817 -0.026220053 0.16659176
0.24145932 -0.0196981 0.16815476
0.2403459 0.0065138498 0.1624009
-0.24281 0.024871349 0.16013376
-0.24281 0.20656624 0.1659449
-0.24281 0.22051731 0.1698291
-0.24281 0.2735284 0.16247338
0.216254 0.28023925 0.16072172
-0.26119411 0.33292401 0.16606621
-0.18117411 0.33177501 0.16761169
-0.12122734 0.33177501 0.16071808
0.19616285 -0.33588099 0.17864133
-0.24281 -0.3230699 0.17708255
-0.24280998 -0.28398991 0.17808324
-0.24281 -0.067591369 0.17291744
0.23326638 0.27195799 0.17204249
-0.24917212 0.33177501 0.1747674
0.16908365 0.33177501 0.17106616
0.23829149 0.33292401 0.17693695
-0.18395436 -0.33588099 0.18378459
-0.033186689 -0.33588099 0.18868092
0.21853273 -0.33588099 0.18499081
0.233171 -0.29905757 0.18595016
0.23317102 -0.25934646 0.18519342
0.23317099 -0.23630793 0.18638098
-0.24281001 -0.15526584 0.18811479
-0.24280998 -0.063727379 0.1845783
0.23317099 0.025777794 0.18616548
0.23317099 0.12179349 0.18858901
-0.24281 0.20991336 0.18857473
-0.24281 -0.33325574 0.19412714
-0.24281001 -0.2406809 0.19124098
-0.24281 -0.063031256 0.19965166
-0.24281001 -0.057894215 0.19938639
-0.24281001 0.12820294 0.19957687
-0.24281001 0.13149387 0.19272365
0.23317102 0.14034478 0.1989415
-0.24281001 0.15093325 0.19296581
-0.24281 0.18584271 0.19308466
-0.12643774 -0.33588099 0.20545945
-0.24281 -0.29823285 0.20599052
0.233171 -0.22441725 0.20068534
-0.24281 -0.2184964 0.20710555
0.233171 -0.19023332 0.20114577
-0.24280998 -0.080911987 0.20165482
0.23317102 -0.077648304 0.20059429
0.23317099 0.089668758 0.20114635
-0.24281 0.23349395 0.20468765
0.025477882 0.33177501 0.20771973
0.23317102 -0.32002461 0.21205379
-0.24281 -0.22307396 0.21027564
0.23317099 -0.21630149 0.21872109
0.233171 -0.11848706 0.2157667
0.23317099 -0.097096026 0.21744302
0.233171 -0.062829308 0.21028921
0.23317102 -0.044355914 0.21643989
-0.24281 0.28590536 0.21368971
-0.2428674 0.30002499 0.21511512
0.23158419 0.30499899 0.21161196
-0.25782877 0.33292401 0.21377386
-0.19716355 0.33177501 0.21156333
-0.042924315 0.33177501 0.2173681
0.233171 -0.16320801 0.22278728
0.23317099 -0.095111266 0.22123951
-0.24281 -0.084298454 0.22574179
0.23317099 -0.04932075 0.22884199
0.233171 0.027849287 0.22946599
-0.10015701 0.33177501 0.22552426
0.15535761 0.33177501 0.22781548
0.16579612 0.33177501 0.22288646
0.060179867 -0.33588099 0.23042043
0.233171 -0.27338648 0.23426309
0.23317099 0.05501632 0.23384327
-0.24281 0.089377932 0.2352393
0.23317099 0.086270109 0.2362839
0.233171 0.09834902 0.23312421
0.23317102 0.11174388 0.2317366
0.23317099 0.19606927 0.23040953
-0.24281 0.29915109 0.23368558
-0.25363281 0.33292401 0.23285049
-0.18852587 0.33177501 0.23625247
0.16666615 0.33177501 0.23101722
0.19796301 0.33177501 0.23191433
0.019245083 -0.33588099 0.24064346
0.15626092 -0.33588099 0.24451354
0.23317099 -0.20338568 0.24685068
0.23317099 -0.14333014 0.24604252
0.233171 -0.0059985518 0.2490579
-0.24281 0.011696801 0.24803263
-0.24281 0.032460257 0.2482738
0.233171 0.059608229 0.24583638
-0.24281 0.1641064 0.24365264
0.242369 0.26315203 0.24227327
0.242369 0.27535665 0.24328661
-0.25921652 0.33292401 0.24442178
0.10101854 0.33177501 0.24560659
-0.15367472 -0.33588099 0.25280431
0.233171 -0.32614186 0.2538622
-0.24281 -0.2811079 0.25843364
0.233171 -0.11916491 0.25731117
0.233171 -0.064831503 0.25969037
-0.24281 0.21455251 0.25529116
-0.26078695 0.30002499 0.25781158
-0.1392574 0.33292401 0.25717095
-0.02588369 0.33292401 0.25330606
0.10066071 0.33292401 0.25800827
0.12366836 0.33292401 0.25397739
-0.24265046 -0.33485162 0.262431
-0.079325832 -0.33485642 0.26243103
0.05508972 -0.33588099 0.26203039
-0.22168081 -0.3213729 0.262431
-0.2108677 -0.32323411 0.262431
0.17025341 -0.32379973 0.262431
0.18592456 -0.32337791 0.262431
-0.19049533 -0.31349611 0.262431
0.12010286 -0.31108958 0.262431
0.067079537 -0.30085492 0.262431
0.1943278 -0.3061569 0.262431
-0.20453259 -0.29381099 0.262431
0.20442069 -0.29205114 0.262431
-0.13426061 -0.28524786 0.262431
0.16857938 -0.28712636 0.262431
0.22517936 -0.28900227 0.262431
-0.15677311 -0.27588353 0.262431
-0.14884634 -0.27633974 0.262431
-0.23450643 -0.26534164 0.262431
-0.22077787 -0.26834074 0.262431
-0.19456677 -0.2697871 0.262431
-0.1419318 -0.26202619 0.262431
0.063134871 -0.26291934 0.262431
-0.1894542 -0.25638163 0.262431
-0.013480268 -0.25472623 0.262431
-0.0085510071 -0.25356889 0.262431
0.13902134 -0.25550976 0.262431
-0.064527467 -0.24618568 0.262431
0.11091792 -0.24679534 0.262431
-0.18771365 -0.22058654 0.262431
-0.17224181 -0.22120246 0.262431
-0.0060316715 -0.22924933 0.262431
0.056178417 -0.22552976 0.262431
0.13045895 -0.22696199 0.262431
-0.21620193 -0.21507466 0.26243097
-0.21149716 -0.20265374 0.262431
-0.16364418 -0.20968674 0.26243097
-0.11378434 -0.20340195 0.262431
0.014735702 -0.19495991 0.262431
-0.10759444 -0.18627603 0.262431
-0.060481414 -0.18153951 0.262431
0.050371595 -0.18933082 0.262431
-0.11781473 -0.17048305 0.262431
-0.013993673 -0.17051888 0.262431
0.074861228 -0.1734506 0.262431
0.19944701 -0.17889383 0.262431
-0.048915263 -0.16945904 0.262431
-0.21491081 -0.15774605 0.262431
-0.016566694 -0.15138842 0.262431
0.0054671317 -0.15354964 0.262431
0.076458231 -0.15730235 0.262431
-0.087361023 -0.14836422 0.262431
0.21978325 -0.1420562 0.262431
-0.13133648 -0.13414377 0.262431
-0.24103901 -0.1213348 0.262431
-0.0051661953 -0.12727696 0.262431
0.04329402 -0.12881002 0.262431
0.13299382 -0.125433 0.262431
-0.002272144 -0.11245497 0.262431
0.015611164 -0.11585165 0.262431
0.041737132 -0.11375435 0.262431
0.089325942 -0.1189594 0.262431
0.19471855 -0.11598773 0.262431
0.040652167 -0.1008377 0.262431
0.14592952 -0.10800542 0.262431
0.16910826 -0.10768099 0.262431
-0.2048663 -0.094282605 0.262431
-0.10897793 -0.096219011 0.262431
-0.072819054 -0.096639246 0.262431
0.14552957 -0.096591562 0.262431
0.20645915 -0.097913496 0.262431
-0.20753312 -0.086060457 0.262431
0.17466804 -0.087223046 0.262431
0.20319217 -0.083022267 0.262431
-0.023154048 -0.07436496 0.262431
0.079972997 -0.071155891 0.262431
-0.24281 -0.063157633 0.26035112
-0.22741961 -0.068019263 0.262431
0.16113356 -0.068905219 0.262431
0.21478555 -0.061454229 0.262431
0.21430191 -0.05943343 0.262431
0.029355213 -0.042348787 0.262431
0.047718182 -0.040781736 0.262431
0.093898997 -0.046854809 0.262431
-0.13937885 -0.032572418 0.262431
-0.11867838 -0.031308502 0.262431
0.072611749 -0.034771003 0.262431
0.12221494 -0.038707297 0.262431
0.16259468 -0.033173032 0.262431
-0.026126176 -0.023583159 0.262431
0.067374095 -0.029695731 0.262431
-0.21899273 -0.011497706 0.26243103
-0.1252922 -0.013196468 0.262431
0.11910128 -0.017779276 0.262431
-0.23857608 -0.0099619627 0.262431
-0.18112081 -0.0030738786 0.262431
-0.030449027 -0.0020786631 0.262431
-0.0035670828 -0.0014773658 0.262431
0.0073589119 -0.0045860484 0.262431
-0.13081919 0.0088241622 0.262431
-0.038199872 0.010001779 0.26243097
0.23240066 0.01752454 0.262431
-0.039686717 0.025994912 0.262431
0.082835756 0.029002592 0.262431
0.14335436 0.029310539 0.262431
0.19053081 0.021283492 0.262431
-0.13644367 0.032089762 0.262431
-0.058636103 0.039324686 0.262431
0.022619998 0.031616483 0.262431
0.18710303 0.049544379 0.262431
0.2328566 0.042801529 0.262431
-0.12876914 0.056490853 0.262431
0.041684579 0.052514941 0.262431
-0.089375876 0.069491193 0.262431
-0.070924126 0.064538345 0.262431
-0.19556983 0.075527854 0.26243103
-0.16858691 0.072267234 0.262431
0.20254694 0.074000724 0.262431
-0.082407705 0.08028169 0.262431
0.026292443 0.085187703 0.262431
0.095528454 0.080914184 0.262431
-0.22771871 0.090954743 0.262431
-0.17119427 0.09359584 0.262431
0.18710634 0.092452019 0.262431
-0.16307908 0.10255454 0.262431
0.064917788 0.1054043 0.262431
-0.19395481 0.11285253 0.262431
0.14495453 0.11332819 0.262431
0.18458509 0.12944427 0.262431
-0.07774242 0.13037302 0.262431
-0.0032234527 0.13632438 0.262431
0.14598705 0.13022181 0.262431
-0.21865588 0.14108731 0.262431
-0.00068571419 0.14615983 0.262431
0.036428284 0.14102015 0.262431
0.11318065 0.14657369 0.262431
0.19140077 0.14543033 0.262431
-0.1900356 0.15342472 0.262431
-0.088887013 0.16179135 0.262431
-0.01906025 0.16196039 0.262431
0.20841116 0.16329005 0.262431
-0.057429072 0.17576227 0.262431
0.13800533 0.17831899 0.262431
-0.1019299 0.18457897 0.262431
0.084040575 0.199789 0.262431
0.12454827 0.1909567 0.262431
-0.12222953 0.20683616 0.262431
0.020450881 0.2193334 0.262431
0.05288507 0.21284133 0.262431
0.10833338 0.21291985 0.262431
-0.2160435 0.22804007 0.262431
-0.17183168 0.2234264 0.262431
0.022840776 0.22024535 0.262431
0.081582434 0.22854823 0.262431
0.19918661 0.22197753 0.262431
-0.24281001 0.23620968 0.26107273
0.14601204 0.23643118 0.262431
0.20305571 0.23385331 0.262431
-0.0065505356 0.24603698 0.262431
0.028085936 0.24996604 0.262431
0.19884342 0.24974087 0.262431
-0.20324519 0.2524229 0.262431
-0.17566302 0.25209653 0.262431
-0.1110533 0.25795504 0.262431
-0.071936816 0.25256556 0.262431
-0.20565729 0.26749092 0.262431
-0.11996998 0.27463067 0.262431
-0.092073642 0.27965346 0.262431
-0.048789784 0.2799122 0.262431
0.025500629 0.27744147 0.262431
0.052686322 0.27289459 0.262431
-0.170439 0.28284964 0.262431
-0.064668104 0.28556558 0.262431
-0.055900387 0.28155017 0.262431
0.17716898 0.28466436 0.262431
0.242369 0.28692698 0.26144713
-0.19215848 0.29555318 0.262431
0.23315036 0.29788297 0.262431
-0.1844445 0.30869129 0.262431
0.10495005 0.3151781 0.262431
0.21871077 0.31635517 0.262431
-0.092649311 0.32990986 0.262431
-0.024785645 0.3254357 0.262431
0.18902822 0.3292827 0.262431
0.082287855 0.33197033 0.26243097
