# .PCD v0.7 - Point Cloud Data file format
VERSION 0.7
FIELDS x y z
SIZE 4 4 4
TYPE F F F
COUNT 1 1 1
WIDTH 958
HEIGHT 1
VIEWPOINT 0 0 0 1 0 0 0
POINTS 958
DATA ascii
-0.15146239 -0.30763108 -0.351156
-0.052601781 -0.3089 -0.35016659
-0.0040987954 -0.30697721 -0.351156
-0.11945235 -0.29067689 -0.351156
-0.065067589 -0.28388906 -0.351156
0.11411981 -0.28303403 -0.351156
-0.057151806 -0.2746585 -0.351156
0.046039917 -0.27248892 -0.351156
-0.040773932 -0.26254225 -0.351156
0.058408454 -0.26629236 -0.351156
-0.15362126 -0.25765043 -0.351156
-0.13492255 -0.25079152 -0.351156
-0.1298103 -0.25516227 -0.351156
0.030962333 -0.25622302 -0.351156
-0.15829578 -0.24359825 -0.351156
-0.055857733 -0.24071252 -0.351156
0.050446633 -0.24983761 -0.35115597
0.07411854 -0.24507549 -0.351156
-0.0081267506 -0.22853538 -0.351156
0.071706742 -0.22046159 -0.351156
0.049026091 -0.21683557 -0.351156
0.114604 -0.21691433 -0.35109365
-0.10168795 -0.19479331 -0.351156
0.038741425 -0.19430304 -0.351156
0.093992651 -0.19239949 -0.351156
-0.16265915 -0.18900912 -0.351156
-0.048262388 -0.1805304 -0.351156
0.10522559 -0.1855229 -0.351156
-0.025867343 -0.17628217 -0.351156
0.041138876 -0.17700668 -0.351156
0.093743704 -0.16947111 -0.351156
-0.17416246 -0.15439445 -0.351156
-0.036099333 -0.15867129 -0.351156
0.114604 -0.15087897 -0.35109723
0.015564281 -0.14120997 -0.351156
-0.014536208 -0.13669968 -0.351156
-0.099075347 -0.12315175 -0.351156
0.008363001 -0.1215502 -0.351156
0.055324953 -0.12656546 -0.351156
0.1049384 -0.1220376 -0.351156
-0.14193955 -0.11850642 -0.351156
-0.11674666 -0.11425144 -0.351156
-0.094604954 -0.11604933 -0.351156
-0.11334805 -0.10424793 -0.351156
0.043327812 -0.10102447 -0.351156
0.076882556 -0.10843183 -0.351156
-0.13266334 -0.093369871 -0.351156
-0.083502397 -0.095619597 -0.351156
0.09934257 -0.099085525 -0.351156
-0.1730067 -0.088888183 -0.351156
-0.081754506 -0.082281537 -0.351156
-0.069223315 -0.089564301 -0.351156
0.062220931 -0.088774554 -0.351156
-0.054073516 -0.070885576 -0.351156
-0.15211767 -0.060823213 -0.351156
-0.041907936 -0.068740569 -0.351156
0.093462721 -0.061154194 -0.351156
0.038645208 -0.052510619 -0.351156
0.094785132 -0.054207888 -0.351156
0.10927057 -0.050952915 -0.351156
0.04470687 -0.044380803 -0.351156
-0.16462475 -0.037137147 -0.351156
0.0061631743 -0.038181443 -0.351156
0.053893987 -0.010525389 -0.351156
-0.083053373 0.0045913681 -0.351156
-0.048700709 0.0020750575 -0.351156
-0.078154311 0.011293532 -0.351156
0.037109606 0.014494542 -0.351156
0.062938944 0.014776513 -0.351156
-0.02799983 0.022799494 -0.351156
0.10283653 0.029308986 -0.351156
-0.019858416 0.036482457 -0.351156
0.033091031 0.034009375 -0.351156
0.11457589 0.039712325 -0.351156
0.10532206 0.045602363 -0.351156
0.083876707 0.055150516 -0.351156
0.091246247 0.054168951 -0.351156
-0.039958216 0.068855442 -0.351156
-0.050135426 0.076833189 -0.351156
-0.041413501 0.075897247 -0.351156
0.012200903 0.079254374 -0.351156
0.033612359 0.072455451 -0.351156
-0.086610772 0.087208405 -0.351156
0.028184511 0.089807004 -0.351156
0.083743706 0.085583389 -0.351156
0.021989118 0.097270109 -0.351156
0.037801512 0.096824445 -0.351156
0.040698405 0.092065945 -0.351156
-0.16747016 0.10527388 -0.351156
-0.038187783 0.10909674 -0.351156
0.061174251 0.10618702 -0.351156
-0.15549694 0.1170599 -0.351156
-0.081975654 0.11179625 -0.351156
0.068866186 0.11696993 -0.351156
0.020132437 0.12656599 -0.35019538
-0.17615432 0.16847108 -0.351156
-0.11493354 -0.3089 -0.3404313
-0.020925615 -0.3089 -0.34825259
-0.018474402 -0.3089 -0.34048879
0.072432995 -0.3089 -0.34238964
-0.176834 -0.13165691 -0.34350121
0.114604 -0.13085796 -0.34979206
0.114604 -0.088120751 -0.34312105
-0.176834 -0.033237346 -0.34670061
0.114604 -0.038054772 -0.34836334
0.114604 -0.026888978 -0.34777084
-0.176834 0.13911141 -0.34702754
-0.16729018 0.202015 -0.34563679
-0.12135059 -0.3089 -0.33069316
-0.097485378 -0.3089 -0.33450556
-0.026355736 -0.3089 -0.3381421
0.039302997 -0.3089 -0.33727354
-0.176834 -0.25708917 -0.33881116
0.114604 -0.20425816 -0.33614787
-0.176834 -0.09502615 -0.33046079
0.114604 -0.083170123 -0.33491489
0.114604 -0.07690838 -0.33493912
0.114604 -0.063901126 -0.33787242
0.114604 0.040384486 -0.33564848
0.114604 0.070364736 -0.33002433
0.150442 0.10564125 -0.33552063
-0.13624495 0.12656599 -0.33991551
-0.12867844 0.12656599 -0.33106568
-0.0695123 0.12656599 -0.33593118
-0.0063094608 0.12656599 -0.33076093
0.061212528 0.12656599 -0.33561918
-0.176834 0.15469819 -0.3386007
-0.166085 0.17626286 -0.338994
-0.166085 0.18293372 -0.33900654
-0.14549454 -0.3089 -0.32949632
-0.080271639 -0.3089 -0.32628384
-0.075043835 -0.3089 -0.32024679
0.114604 -0.1799233 -0.32585162
-0.17683402 -0.16184707 -0.32961935
0.114604 -0.13156709 -0.32856661
-0.17683399 -0.02986975 -0.32780182
-0.17683399 0.044812813 -0.32520777
-0.17683402 0.1130894 -0.32576209
0.07967785 0.12656599 -0.3290773
-0.166085 0.14905824 -0.32285708
0.051375102 -0.3089 -0.3178111
0.127179 -0.28768456 -0.31333366
0.1152629 -0.23483783 -0.3145445
0.12575567 -0.23986575 -0.31343099
-0.17683399 -0.22174516 -0.31811953
-0.176834 -0.19548644 -0.31813791
-0.17683399 -0.18796395 -0.31639066
-0.083322898 -0.16447808 -0.31417999
-0.010867829 -0.16109766 -0.31417999
0.1148999 -0.16832575 -0.31343099
-0.083268933 -0.13816944 -0.31417999
-0.035662282 -0.12116604 -0.31417999
-0.176834 -0.11886933 -0.31562749
-0.0635456 -0.11663797 -0.31418002
-0.09351781 -0.091401957 -0.31418002
-0.044030447 -0.09822911 -0.31417999
0.127179 -0.096944109 -0.31084785
-0.06725803 -0.085046872 -0.31417999
-0.043040767 -0.083258547 -0.31417999
-0.012035925 -0.088289499 -0.31417999
-0.043165475 -0.071202777 -0.31417999
-0.090838686 -0.060788367 -0.31417999
-0.056513708 -0.06475468 -0.31417999
-0.047174659 -0.054112293 -0.31417996
0.11765338 -0.052388255 -0.31343099
0.123826 -0.052353397 -0.31343099
-0.054209966 -0.049061731 -0.31417999
-0.099172398 -0.036613133 -0.31417999
0.0024371243 -0.037360568 -0.31417999
-0.030696008 -0.0076705255 -0.31417999
-0.005281426 -0.0031239837 -0.31417999
0.0055239326 -0.0032451525 -0.31417999
-0.031794026 0.015403705 -0.31417999
0.114604 0.020586612 -0.31964162
-0.099842116 0.034860503 -0.31417999
-0.073565245 0.032786395 -0.31417999
0.0062310216 0.036407441 -0.31417999
-0.066154532 0.050296862 -0.31417999
-0.021417364 0.062356684 -0.31417999
0.11621828 0.072376423 -0.31343099
0.0049246242 0.083179496 -0.31417999
-0.09289024 0.093922339 -0.31417999
-0.042379864 0.10546975 -0.31417999
-0.11506713 0.12656599 -0.31779623
0.063436717 0.12656599 -0.31694132
0.075840779 0.12656599 -0.31225121
-0.17683399 0.13253978 -0.31940344
-0.12317634 -0.3089 -0.308873
-0.023132049 -0.3089 -0.30233487
0.076865129 -0.3089 -0.30451357
-0.176834 -0.2280212 -0.30288559
-0.17683399 -0.20436822 -0.3069427
-0.176834 -0.18196598 -0.30125359
-0.176834 -0.0719603 -0.30719644
-0.107232 -0.060095761 -0.30643106
-0.107232 0.02685982 -0.30172688
-0.15382788 0.12656599 -0.30337688
-0.08674597 -0.3089 -0.29151437
0.059131496 -0.3089 -0.29957244
0.127179 -0.25645834 -0.29394275
-0.17683402 -0.20507437 -0.29656434
-0.107232 -0.17481427 -0.29831737
-0.176834 -0.13548081 -0.29192185
0.127179 -0.11962782 -0.29028124
-0.107232 -0.086156547 -0.2939257
-0.107232 -0.0042446256 -0.29101247
0.127179 0.0042935442 -0.29907551
-0.176834 0.029384874 -0.2916953
0.127179 0.057864927 -0.29710051
-0.107232 0.10589531 -0.29031089
-0.176834 0.11078542 -0.29130673
-0.11974913 0.12656599 -0.29025733
-0.17177778 -0.3089 -0.28413543
-0.14787391 -0.3089 -0.28625599
0.127179 -0.28206664 -0.28071588
0.127179 -0.27647611 -0.28496373
-0.107232 -0.17329094 -0.28093866
-0.065727122 -0.175229 -0.28279638
0.079159424 -0.175229 -0.28355333
-0.10723199 -0.16852798 -0.28728297
-0.176834 -0.15755939 -0.28759968
-0.107232 -0.14477777 -0.28369206
-0.107232 -0.071288586 -0.28647709
0.127179 -0.052276108 -0.28413329
-0.10723199 -0.01468385 -0.28160888
0.127179 0.034843791 -0.28123292
-0.176834 0.093137145 -0.28491786
-0.14173654 0.12656599 -0.2811712
-0.166085 0.176875 -0.28096363
-0.176834 -0.30853564 -0.27755362
-0.047667794 -0.3089 -0.2798987
-0.176834 -0.25282329 -0.2776067
-0.176834 -0.1735657 -0.27254766
-0.054285262 -0.175229 -0.27575722
-0.013137003 -0.175229 -0.2716924
0.059088234 -0.17522898 -0.27545136
0.127179 -0.16774635 -0.2703768
-0.107232 -0.092358693 -0.27824408
-0.107232 -0.059235662 -0.27398229
0.127179 -0.048644327 -0.27579394
-0.176834 -0.0075310543 -0.27809206
0.127179 0.023762386 -0.27752271
-0.107232 0.062377229 -0.27614322
0.12261263 0.101417 -0.27876315
-0.15335928 0.12656599 -0.27245566
0.1297241 0.12656599 -0.27846378
-0.176834 0.14796406 -0.27847469
-0.166085 0.14314951 -0.27072173
-0.176834 0.15825212 -0.27072659
-0.17683402 0.1617499 -0.27677438
-0.075943351 -0.3089 -0.26734549
-0.025627518 -0.17522898 -0.26361197
0.11068343 -0.175229 -0.26820856
-0.176834 -0.1596182 -0.26142603
0.127179 -0.15446453 -0.26513129
-0.107232 -0.13087438 -0.26093587
-0.176834 -0.10562219 -0.26582429
-0.107232 -0.022792079 -0.26794928
-0.176834 -0.00033532036 -0.26143736
0.127179 0.014832165 -0.26973769
-0.107232 0.032322027 -0.26677781
0.12090065 0.078782 -0.26328298
0.150442 0.10805574 -0.26560456
-0.107232 0.1148643 -0.26041687
0.150442 0.11880446 -0.26989737
-0.13647047 0.12656599 -0.26204368
-0.12131397 0.12656599 -0.26461253
0.048636507 -0.3089 -0.25172892
-0.176834 -0.25611225 -0.25424537
-0.17683402 -0.24725021 -0.25524879
0.127179 -0.1815358 -0.25610304
0.127179 -0.10808274 -0.25232804
0.13183224 0.10141701 -0.25631613
-0.166085 0.17373745 -0.25137746
0.058605611 -0.3089 -0.24055097
-0.024803745 -0.175229 -0.24073952
0.084935218 -0.175229 -0.24283099
0.092122756 -0.17522898 -0.24183241
-0.176834 -0.10976362 -0.24249884
0.127179 -0.085921615 -0.24542014
-0.10723199 -0.00036388636 -0.24420556
0.127179 -0.0029701963 -0.24510455
-0.107232 0.025424309 -0.24241325
0.127179 0.038925722 -0.24243139
-0.10723199 0.075511076 -0.24957761
0.12407428 0.078782 -0.24209042
-0.166085 0.13294709 -0.24951199
-0.176834 0.14295831 -0.24915682
-0.166085 0.1534832 -0.24790457
-0.14888005 -0.3089 -0.23227239
-0.0015629306 -0.3089 -0.23487191
0.127179 -0.21494053 -0.23228444
-0.10444718 -0.175229 -0.23394088
-0.050640788 -0.175229 -0.23081201
0.0067517566 -0.175229 -0.23449311
0.127179 -0.11237241 -0.23471144
-0.176834 -0.097927272 -0.23523279
-0.176834 -0.069157764 -0.23626739
-0.107232 -0.048530199 -0.23742799
-0.176834 0.009762859 -0.23995556
0.13093294 0.12656599 -0.23507512
-0.17599826 0.202015 -0.23903798
-0.176834 -0.30013022 -0.22468589
0.06098048 -0.3089 -0.22775619
0.084329017 -0.3089 -0.22105327
0.099505387 -0.3089 -0.22996679
-0.17683402 -0.22589204 -0.22552583
-0.176834 -0.05972375 -0.22797087
-0.176834 0.05703903 -0.22355753
-0.176834 0.14006454 -0.22535014
-0.166085 0.15532506 -0.2246516
-0.10425179 -0.3089 -0.21241201
-0.095503673 -0.3089 -0.21396455
0.127179 -0.26006812 -0.21684496
0.127179 -0.24859335 -0.21140258
0.127179 -0.16169448 -0.21368805
-0.107232 -0.14992754 -0.21327513
0.127179 -0.13005622 -0.21422771
-0.176834 -0.06009445 -0.21808597
-0.107232 -0.028496671 -0.21864656
0.127179 -0.02388338 -0.21141279
0.127179 0.064030506 -0.21981965
0.12402518 0.077209279 -0.21641339
-0.107232 0.087371677 -0.21711704
-0.176834 0.11552609 -0.21504323
-0.166085 0.12659341 -0.21898371
-0.15902145 0.12656599 -0.21090436
0.013582198 -0.3089 -0.20827958
0.061042201 -0.3089 -0.20600593
-0.176834 -0.28753886 -0.20337753
0.127179 -0.23200664 -0.20190366
-0.176834 -0.21258298 -0.20659974
-0.096391007 -0.17522901 -0.2015654
-0.062722452 -0.175229 -0.20898224
-0.176834 -0.087183014 -0.2026557
-0.10723199 -0.06218845 -0.2023216
-0.176834 0.016671944 -0.20028575
0.114604 0.087885529 -0.2008099
-0.166085 0.17633134 -0.20415142
-0.14182748 -0.3089 -0.19122496
0.127179 -0.26149267 -0.19758557
-0.176834 -0.20839638 -0.1916042
-0.176834 -0.19896343 -0.19129056
0.127179 -0.14863683 -0.19792557
-0.107232 -0.089013718 -0.1955014
-0.176834 -0.061725456 -0.19881383
-0.107232 -0.032837033 -0.19575456
-0.176834 0.12818435 -0.19155215
-0.15844327 0.12656599 -0.19393866
0.1344154 0.12656599 -0.19813602
-0.10169645 -0.3089 -0.18915516
-0.054074593 -0.3089 -0.18112773
0.054463174 -0.3089 -0.18491332
0.090206347 -0.3089 -0.18240155
0.10660906 -0.3089 -0.18527535
-0.17683399 -0.25070837 -0.18281177
0.127179 -0.24761981 -0.18069606
-0.17683402 -0.23426706 -0.18542308
0.127179 -0.20126586 -0.18016191
0.0064714588 -0.175229 -0.18345779
-0.17683402 -0.10266179 -0.18949622
0.127179 -0.0081048869 -0.18324812
0.127179 0.027187759 -0.18553819
0.127179 0.059080083 -0.18123052
-0.107232 0.1057821 -0.18296847
0.13611759 0.12656599 -0.18617913
-0.166085 0.15583946 -0.18329257
-0.025458695 -0.175229 -0.17280683
-0.107232 -0.16142082 -0.17837076
0.127179 -0.064630866 -0.17351516
-0.176834 -0.010533234 -0.17190148
0.127179 -0.0073426254 -0.1753982
0.127179 0.032050502 -0.17941719
-0.15566367 0.12656599 -0.17681347
-0.11121324 0.12656599 -0.17562738
-0.176834 0.13586189 -0.17279473
-0.176834 0.18221839 -0.17604733
-0.17683399 -0.22272941 -0.16068605
-0.176834 -0.18700206 -0.16932505
-0.084076889 -0.175229 -0.16111439
0.127179 -0.16409141 -0.16628718
-0.107232 -0.15383068 -0.16138527
0.127179 -0.14945994 -0.16595452
-0.176834 -0.0075198431 -0.16018581
-0.10723199 0.0061817095 -0.16646346
-0.176834 0.084880464 -0.16393462
0.150442 0.12213188 -0.16493216
-0.166085 0.1746282 -0.16653323
-0.14329612 -0.3089 -0.15509936
0.127179 -0.27778241 -0.15259437
-0.176834 -0.17206965 -0.15928918
-0.176834 -0.13616544 -0.15318193
-0.176834 -0.12191451 -0.15996876
-0.107232 -0.062490102 -0.1576834
-0.107232 -0.014201172 -0.15073061
0.127179 0.029193781 -0.15056336
-0.10723199 0.045811463 -0.15619889
-0.107232 0.085510239 -0.15269776
-0.15962082 0.12656599 -0.15798108
-0.166085 0.17948115 -0.1514225
-0.15424801 -0.3089 -0.14113779
-0.024533547 -0.3089 -0.14150214
0.1134491 -0.3089 -0.1422102
0.127179 -0.28686643 -0.1469584
-0.17683402 -0.20127057 -0.14637947
-0.055685855 -0.175229 -0.1448449
0.003044514 -0.17522901 -0.14683032
-0.176834 -0.092641078 -0.14090417
-0.176834 -0.089681096 -0.14267217
-0.176834 -0.06910044 -0.14949585
-0.107232 -0.069296584 -0.14800081
0.127179 -0.027231367 -0.14352006
-0.107232 -0.011575027 -0.14056863
-0.168973 -0.3089 -0.13924234
0.053324774 -0.3089 -0.13515905
0.127179 -0.27712446 -0.13491845
0.09719117 -0.17522901 -0.13726115
0.127179 -0.15099064 -0.13427137
-0.107232 -0.14551093 -0.135428
-0.107232 -0.11765994 -0.13143001
0.127179 -0.11054149 -0.13180284
-0.17683399 -0.095950574 -0.1356836
0.127179 -0.09539102 -0.13444073
-0.107232 -0.06647817 -0.13645102
-0.10723199 -0.0050231824 -0.13745904
0.127179 0.005964227 -0.13101584
-0.176834 0.08863356 -0.13608497
-0.107232 0.10751218 -0.13438441
0.1437608 0.12656599 -0.13864782
0.030698551 -0.3089 -0.12626506
0.062017135 -0.175229 -0.12990631
-0.176834 -0.15294163 -0.12413869
0.127179 -0.029120512 -0.12436499
-0.176834 0.0089637022 -0.12696403
0.150442 0.11020424 -0.12999678
-0.107232 0.12032145 -0.12283713
-0.176834 0.17847182 -0.12144616
-0.016603455 -0.3089 -0.1108153
-0.17683399 -0.2176597 -0.11440008
-0.066839643 -0.175229 -0.11712323
-0.030359527 -0.175229 -0.1162039
-0.176834 -0.15907808 -0.11882521
-0.17683402 -0.13980642 -0.11856821
-0.176834 -0.11637479 -0.1186782
-0.107232 -0.1061798 -0.1154309
-0.176834 -0.089076586 -0.11233522
-0.107232 -0.08926183 -0.11573021
-0.107232 0.030779868 -0.11392766
-0.107232 0.079132035 -0.11569677
0.11972652 0.078782 -0.11913425
-0.176834 0.12860012 -0.11261398
-0.16229115 0.12656599 -0.11623426
0.12338473 0.12656599 -0.11349878
0.01947738 -0.3089 -0.10852084
-0.098295391 -0.175229 -0.10056417
-0.040524777 -0.175229 -0.10375968
-0.0022285022 -0.175229 -0.10751835
0.062406704 -0.175229 -0.10974454
0.10634123 -0.175229 -0.1048203
0.127179 -0.16284481 -0.10468328
-0.17683402 -0.13039088 -0.10504878
0.127179 -0.13394159 -0.10611395
0.127179 -0.12190901 -0.10786159
-0.176834 -0.066521741 -0.1015405
0.127179 -0.055477612 -0.10249083
-0.107232 -0.034290489 -0.10603905
0.127179 0.0068050986 -0.10954407
-0.107232 0.012512133 -0.10327782
-0.107232 0.057564549 -0.10841765
-0.176834 0.063184589 -0.10254906
0.13086645 0.101417 -0.10594203
-0.12443785 0.12656599 -0.10456198
-0.166085 0.13784312 -0.10123099
-0.014425537 -0.3089 -0.099840708
0.036643982 -0.3089 -0.096659839
0.12593095 -0.28840199 -0.096731
0.127179 -0.23575489 -0.092608511
0.127179 -0.19284217 -0.098764956
-0.176834 -0.17610914 -0.095988937
-0.03288677 -0.175229 -0.095947109
-0.10723199 -0.166348 -0.098309763
-0.176834 -0.1371474 -0.095630154
0.127179 -0.11314642 -0.099291876
-0.107232 -0.024475876 -0.094519131
-0.176834 -0.013993111 -0.096521437
-0.107232 -0.0023693834 -0.09992975
0.127179 0.0058733523 -0.092015043
-0.17683402 0.060314145 -0.098639242
0.114604 0.086174287 -0.09634459
0.122777 0.101417 -0.09787076
0.13431075 0.12656599 -0.098808855
-0.176834 0.16965219 -0.092440426
-0.14193325 -0.3089 -0.084159762
-0.10524923 -0.3089 -0.084338628
-0.099117994 -0.3089 -0.085974947
0.0017901342 -0.3089 -0.08965867
0.073338732 -0.3089 -0.089218602
-0.17683402 -0.25974664 -0.080392785
-0.018014381 -0.17522898 -0.083935469
0.010804838 -0.175229 -0.089915365
0.046876248 -0.175229 -0.089536518
-0.107232 -0.11433715 -0.082027651
-0.176834 -0.063333802 -0.087131724
-0.176834 0.012324624 -0.087423652
0.127179 0.052560359 -0.080472745
-0.107232 0.063234434 -0.08211349
0.127179 0.062439162 -0.08569672
-0.176834 0.089614421 -0.085242525
-0.166085 0.15605731 -0.089479737
-0.166085 0.19431756 -0.087750331
-0.13826233 -0.3089 -0.071082585
-0.061890975 -0.3089 -0.076509088
0.044868328 -0.3089 -0.072432287
0.114604 -0.29358488 -0.072355106
0.127179 -0.23754814 -0.076307602
0.127179 -0.20759243 -0.073598675
-0.032585904 -0.175229 -0.078320071
-0.176834 -0.16999303 -0.077658959
-0.107232 -0.13045968 -0.076278113
-0.107232 -0.095050953 -0.072326846
0.127179 -0.022232715 -0.075523064
-0.166085 0.13780646 -0.070889644
-0.166085 0.19455849 -0.072739154
0.1208242 -0.28840199 -0.064644843
-0.17683402 -0.27675018 -0.066194318
-0.176834 -0.22540842 -0.061788112
0.127179 -0.21918239 -0.064663604
-0.176834 -0.094555728 -0.064067423
-0.107232 -0.074923635 -0.063462935
-0.107232 -0.011892308 -0.062466327
-0.107232 0.064162895 -0.067841649
0.13316979 0.101417 -0.06641341
0.150442 0.12554424 -0.06124077
-0.166085 0.13760546 -0.064569101
-0.176834 0.20019932 -0.067093633
-0.13832836 -0.3089 -0.050998524
0.042278647 -0.3089 -0.056741323
0.061087608 -0.3089 -0.054516051
-0.176834 -0.29817289 -0.051025119
0.11783381 -0.28840199 -0.056936033
-0.176834 -0.24785385 -0.054981541
-0.17683399 -0.20169191 -0.057492316
0.0080545656 -0.175229 -0.05773003
0.053871155 -0.17522898 -0.058825959
-0.107232 -0.14391458 -0.05363179
0.127179 -0.065977007 -0.052823618
-0.176834 -0.046079777 -0.05383198
0.127179 -0.030293912 -0.056646012
0.127179 -0.026520371 -0.05135446
0.127179 -0.0082824342 -0.055584077
-0.176834 0.015155941 -0.050142176
0.127179 0.0495544 -0.051856726
0.114604 0.079829723 -0.052128799
-0.166085 0.14448035 -0.05955182
-0.1045537 -0.3089 -0.04223986
-0.073351219 -0.3089 -0.046223067
0.075074606 -0.3089 -0.040077697
0.114604 -0.29070026 -0.047089361
-0.176834 -0.28780955 -0.049854327
-0.176834 -0.14729574 -0.049803741
-0.176834 -0.13701877 -0.042735275
0.127179 -0.09268254 -0.044553999
-0.10723199 -0.054791059 -0.049498152
-0.176834 -0.038991027 -0.048842695
-0.176834 -0.023160584 -0.048526093
0.127179 0.024961822 -0.046384636
-0.107232 0.059462588 -0.046695493
0.114604 0.081240945 -0.048557803
-0.176834 0.10485116 -0.044421956
0.13255264 0.101417 -0.041737638
-0.176834 0.1560577 -0.046664689
-0.166085 0.17495796 -0.042396348
-0.166085 0.19580936 -0.043986335
-0.1728695 -0.3089 -0.034481235
-0.056603439 -0.3089 -0.037057832
0.0084668137 -0.3089 -0.030942183
-0.10641106 -0.175229 -0.032989863
0.058986962 -0.175229 -0.0306255
0.070344582 -0.17522901 -0.032935046
-0.10723199 -0.14321125 -0.038845263
-0.107232 -0.11916331 -0.030208282
-0.17683402 -0.1034787 -0.034361266
0.127179 -0.066516042 -0.032338589
0.127179 -0.011499967 -0.039265081
-0.176834 0.00030034035 -0.032699279
-0.107232 0.070568919 -0.039568171
0.060135167 -0.3089 -0.02016316
0.12344334 -0.27676019 -0.0230313
0.11516108 -0.19166684 -0.0230313
-0.023798555 -0.175229 -0.024344258
-0.1415683 -0.13044651 -0.024544299
-0.14314023 -0.12444884 -0.024544302
-0.11631838 -0.12339765 -0.024544299
0.12597392 -0.097486533 -0.025522355
-0.176834 -0.088458076 -0.026101556
-0.11581871 -0.06876345 -0.024544301
-0.13031468 -0.056200862 -0.024544302
0.1190825 -0.059164457 -0.0230313
0.127179 -0.046467174 -0.0241118
-0.15464869 -0.028114218 -0.024544301
-0.17683399 -0.019683167 -0.028586278
-0.13507758 -0.0039243717 -0.024544301
0.11844853 -0.0010074526 -0.0230313
-0.176834 0.0079441667 -0.026008928
-0.15980132 0.021789711 -0.024544301
-0.107232 0.044963032 -0.02809844
-0.12324916 0.054713875 -0.024544301
0.12371718 0.054626472 -0.0230313
-0.107232 0.072005063 -0.025643714
-0.107232 0.083864897 -0.028304948
-0.12909353 0.09432666 -0.024544301
-0.176834 0.10980891 -0.023788119
0.150442 0.10396598 -0.024606867
-0.176834 0.12745363 -0.024839032
-0.15245646 0.12656599 -0.025464132
-0.14782417 0.12581258 -0.023028132
-0.13494894 0.12656599 -0.025850324
-0.166085 0.17859259 -0.021341434
-0.14684136 -0.3089 -0.015792314
0.015509438 -0.3089 -0.013309922
0.02594737 -0.3089 -0.011061064
0.067740656 -0.3089 -0.015128763
0.11238439 -0.3089 -0.016819296
-0.176834 -0.26422554 -0.010448094
0.114604 -0.2629801 -0.012198633
-0.176834 -0.11251112 -0.01685142
0.114604 0.020802937 -0.012407515
0.114604 0.071054615 -0.01205868
0.12193857 0.101417 -0.011109175
0.150442 0.11044896 -0.019418061
0.071009219 0.12656599 -0.019265339
0.150442 0.12451366 -0.013956604
-0.166085 0.15223333 -0.017393049
-0.176834 -0.23121664 -0.003623991
0.114604 -0.23686305 -0.0031748286
0.114604 -0.22923306 -0.0022882004
0.114604 -0.16427726 -0.003746917
-0.17683399 -0.15728486 -0.004886833
-0.176834 -0.046931535 -0.0097642234
0.114604 0.038592428 -0.0014178655
-0.176834 0.097882241 -0.0065760408
-0.072570473 0.12656599 -0.0026211548
-0.176834 0.14869277 -0.0046875444
-0.12758583 -0.3089 0.0033255196
-0.11349294 -0.3089 0.004740512
0.0019562342 -0.3089 0.0037263855
0.063214906 -0.3089 0.0022731721
0.114604 -0.30333599 0.0060792556
-0.176834 -0.28188914 0.0032668253
-0.176834 -0.27371129 0.0013969662
0.114604 -0.15002391 0.0058648637
-0.176834 -0.088120386 0.0054291934
0.114604 -0.086972557 0.0015658
0.114604 -0.019641496 0.0002425774
0.114604 0.00030179322 0.0048865834
-0.17683399 0.10471965 0.003399807
0.11867744 0.12665895 0.0021180499
-0.0087653324 0.13379237 0.0021180499
-0.096014917 0.14348249 0.0021180499
-0.020302281 0.14168054 0.0021180499
-0.0066857338 0.14542772 0.0021180499
-0.041248068 0.15545881 0.0021180499
-0.176834 0.16294271 0.00038170163
-0.090280555 0.162487 0.0097175017
-0.037505675 0.162487 0.0087695532
-0.017601222 0.162487 0.0025317869
0.072189063 0.162487 0.0038746803
0.098971166 0.162487 0.0091498345
0.013020728 -0.3089 0.010718767
0.10544816 -0.3089 0.011472786
-0.071420088 -0.28730026 0.0146927
0.10397584 -0.28079608 0.0146927
-0.14702015 -0.27745962 0.0146927
0.114604 -0.27095127 0.013374805
-0.11119881 -0.26979688 0.0146927
-0.081626981 -0.26993656 0.0146927
-0.11665062 -0.25198224 0.0146927
0.0041305944 -0.25236911 0.0146927
0.076071687 -0.25440544 0.0146927
-0.085385352 -0.24975866 0.0146927
0.10157786 -0.24454373 0.0146927
-0.15162572 -0.22319834 0.0146927
-0.16895887 -0.21510476 0.0146927
-0.12981352 -0.21426868 0.0146927
0.034358233 -0.21412385 0.0146927
-0.093691945 -0.20077528 0.0146927
0.041559283 -0.20487313 0.0146927
-0.17127377 -0.19944929 0.0146927
-0.063515916 -0.18253011 0.0146927
-0.012678906 -0.18682557 0.0146927
-0.13498273 -0.17176111 0.0146927
-0.04151918 -0.17920044 0.0146927
-0.17260917 -0.15907788 0.0146927
-0.12866586 -0.15164913 0.0146927
-0.074365139 -0.14244667 0.0146927
-0.17196661 -0.1329464 0.0146927
-0.13518277 -0.13935745 0.0146927
-0.02744358 -0.12727684 0.0146927
0.063931443 -0.12255483 0.0146927
-0.0076989499 -0.091264188 0.0146927
0.010975853 -0.094285972 0.0146927
-0.053202692 -0.088976353 0.0146927
0.0015955609 -0.0872868 0.0146927
0.067572534 -0.083520591 0.0146927
-0.082833402 -0.077426866 0.0146927
-0.076297805 -0.073132858 0.0146927
-0.043398492 -0.076937497 0.0146927
0.096007377 -0.076994702 0.0146927
-0.036314029 -0.063385256 0.0146927
-0.0074188048 -0.060680404 0.0146927
0.035703756 -0.066276729 0.0146927
0.064261965 -0.068033062 0.0146927
-0.109117 -0.055484455 0.0146927
-0.030587815 -0.057789687 0.0146927
0.019643266 -0.058051541 0.0146927
0.10682748 -0.054506011 0.0146927
-0.10717661 -0.043276627 0.0146927
-0.13061625 -0.032264069 0.0146927
0.012344878 -0.021805286 0.0146927
0.038386431 -0.020925928 0.0146927
-0.14586633 -0.018908523 0.0146927
-0.11675352 -0.016389079 0.0146927
0.053596094 -0.01509897 0.0146927
0.062323485 -0.0092013516 0.0146927
0.08089903 -0.0083703436 0.0146927
-0.093669139 0.003969349 0.0146927
-0.050425481 0.0089513846 0.0146927
0.058229752 0.0025904002 0.0146927
0.032756664 0.024504986 0.0146927
-0.093543567 0.030637927 0.0146927
0.023106791 0.032470625 0.0146927
0.067080364 0.037524462 0.0146927
0.088031404 0.035406955 0.0146927
0.0099439621 0.040309537 0.0146927
0.06657438 0.04278956 0.0146927
-0.176834 0.052367177 0.013788325
-0.1539735 0.059199944 0.0146927
-0.068165481 0.056131162 0.0146927
0.0022725463 0.056132454 0.0146927
-0.1200547 0.06936346 0.0146927
-0.075762466 0.060542949 0.0146927
-0.16901697 0.072885603 0.014692699
-0.13180889 0.079444647 0.0146927
-0.11492432 0.071090326 0.0146927
-0.0046100989 0.086490691 0.014692699
0.025252271 0.085843548 0.0146927
0.053720962 0.089267284 0.0146927
0.11417232 0.082591884 0.0146927
-0.073831998 0.090333402 0.0146927
-0.12801637 0.1014167 0.0146927
0.12395995 0.10693432 0.0146927
0.084107369 0.12833892 0.0146927
-0.042691972 0.13400179 0.014692699
0.023974292 0.135683 0.0146927
-0.12687311 0.14537019 0.016299576
-0.035599172 0.14938514 0.0146927
0.01505114 0.149912 0.016231282
0.093869783 0.14478953 0.0146927
0.13710174 0.149912 0.015942594
-0.16771917 0.149912 0.024254635
-0.176834 0.15870312 0.027052693
0.030370345 0.162487 0.026699891
0.094803698 0.162487 0.025385601
-0.08510793 0.149912 0.036253307
0.028524257 0.149912 0.030235862
0.095839962 0.162487 0.034600899
-0.166085 0.18785942 0.034271173
-0.12398194 0.149912 0.045692768
-0.010926131 0.149912 0.048287272
0.13116695 0.149912 0.041305445
0.14532703 0.149912 0.0412574
0.150442 0.15629637 0.049060605
0.150442 0.16210029 0.04326893
-0.166085 0.17659229 0.041079033
-0.14729849 0.149912 0.053715181
-0.056567714 0.162487 0.051068522
-0.0012332834 0.162487 0.055250876
0.034760773 0.162487 0.055917636
-0.17079848 0.149912 0.068273187
-0.13908112 0.149912 0.065544449
0.0090677962 0.149912 0.067076027
-0.14785309 0.162487 0.063366242
-0.12329099 0.162487 0.068361707
-0.10581255 0.162487 0.06855987
-0.07423079 0.162487 0.062147539
0.0045927158 0.162487 0.06783618
0.038080465 0.162487 0.064901017
0.13581352 0.162487 0.062217277
-0.166085 0.19568881 0.064816743
0.060514037 0.149912 0.070200965
0.073563568 0.149912 0.078967378
-0.176834 0.16030589 0.076814815
-0.15769261 0.149912 0.081112728
0.02146101 0.149912 0.081416205
0.094656609 0.149912 0.084980629
-0.15739661 0.162487 0.088413551
0.012104575 0.162487 0.080901019
0.10499705 0.162487 0.088960499
-0.052491065 0.149912 0.096017361
-0.1421283 0.162487 0.090098873
-0.176834 0.20153578 0.097537674
0.015385117 0.149912 0.10207436
-0.15486889 0.162487 0.10087026
0.095470928 0.162487 0.10544152
0.13357364 0.162487 0.10695078
0.022646356 0.149912 0.11924083
0.11934499 0.149912 0.11709084
0.086324394 0.149912 0.12676072
0.14033148 0.149912 0.12738661
-0.028226066 0.162487 0.12187272
0.064642914 0.162487 0.12594649
-0.11814212 0.149912 0.1345619
0.026091937 0.149912 0.13141063
0.094603792 0.149912 0.13841411
0.12339476 0.149912 0.13797611
0.13084131 0.149912 0.13533746
-0.15995279 0.162487 0.13616474
-0.082365245 0.162487 0.13848826
-0.029768359 0.162487 0.13007529
0.025166566 0.162487 0.13539034
-0.176834 0.18151641 0.13667673
-0.10102767 0.149912 0.14717107
-0.081404388 0.149912 0.14154933
-0.04289744 0.149912 0.14487414
-0.176834 0.16127755 0.14968975
0.11378989 0.162487 0.14206618
-0.17075452 0.149912 0.15718062
-0.09764833 0.149912 0.15438455
-0.088729084 0.149912 0.15310425
-0.066480279 0.149912 0.15548483
0.13125429 0.149912 0.15944691
-0.10728753 0.162487 0.15194649
0.1034916 0.162487 0.15149851
0.11258185 0.162487 0.15188062
-0.176834 0.1769712 0.15164486
-0.16018991 0.149912 0.16972806
-0.045062713 0.149912 0.16134855
-0.017472103 0.149912 0.16443613
0.12095657 0.149912 0.16189539
-0.037207037 0.2393036 0.16761741
-0.037201997 0.26802766 0.16762328
-0.043111674 0.28459659 0.16717705
-0.00184609 0.149912 0.17178281
0.046001181 0.149912 0.17430873
0.13851976 0.149912 0.17394024
-0.12778333 0.162487 0.17412645
0.01554432 0.162487 0.1727218
-0.055391248 0.17948766 0.17773932
-0.053329013 0.18261731 0.17596546
-0.17233767 0.149912 0.18390875
-0.0010803032 0.149912 0.1841021
0.0053256676 0.149912 0.1827393
-0.176834 0.1516158 0.18798637
0.010152016 0.162487 0.18323776
-0.058103587 0.19149509 0.18007241
-0.01852892 0.21816823 0.18933313
-0.13432282 0.149912 0.19640197
-0.1147318 0.149912 0.19153363
-0.025858976 0.149912 0.19385557
-0.017924704 0.149912 0.19045006
0.017772689 0.149912 0.19348714
0.14396667 0.149912 0.19159313
-0.1113577 0.162487 0.19023362
0.12450883 0.162487 0.19997369
-0.033775173 0.176864 0.19290325
-0.05012545 0.24455112 0.19975281
-0.013497894 0.24000977 0.19518234
-0.041793521 0.3089 0.19662607
-0.173493 0.149912 0.2085685
-0.10482252 0.149912 0.20156699
-0.069175899 0.149912 0.20512725
0.015680522 0.149912 0.20641252
0.073506393 0.162487 0.20491906
0.088749908 0.162487 0.20012887
0.12750646 0.162487 0.20716162
-0.048102662 0.21493718 0.20210452
-0.0053945603 0.22934459 0.20460351
-0.045393396 0.27779868 0.20525433
-0.084222034 0.149912 0.21900414
-0.034575816 0.149912 0.21849126
0.092955582 0.149912 0.21855514
-0.13047758 0.162487 0.21362986
0.11174449 0.162487 0.21790837
0.150442 0.1618015 0.21825469
-0.036840357 0.17916675 0.21519817
-0.013528362 0.149912 0.22207062
0.10527019 0.149912 0.22975813
-0.051169287 0.162487 0.22970822
0.089600712 0.162487 0.22068487
0.0081881443 0.2896204 0.22039515
-0.16860494 0.149912 0.23868902
-0.14587298 0.149912 0.23924653
-0.079829074 0.149912 0.23575091
0.018031042 0.149912 0.23820075
0.024442026 0.149912 0.23242429
0.15024076 0.149912 0.23645985
-0.095504455 0.162487 0.23719776
0.069098875 0.162487 0.23860186
-0.17683402 0.19456293 0.23351268
-0.021776143 0.28999853 0.23271194
0.14187327 0.149912 0.24823338
0.150442 0.15578279 0.24928227
-0.17683402 0.19147843 0.24163952
-0.0079732398 0.2197794 0.24875933
0.00059829204 0.23746394 0.24153925
-0.01302802 0.28900287 0.24288261
-0.1730358 0.149912 0.25128305
-0.14591217 0.149912 0.25526172
-0.13431574 0.149912 0.25374863
0.077432588 0.149912 0.25519344
0.10433502 0.149912 0.25184458
-0.166085 0.16355576 0.25711495
-0.12159087 0.162487 0.250801
0.051278334 0.162487 0.25901312
0.065128542 0.162487 0.25394481
-0.17683402 0.17333168 0.25533745
0.079425469 0.149912 0.26498505
0.093979768 0.149912 0.26794487
-0.024390033 0.162487 0.26606053
0.00076388195 0.149912 0.27089834
-0.176834 0.15747271 0.27396548
0.150442 0.15836141 0.27984685
-0.1291718 0.162487 0.2704618
0.13911739 0.16248702 0.27655259
-0.176834 0.19202691 0.27906996
0.12885723 0.149912 0.28591859
0.032239735 0.162487 0.28786159
0.066148907 0.162487 0.2815446
0.11845763 0.162487 0.28841564
-0.166085 0.17757294 0.28384835
-0.077029258 0.149912 0.29285401
0.1237073 0.149912 0.29193857
0.10821907 0.162487 0.29123902
-0.16709217 0.149912 0.3023265
0.089531973 0.149912 0.3052347
0.10590172 0.16248699 0.30169526
-0.12178673 0.149912 0.31822142
-0.11122893 0.149912 0.31339225
-0.064036623 0.149912 0.31174996
-0.176834 0.15341361 0.31997976
0.10928288 0.162487 0.31545851
-0.166085 0.17611815 0.31713414
-0.12858672 0.149912 0.32208386
-0.048555635 0.149912 0.32434028
-0.0029898286 0.149912 0.32874298
0.053418949 0.149912 0.3283492
-0.014275637 0.162487 0.3231732
-0.17683399 0.17354396 0.3284474
-0.10788534 0.149912 0.33198881
-0.075583056 0.149912 0.33281517
-0.057728216 0.149912 0.33887482
0.0064999005 0.149912 0.33459148
0.0081814285 0.162487 0.33666709
0.075460523 0.162487 0.33775204
-0.030024722 0.149912 0.34386379
-0.10681011 0.162487 0.34475416
-0.058864038 0.15064907 0.351156
-0.024234749 0.16037655 0.351156
