# .PCD v0.7 - Point Cloud Data file format
VERSION 0.7
FIELDS x y z
SIZE 4 4 4
TYPE F F F
COUNT 1 1 1
WIDTH 978
HEIGHT 1
VIEWPOINT 0 0 0 1 0 0 0
POINTS 978
DATA ascii
-0.1919076 -0.28413299 -0.30476448
0.27502599 -0.27947682 -0.30078939
-0.24075198 -0.26018298 -0.305989
-0.17553617 -0.26495796 -0.305989
-0.087133519 -0.2680538 -0.305989
-0.13193257 -0.25889498 -0.305989
0.073974594 -0.2500858 -0.305989
-0.091999121 -0.24587902 -0.305989
-0.022963881 -0.24949421 -0.305989
0.13764068 -0.24785736 -0.305989
-0.052299358 -0.23013264 -0.305989
0.19643259 -0.23370565 -0.305989
0.20040834 -0.23242418 -0.305989
0.039144374 -0.22894719 -0.305989
0.22729743 -0.22512378 -0.305989
-0.15661044 -0.21869709 -0.305989
-0.0057670698 -0.21108633 -0.305989
-0.22024107 -0.20701811 -0.30598897
-0.17194231 -0.20420435 -0.305989
-0.10456952 -0.20970926 -0.305989
-0.022265129 -0.20662051 -0.305989
-0.14187986 -0.19369373 -0.305989
0.052184977 -0.19212572 -0.305989
0.17413826 -0.19780482 -0.305989
0.18382581 -0.19458121 -0.305989
-0.17507438 -0.18124655 -0.30598903
-0.064893469 -0.18644723 -0.305989
0.029659435 -0.18541218 -0.305989
0.050429881 -0.18969718 -0.305989
0.099064216 -0.18005526 -0.305989
-0.10901716 -0.1718132 -0.305989
0.10387023 -0.17525217 -0.305989
0.15419751 -0.17283252 -0.305989
0.030803666 -0.16203213 -0.305989
0.23409817 -0.16431195 -0.305989
0.1294812 -0.15158886 -0.305989
0.13164096 -0.15246087 -0.305989
0.27468213 -0.15662894 -0.305989
-0.15889889 -0.14611188 -0.305989
0.17037249 -0.14684519 -0.305989
0.27355075 -0.14477469 -0.30598897
-0.14381544 -0.13442251 -0.305989
-0.0032910854 -0.12909909 -0.305989
0.026107796 -0.12610163 -0.305989
0.13384822 -0.12109565 -0.305989
-0.21814463 -0.11140743 -0.305989
0.12753338 -0.11797765 -0.305989
0.14308298 -0.10634831 -0.305989
0.18712355 -0.10226817 -0.305989
-0.11073342 -0.097036146 -0.305989
0.24498159 -0.09279184 -0.305989
-0.13230014 -0.085936651 -0.305989
0.057875738 -0.082211234 -0.305989
0.17371905 -0.089503333 -0.305989
0.22901651 -0.080190741 -0.30598897
0.25898981 -0.077437803 -0.305989
-0.23658699 -0.06525211 -0.305989
-0.22008146 -0.066459537 -0.30598897
-0.024037709 -0.066169225 -0.305989
-0.2607289 -0.055464759 -0.305989
-0.15499496 -0.052571356 -0.305989
-0.074000329 -0.055583201 -0.305989
0.076487929 -0.059596453 -0.305989
-0.15095042 -0.049789045 -0.305989
0.15744136 -0.042904101 -0.305989
0.2624543 -0.04564523 -0.305989
-0.17785616 -0.03032162 -0.305989
0.080235526 -0.023409575 -0.305989
0.14208308 -0.017045647 -0.305989
-0.14489889 -0.0057002753 -0.305989
0.02883208 -0.0064482698 -0.305989
0.12301391 -0.00070138276 -0.305989
0.16457948 -0.001698371 -0.305989
-0.20780933 0.0055737868 -0.305989
-0.21819162 0.014334783 -0.30598903
-0.12378261 0.012497418 -0.305989
0.018827528 0.018138438 -0.305989
0.19881423 0.01389017 -0.305989
0.26338378 0.012834571 -0.305989
-0.21288419 0.020316958 -0.305989
-0.20551114 0.039701074 -0.305989
0.030388996 0.039852284 -0.305989
-0.20678847 0.042447247 -0.305989
0.037250802 0.049932852 -0.305989
-0.135232 0.058060348 -0.305989
0.10842591 0.059439413 -0.305989
-0.16386016 0.066859737 -0.305989
-0.053677883 0.063536316 -0.305989
0.20331192 0.066114113 -0.30598903
0.27360773 0.066045187 -0.305989
-0.26126778 0.076742098 -0.305989
-0.20522784 0.076970458 -0.305989
-0.11752252 0.070642531 -0.305989
0.19036037 0.079887778 -0.305989
-0.047120523 0.080195978 -0.305989
-0.10319404 0.098544993 -0.305989
0.27366546 0.098417059 -0.305989
-0.03691427 0.10531104 -0.305989
0.055131242 0.10809658 -0.305989
0.20148635 0.1060435 -0.305989
-0.19859102 0.11277056 -0.305989
-0.038902812 0.11138614 -0.305989
0.042226013 0.11015053 -0.305989
0.098101847 0.11884387 -0.305989
-0.22355722 0.12927635 -0.305989
-0.08963722 0.12597102 -0.305989
0.029958688 0.12409866 -0.305989
0.16066448 0.12278634 -0.305989
-0.18941501 0.13716309 -0.305989
-0.070710912 0.13210452 -0.305989
0.19987199 0.13643849 -0.305989
-0.21518028 0.14068489 -0.305989
-0.040709425 0.14525467 -0.305989
0.18975246 0.15737769 -0.305989
0.1984611 0.15849267 -0.305989
-0.046419114 0.16733453 -0.305989
-0.038668353 0.16126753 -0.305989
-0.26136601 0.17239672 -0.30104083
-0.12670666 0.17414747 -0.305989
-0.14466882 0.18395185 -0.305989
0.067201972 0.18342617 -0.305989
-0.093918972 0.19193777 -0.305989
0.002684921 0.19806036 -0.305989
0.1542569 0.20854467 -0.30598903
-0.2562426 0.21728972 -0.305989
0.053262465 0.21690854 -0.305989
0.073355861 0.21051992 -0.305989
-0.20664687 0.22239962 -0.305989
-0.068480842 0.22710983 -0.305989
0.1197385 0.22709714 -0.305989
-0.18029782 0.23565248 -0.305989
-0.050882868 0.23513609 -0.305989
-0.23982516 0.24508226 -0.305989
-0.11721084 0.24784604 -0.305989
0.12782501 0.24529275 -0.305989
-0.20439523 0.25782916 -0.30598903
-0.18666863 0.25568199 -0.305989
0.012254015 0.25569794 -0.30598903
0.11647639 0.25054005 -0.305989
0.23922181 0.25109664 -0.305989
-0.15547876 0.26906598 -0.305989
-0.014207639 0.27354944 -0.305989
-0.20122653 0.28413299 -0.30117968
-0.18588728 0.28413299 -0.30538297
-0.080605641 0.28413299 -0.30074659
-0.054832779 0.28324783 -0.305989
0.041898426 0.28413299 -0.30448374
-0.20616454 -0.28413299 -0.29400298
0.27502599 -0.17514935 -0.29055816
0.27502599 0.056791022 -0.29973572
0.27502599 0.072641157 -0.29658747
0.27502599 0.104928 -0.29675645
0.27502599 0.12339605 -0.2949172
-0.26136601 0.23167278 -0.29710922
-0.26136601 -0.26136208 -0.28835914
-0.26136601 -0.21527354 -0.28257447
0.26473254 -0.13165183 -0.28284499
0.27502599 -0.088641681 -0.28357878
-0.26136601 0.032069277 -0.28062177
0.26428807 0.030032352 -0.28284499
0.2663092 0.042772863 -0.28284499
-0.26136601 0.13565043 -0.28191608
0.26487535 0.16358458 -0.28284499
0.25954399 0.20664969 -0.28265125
-0.088458188 0.28413299 -0.28140298
-0.1592688 -0.28413299 -0.27579179
0.038007215 -0.28413299 -0.2720288
0.089095242 -0.28413299 -0.27912197
0.15361275 -0.28413299 -0.27819338
0.20415628 -0.28413299 -0.27695954
-0.26136601 -0.27033013 -0.27288809
-0.26136601 -0.049842954 -0.27219054
0.25954399 -0.024575204 -0.27460182
-0.26136601 0.070119932 -0.27934521
-0.23120233 0.28413299 -0.27112696
0.15927786 0.28413299 -0.27875078
0.24296068 -0.28413299 -0.26386631
-0.26136601 -0.26599038 -0.26661965
-0.26136601 -0.21970282 -0.26115304
-0.26136601 -0.12019779 -0.26296192
0.25954399 -0.075477436 -0.26282868
0.25954399 0.086224869 -0.26125917
0.25954399 0.2083419 -0.26187208
0.13218151 0.28413299 -0.2650671
0.16892695 0.28413299 -0.26228592
-0.20122504 -0.28413302 -0.25867036
0.19781595 -0.28413299 -0.25935787
-0.26136601 -0.20920205 -0.25852421
-0.27067289 -0.19599099 -0.25716901
-0.27502599 -0.17098337 -0.25101545
-0.26136601 -0.022441532 -0.2555365
0.25954399 0.020702997 -0.25790858
-0.26136601 0.2132743 -0.25661188
0.27502599 0.27417806 -0.25601754
0.22178307 0.28413299 -0.25727597
0.24236214 0.28413299 -0.25758424
0.26635805 0.28413299 -0.25767165
-0.22026515 -0.28413299 -0.24338421
-0.12581231 -0.28413299 -0.24470738
-0.011703327 -0.28413299 -0.24711195
0.20403481 -0.28413299 -0.24350229
0.27391315 -0.26492125 -0.24347016
0.25954399 0.0067942739 -0.24487217
-0.26136601 0.19836682 -0.24663542
0.25954399 0.24643762 -0.24689572
0.041407906 0.28413299 -0.24941972
-0.18375024 -0.28413299 -0.23210004
-0.021223806 -0.28413299 -0.23166034
0.049087159 -0.28413299 -0.23620507
0.26772931 -0.28413299 -0.23205754
0.25954399 -0.067656234 -0.23781273
-0.26136601 0.001444295 -0.23202884
0.25954399 0.04574237 -0.23096374
-0.23046991 0.28413299 -0.2338507
-0.20189354 0.28413299 -0.23275807
0.18492883 0.28413299 -0.23028089
-0.17072468 -0.28413299 -0.22158948
-0.16672987 -0.28413299 -0.22947305
-0.26136601 -0.2692745 -0.22678807
0.25954399 -0.25287813 -0.22525778
0.25954399 -0.14647731 -0.22406146
-0.27502599 -0.12416254 -0.22319455
0.25954399 -0.053595595 -0.22210637
-0.11949309 0.28413299 -0.22875233
-0.013831556 0.28413299 -0.22810258
0.039463852 0.28413299 -0.22334132
0.078637645 -0.28413299 -0.21359617
0.21079111 -0.28413299 -0.21391889
-0.11373354 -0.18954876 -0.21040338
-0.26802564 -0.156303 -0.21516626
0.25954399 -0.13538231 -0.21962358
0.25954399 -0.08289288 -0.21339947
0.25954399 0.060055707 -0.21498969
0.25954399 0.18856502 -0.21640326
-0.0037874877 -0.28413299 -0.20809662
0.20616336 -0.28413299 -0.20891994
-0.27143884 -0.192461 -0.20504588
-0.19245747 -0.1917821 -0.2053788
-0.101996 -0.16753867 -0.20831414
-0.21269596 -0.15673012 -0.20446172
-0.101996 -0.15868297 -0.20119652
0.25954399 -0.081544355 -0.2089892
0.25954399 -0.025180425 -0.20437318
0.25954399 0.071254998 -0.20336077
0.25954399 0.10462462 -0.20102
0.25954399 0.18320645 -0.20619887
0.0064392984 0.28413299 -0.20030889
-0.26136601 -0.28174233 -0.19637653
-0.14986755 -0.28413299 -0.19515833
-0.070905805 -0.28413299 -0.19058761
0.25954399 -0.058475628 -0.19601649
0.25954399 -0.031196406 -0.19306569
0.25954399 0.018982172 -0.19360934
-0.26136601 0.033878542 -0.19300149
0.25954399 0.11460342 -0.19332011
-0.26136601 0.26550275 -0.19835909
-0.22076857 0.28413302 -0.19804803
-0.1806609 0.28413299 -0.1994051
-0.13098961 0.28413299 -0.19833612
-0.13970587 -0.28413299 -0.18410066
-0.15756062 -0.17153075 -0.18274094
-0.14610784 -0.1764839 -0.18246098
-0.27131271 -0.156303 -0.1862956
-0.26136601 -0.15696712 -0.1875518
0.25954399 0.0034591961 -0.18186177
-0.26136601 0.020493783 -0.18823433
-0.26136601 0.090965472 -0.18943587
-0.26136601 0.24164072 -0.18787529
0.075569704 0.28413299 -0.18462512
0.14760736 0.28413299 -0.18447366
-0.18695955 -0.28413299 -0.17961255
-0.12277442 -0.28413299 -0.17108977
0.03353852 -0.28413299 -0.17947292
-0.27502599 -0.22241884 -0.17950134
-0.26136601 0.14103387 -0.17857963
-0.26136601 0.26525739 -0.17773992
-0.26136601 0.2829977 -0.17657301
-0.24664253 0.28413299 -0.17148294
0.13594893 0.28413299 -0.17070633
0.18049112 0.28413299 -0.17814542
0.27502599 0.28330496 -0.17601281
-0.27502599 -0.23401502 -0.16090935
-0.27502599 -0.21825749 -0.1683149
0.25954399 -0.14740026 -0.16041668
-0.27502599 -0.13228413 -0.16428396
-0.26136601 -0.0070128664 -0.16991319
0.25872558 0.010452655 -0.16247633
0.25344643 0.023837663 -0.16078559
0.25954399 0.045970265 -0.16227886
0.25954399 0.063411221 -0.16033977
0.25954399 0.079262115 -0.16237439
0.25954399 0.12659591 -0.16947341
-0.26136601 0.16800548 -0.16007075
-0.23174143 0.28413299 -0.16509879
-0.15682155 0.28413299 -0.1604653
-0.13516144 0.28413299 -0.1697343
-0.10986774 0.28413299 -0.16718075
-0.020907581 0.28413299 -0.16117641
-0.0064081401 0.28413299 -0.16244686
0.037546977 -0.28413299 -0.15654171
-0.27502599 -0.20771638 -0.15024854
0.25954399 -0.20449445 -0.1519624
0.25954399 -0.18596265 -0.1539821
0.25954399 -0.12504096 -0.15084217
0.22815815 0.041778594 -0.15842372
0.25954399 0.13349092 -0.15956913
-0.26136601 0.14899546 -0.15327212
-0.242359 0.28413299 -0.15452939
-0.16172683 0.28413299 -0.15697052
0.22476652 0.28413299 -0.15983337
-0.19012736 -0.28413299 -0.14379938
-0.12961413 -0.28413299 -0.1403331
-0.040081508 -0.28413299 -0.14008841
-0.27502602 -0.1689204 -0.14714685
-0.2659747 -0.11941671 -0.14060199
0.25954399 -0.096450515 -0.14386089
0.25683412 -0.054675397 -0.14673907
-0.26136601 -0.042222429 -0.1499709
0.2548818 0.071805127 -0.14852713
0.25954399 0.13708003 -0.14498058
-0.26136601 0.22625615 -0.14671643
-0.11832959 -0.28413299 -0.13759592
0.032204278 -0.28413299 -0.13433212
0.24723698 -0.28413299 -0.13497314
0.27502599 -0.26842847 -0.13601822
0.25954399 -0.23903672 -0.13615125
-0.26136601 0.033498608 -0.13890007
-0.15830091 -0.28413302 -0.12097302
-0.080239378 -0.28413299 -0.12497646
0.13673523 -0.28413299 -0.12277802
-0.26136601 -0.27731043 -0.12708232
0.27502599 -0.26251158 -0.12559156
0.25954399 -0.18357161 -0.1250996
-0.26136601 -0.15504998 -0.1261619
-0.26136601 -0.10374779 -0.12077744
-0.26136601 -0.059188858 -0.1242473
-0.26136601 -0.0037844703 -0.12117855
-0.26136601 0.11944048 -0.12563086
-0.1667929 0.28413299 -0.12450719
0.087854363 0.28413299 -0.1261501
-0.18405275 -0.28413299 -0.11395997
0.020569243 -0.28413299 -0.11049946
0.26849368 -0.28413299 -0.11260808
0.25954399 -0.14440753 -0.1168173
0.22311699 0.08382798 -0.1116072
-0.26136601 0.21412405 -0.11635053
-0.26136601 0.26265013 -0.1195811
-0.021247327 0.28413299 -0.11716641
0.22232845 0.28413299 -0.11974162
-0.0067284442 -0.28413299 -0.10822108
-0.26136601 -0.24504755 -0.10367656
0.25954399 -0.19989336 -0.10520409
0.25954399 -0.13300984 -0.10308199
0.23006833 -0.10564116 -0.10813153
0.22311699 -0.070377365 -0.1019818
0.24593532 0.1313621 -0.10256094
-0.24289989 0.28413299 -0.1081473
-0.2321258 0.28413299 -0.10512813
0.16637121 0.28413299 -0.10215349
0.17662032 0.28413299 -0.10895934
0.19812773 0.28413299 -0.10288768
0.25789255 0.28413299 -0.10101509
-0.16267186 -0.28413299 -0.099570423
-0.0078626424 -0.28413299 -0.098429173
0.12533742 -0.28413299 -0.09428177
-0.26136601 -0.27750465 -0.091841906
-0.26136601 -0.15986344 -0.094763428
0.23557708 -0.11229321 -0.099462807
-0.26136601 -0.078780204 -0.091517553
0.22311699 -0.055443019 -0.094570287
0.25954399 0.13921206 -0.094038665
-0.26136601 0.19846794 -0.095752418
-0.26136601 0.24483997 -0.09019088
-0.19545877 0.28413299 -0.096675128
-0.010765865 0.28413299 -0.093614265
0.27468497 0.28413299 -0.096984252
-0.20564488 -0.28413299 -0.088358022
0.037295423 -0.28413299 -0.084438056
0.25954399 -0.25675735 -0.086123779
0.25954399 -0.19530317 -0.086604208
-0.26136601 -0.1479957 -0.088520795
-0.26136601 -0.070845738 -0.080223508
-0.25097424 0.28413299 -0.082817294
-0.017648842 0.28413299 -0.088832937
0.18040162 0.28413299 -0.080957666
0.22506306 0.28413302 -0.083964691
0.24181034 0.28413299 -0.086553663
0.14143834 -0.28413299 -0.078508973
-0.26136601 -0.13093933 -0.070961915
-0.26136601 -0.044649124 -0.070425354
0.22311699 0.090877928 -0.076513655
0.25954399 0.2082148 -0.073827982
0.25954399 0.2461306 -0.071509868
-0.19645932 0.28413299 -0.078454904
-0.11596943 0.28413299 -0.077008098
0.074342817 0.28413299 -0.077493526
0.23331949 0.28413299 -0.079543985
-0.16278546 -0.28413299 -0.063187405
0.14346765 -0.28413299 -0.066758215
0.2605578 -0.28413299 -0.06499923
-0.26136601 -0.27602684 -0.060992651
-0.26136601 -0.22924294 -0.060289394
-0.26136601 -0.1781615 -0.062300995
-0.26136601 -0.16543363 -0.060507014
-0.26136601 -0.13182658 -0.065794155
0.25954399 -0.13711725 -0.062151302
0.22311699 -0.11067289 -0.062847532
0.2535668 0.1550419 -0.060237858
-0.26136601 0.25595415 -0.060460418
-0.0029300004 0.28413299 -0.066965729
0.18162391 0.28413299 -0.064741455
0.026131626 -0.28413299 -0.051251799
0.27251244 -0.28413296 -0.059597902
-0.26136601 -0.17862326 -0.05778569
0.22311699 0.029103644 -0.051149148
-0.26136601 0.054624364 -0.053843006
-0.26136601 0.060320459 -0.052916847
0.22311699 0.087325238 -0.056656476
-0.26136601 0.12458727 -0.052996941
0.25954399 0.20807686 -0.055641286
0.26713005 0.26098901 -0.057194509
0.03394882 0.28413299 -0.056344107
0.067476951 0.28413299 -0.055098373
-0.21979645 -0.28413299 -0.045321584
0.089336626 -0.28413299 -0.046062022
0.21442424 -0.28413299 -0.048859112
0.26031131 -0.28413299 -0.045298278
0.22311699 -0.022403352 -0.048679844
-0.26136601 0.036505565 -0.044665806
-0.26136601 0.18225819 -0.043506488
-0.26136601 0.21191958 -0.046228975
0.25954399 0.23710451 -0.042296957
0.25954399 0.24862783 -0.043866988
-0.16136777 0.28413299 -0.044581741
-0.15792945 0.28413299 -0.045585737
0.069245607 0.28413299 -0.047713555
0.15515977 0.28413299 -0.04813569
0.17934413 0.28413302 -0.045475096
0.24251017 0.28413299 -0.042702056
-0.012587192 -0.28413299 -0.030190174
-0.0019294471 -0.28413299 -0.031762958
0.21059644 -0.28413299 -0.035046339
0.22311699 -0.12829667 -0.039030194
-0.26136601 0.066170081 -0.03915666
-0.26136601 0.15886897 -0.03880541
0.22311699 0.15437099 -0.030022375
-0.26136601 0.21538284 -0.039468527
-0.1361392 0.28413299 -0.036634557
0.22505948 0.28413299 -0.038248628
-0.21646211 -0.28413299 -0.02370286
-0.19963953 -0.28413299 -0.021967202
-0.15067676 -0.28413299 -0.027904466
-0.091814667 -0.28413299 -0.021847293
-0.011923581 -0.28413299 -0.026252925
0.090832323 -0.28413299 -0.027964834
0.25954399 -0.20773552 -0.02489293
-0.26136601 -0.19510105 -0.025954278
-0.26136601 -0.16453244 -0.024013925
0.22637154 -0.14149271 -0.026891312
0.25565267 -0.14126724 -0.028603638
-0.26136601 -0.11515483 -0.020345576
0.22311699 0.056372207 -0.024562284
0.22311699 0.11011032 -0.02486855
-0.095823668 0.28413299 -0.023645461
-0.26136601 -0.15401508 -0.018951871
0.22311699 -0.066189334 -0.012588665
-0.26136601 -0.031890623 -0.013735473
-0.26136601 0.054861717 -0.015574411
-0.26136601 0.2144345 -0.015398353
-0.25659475 0.28413299 -0.013109922
-0.15051511 0.28413299 -0.01198379
0.035712399 0.28413299 -0.015252945
0.10087927 0.28413299 -0.017841663
0.14087692 0.28413299 -0.012546062
0.25482237 0.28413299 -0.016340777
-0.14225459 -0.28413299 -0.0099710971
0.27502599 -0.27725923 -0.0021080822
-0.26136601 -0.26483232 -0.0091757141
0.25954399 -0.20730606 -0.0067709535
0.22311699 -0.12750836 -0.0071588904
0.22311699 -0.010171478 -0.0036150902
-0.26136601 0.14518227 -0.0003041029
-0.26136601 0.18128209 -0.00031352043
-0.20102505 0.28413299 -0.0039833486
-0.10459467 0.28413299 -0.0060473382
-0.0066275597 0.28413299 -0.0021958947
0.029109411 0.28413299 -0.000336539
0.079680383 -0.28413299 0.0067798197
0.23026337 -0.28413299 0.0036031604
0.25954399 -0.24992114 0.0076270625
-0.26136601 -0.21467763 0.0022669435
-0.26136601 -0.12170712 0.0010487586
-0.26136601 0.2030364 0.0079965144
0.27502599 0.27546424 0.00088377669
-0.17552002 0.28413299 0.0072128847
-0.16011187 0.28413299 0.0023898557
0.01825374 0.28413299 0.002142177
0.1466774 -0.28413299 0.013814673
0.25954399 -0.23721126 0.010310717
0.25954399 -0.22328839 0.016432419
0.22311699 -0.13065349 0.010869475
-0.26136601 -0.099048495 0.012851305
-0.26136601 0.11233275 0.013941472
0.25954399 0.22494827 0.01981122
0.2724922 0.26098901 0.013610825
0.05020234 0.28413299 0.019212186
0.26405281 0.28413299 0.015767246
0.058359414 -0.28413299 0.026931111
0.25954399 -0.21243785 0.021455072
-0.26136601 -0.0063186325 0.021533702
-0.21860653 0.28413296 0.024696574
-0.087525144 0.28413299 0.022369891
0.26582366 0.28413299 0.021685123
-0.26136601 -0.27635372 0.033799127
0.25954399 -0.25369471 0.035628542
-0.26136601 -0.078988276 0.036323573
-0.26136601 0.10643505 0.036560722
0.25954399 0.18482666 0.035189733
0.27502599 0.26946104 0.037921906
0.015017807 0.28413299 0.031424373
-0.0052831918 -0.28413299 0.044712126
0.023141108 -0.28413299 0.049170356
0.19907723 -0.28413299 0.045518935
0.2729004 -0.28413299 0.041102588
0.27317417 -0.26098901 0.040123016
-0.26136601 -0.21712209 0.047186807
-0.26136601 -0.19194564 0.048655789
0.25954399 -0.18557931 0.047966599
0.22311699 -0.10588346 0.046800122
0.22311701 0.077948265 0.048813175
-0.26136601 0.25110555 0.044916667
-0.18596551 0.28413299 0.044008173
0.046656929 0.28413299 0.042721592
0.17760853 0.28413299 0.046337843
-0.14858153 -0.28413299 0.055322617
0.092642337 -0.28413299 0.051062912
0.13441083 -0.28413299 0.053609781
0.19498599 -0.28413299 0.059816681
0.27502599 -0.27686501 0.058848798
-0.26136601 -0.12613831 0.050450183
0.22311699 0.073389687 0.057359233
0.25954399 0.18013464 0.056858264
-0.26136601 0.25492322 0.057057112
0.25748581 0.28413299 0.050978601
0.27502599 0.28145304 0.057934053
0.0283406 -0.28413299 0.068687499
0.073046669 -0.28413299 0.069937773
-0.26136601 -0.24956752 0.065735832
-0.26136601 -0.23523211 0.069908321
-0.26136601 -0.19848946 0.06204509
0.22311699 -0.041920509 0.061224688
0.22311699 -0.025301464 0.069322214
-0.156417 0.28413302 0.064627424
-0.038508326 0.28413299 0.064691044
0.16802265 0.28413299 0.061827876
-0.18746528 -0.28413299 0.074010707
-0.10693793 -0.28413299 0.070200123
0.25954399 -0.25835589 0.073153958
-0.26136601 -0.218812 0.074855626
-0.26136601 -0.20658183 0.079481244
0.25954399 -0.15025079 0.077812247
-0.26136601 -0.11099684 0.070443586
0.24010611 -0.11711248 0.077621646
0.22311699 0.12051541 0.072568446
-0.26136601 0.23484939 0.078330778
-0.0028409585 0.28413299 0.071201414
-0.26136601 -0.21493663 0.081386894
-0.26136601 -0.18073845 0.088186055
-0.26136601 -0.026649751 0.085348986
-0.26136601 0.20664798 0.086614229
-0.17215256 0.28413299 0.082758196
0.19847709 0.28413299 0.085183859
0.25783467 0.28413299 0.083437584
-0.086285345 -0.28413299 0.099882007
0.06907054 -0.28413299 0.092898794
0.11829713 -0.28413299 0.09740945
-0.26136601 -0.19215517 0.099898152
0.2293731 0.12423374 0.096289597
-0.26136601 0.16163941 0.09759298
-0.22992587 0.28413299 0.098686397
-0.077132605 0.28413299 0.094808191
0.061504304 0.28413299 0.090033211
-0.20991673 -0.28413299 0.10712493
-0.26136601 -0.2454488 0.10774221
0.25954399 -0.17824697 0.10217758
0.22311699 -0.078998476 0.10470612
0.22311699 0.079006612 0.10227737
-0.14768447 0.28413299 0.10521217
-0.01796373 0.28413299 0.10419574
0.050640143 0.28413299 0.10053978
0.14927724 0.28413299 0.10142785
-0.23312947 -0.28413299 0.11685042
-0.12305403 -0.28413299 0.11646736
0.061220609 -0.28413296 0.11147332
0.12898475 -0.28413299 0.11151604
-0.26136601 -0.26289517 0.11601811
0.27502599 -0.26601821 0.11492683
-0.26136601 0.039028987 0.11301379
0.22311699 0.074693926 0.11700602
0.26050526 0.28413299 0.11878768
-0.13268277 -0.28413299 0.12910163
-0.11270699 -0.28413299 0.12297791
0.17626899 -0.28413299 0.1225862
0.22658929 -0.28413299 0.12073746
0.27502599 -0.26245245 0.12250904
-0.26136601 -0.17442715 0.12916334
-0.26136601 -0.048578069 0.12800939
0.22311699 0.027687365 0.12946165
-0.26136601 0.064984784 0.12665954
-0.26136601 0.07800024 0.12535746
0.24606138 0.082551725 0.12851477
0.23586792 0.093615182 0.12198083
-0.26136601 0.18053767 0.12119073
0.25954399 0.24260981 0.12059745
-0.1168463 0.28413299 0.12455764
-0.071829431 0.28413299 0.12433458
0.016510472 0.28413299 0.12462666
0.12156555 0.28413299 0.12653241
0.19689232 0.28413299 0.12535593
0.21999712 0.28413299 0.12750541
-0.053731952 -0.28413299 0.13143393
0.1336786 -0.28413299 0.1314026
0.17477605 -0.28413299 0.13330668
0.19906297 -0.28413299 0.13131359
0.2022721 -0.28413299 0.13136506
0.2217249 -0.28413299 0.13661462
-0.26136601 -0.11371166 0.13473012
-0.26136601 -0.086612329 0.13025035
0.23620448 -0.043013319 0.13600871
-0.26136601 -0.010809883 0.13448685
0.22311699 0.062849216 0.13626859
0.25954399 0.097643316 0.13488245
-0.26136601 0.15784216 0.13530537
0.15130302 0.28413299 0.13144699
-0.10178271 -0.28413299 0.14335792
0.055806275 -0.28413299 0.14030981
0.27502602 -0.26328602 0.14157718
-0.26136601 -0.24450618 0.1483487
0.25954399 -0.24959657 0.14126556
-0.26136601 -0.11095801 0.14134872
-0.26136601 -0.10677426 0.14869492
-0.26136601 0.0086651146 0.14593115
0.25954399 0.038059957 0.14356895
-0.26136601 0.1754812 0.14870434
0.017168537 0.28413299 0.14684916
0.15468016 0.28413299 0.1492565
-0.12537558 -0.28413299 0.15260559
0.06347321 -0.28413299 0.15343007
0.17290869 -0.28413299 0.15525231
0.18877396 -0.28413296 0.15769847
-0.26136601 -0.18373007 0.15749764
0.25954399 -0.14451489 0.15194426
0.25954399 0.03813602 0.15749839
-0.26136601 0.16715117 0.15634315
0.27502599 0.27401796 0.15774158
-0.17521669 0.28413299 0.15770708
-0.12875725 0.28413299 0.15161365
-0.072911188 0.28413299 0.15732622
0.1183375 0.28413299 0.15026975
-0.21043056 -0.28413299 0.16418096
-0.26136601 -0.034495145 0.16832525
0.25954399 -0.028259404 0.16955307
-0.26136601 0.015142709 0.16007951
0.25954399 0.02889882 0.16280943
-0.26136601 0.25883883 0.16913179
0.021378934 0.28413299 0.16001193
0.25954399 -0.24995649 0.17434075
0.25954399 -0.19445646 0.17060117
-0.26136601 -0.18814936 0.17991993
-0.26136601 -0.11846623 0.17305613
0.25954399 -0.0042686407 0.17628683
0.25954399 0.016266137 0.17149243
0.25954399 0.021281675 0.17755407
0.25954399 0.077764511 0.17985275
0.25954399 0.11339518 0.17843534
-0.26136601 0.24052994 0.17274204
-0.12825112 -0.28413299 0.18649685
0.14583369 -0.28413299 0.18761118
0.20802937 -0.28413299 0.18080804
-0.26136601 -0.27478701 0.18916297
0.25954399 -0.22277017 0.18904072
-0.26136601 -0.09436284 0.18227094
-0.26136601 -0.0025308132 0.18716833
-0.26136601 0.029467851 0.18223819
0.25954399 0.075843893 0.18066853
-0.26136601 0.10350797 0.18988678
0.25954399 0.12167232 0.18647864
-0.16091777 0.28413299 0.18016149
0.23844805 0.28413299 0.18733162
0.24504085 0.28413299 0.18972839
-0.25206003 -0.28413299 0.19387951
-0.16286904 -0.28413299 0.19021919
-0.01776398 -0.28413299 0.19958392
0.13041878 -0.28413299 0.1962074
-0.26136601 -0.25997448 0.19783925
-0.26136601 -0.16320419 0.1909257
-0.26136601 -0.10501387 0.19138438
0.25954399 0.039991856 0.19228555
0.25954399 0.11460226 0.19053411
-0.26136601 0.23463151 0.19112571
0.27015358 0.26098901 0.1939339
-0.17414264 0.28413299 0.19414549
0.22621585 0.28413299 0.19422601
-0.095558897 -0.28413299 0.20622268
0.033264033 -0.28413299 0.20722967
0.053510278 -0.28413299 0.20027795
0.14451566 -0.28413299 0.20889339
0.21734565 -0.28413299 0.20394911
0.25954399 -0.22195941 0.20921859
-0.26136601 -0.20346263 0.20105211
0.25954399 -0.16435757 0.20314936
-0.26136601 -0.0076395199 0.20311244
-0.26136601 0.16611774 0.20305257
-0.26136601 0.23035957 0.20744717
-0.26136601 0.24339899 0.20091768
0.13150512 -0.28413299 0.21301937
0.27502599 -0.27268487 0.21347889
0.25954399 -0.11516901 0.21352118
0.25954399 -0.10560738 0.21229069
-0.26136601 -0.028848186 0.21189846
0.0072735772 0.28413299 0.21159443
0.095198363 0.28413299 0.2186676
0.1580195 0.28413299 0.21819904
-0.21024798 -0.28413299 0.22648588
0.27502599 -0.2645165 0.22709088
0.25954399 -0.21008195 0.22105888
-0.26136601 -0.13649598 0.22486889
0.25954399 0.086054914 0.22057921
0.25954399 0.10376629 0.22197825
0.25954399 0.13096765 0.22890267
0.25954399 0.14103077 0.22811335
0.25954399 0.2555697 0.228549
-0.1627399 0.28413299 0.22832724
-0.15158843 0.28413299 0.22390245
0.17180683 0.28413299 0.22246483
0.019190848 -0.28413299 0.23170693
0.27502599 -0.27818859 0.23399916
-0.26136601 -0.14699505 0.23388408
-0.26136601 -0.12843843 0.23141848
0.25954399 -0.12089005 0.23588687
-0.26136601 -0.11770397 0.23487109
-0.26136601 -0.069953911 0.23374589
0.25954399 -0.066122204 0.23532884
0.25954399 0.067512646 0.23663995
0.25954399 0.20202543 0.23978031
-0.11045065 0.28413299 0.23985015
-0.088433132 0.28413299 0.23431513
0.26566854 0.28413299 0.23810391
0.27094081 -0.28413299 0.24861607
0.25954399 -0.16566195 0.24977612
0.25954399 0.050497606 0.24547753
-0.26136601 0.28308979 0.24470127
-0.20093857 0.28413299 0.24760541
-0.1862974 0.28413299 0.24608579
0.12825772 0.28413299 0.24967146
0.17806941 0.28413299 0.24824911
-0.096167386 -0.28413299 0.25651497
-0.074021079 -0.28413299 0.25428525
0.15865314 -0.28413299 0.25021091
0.27336717 -0.28413299 0.25081968
-0.26136601 -0.26197803 0.25078496
-0.26136601 -0.17783704 0.25682926
-0.26136601 -0.056298301 0.25384706
-0.26136601 0.096856736 0.25623924
-0.26136601 0.13422437 0.25914839
-0.26136601 0.20596284 0.25383162
0.27502599 0.27535352 0.2541095
-0.22536963 0.28413299 0.25274917
-0.1978208 0.28413299 0.25311103
-0.11148167 0.28413299 0.2574203
-0.062198758 0.28413299 0.25721511
0.06924364 0.28413299 0.25047871
0.15269965 0.28413299 0.2572611
0.24661151 0.28413299 0.25577244
-0.09819337 -0.28413299 0.26290908
-0.083642855 -0.28413299 0.26438376
-0.023936875 -0.28413299 0.26317713
0.041795079 -0.28413299 0.26693875
0.066558763 -0.28413299 0.2675494
0.12270905 -0.28413299 0.26031607
0.18873352 -0.28413299 0.26333523
-0.26136601 -0.1625604 0.26201016
0.25954399 -0.16831835 0.26612031
-0.26136601 -0.15438163 0.26342115
-0.26136601 -0.10303856 0.26444864
-0.26136601 0.038008064 0.26986277
-0.26136601 0.046299607 0.26182082
-0.26136601 0.19739273 0.26941767
0.25954399 0.25582021 0.26180857
-0.20878462 0.28413299 0.26587468
-0.16840599 0.28413299 0.26861623
0.11060909 0.28413299 0.26450676
0.23189045 0.28413299 0.26550201
-0.17723547 -0.28413299 0.27863598
0.25041664 -0.28413299 0.27881825
0.27502599 -0.26855755 0.27710214
0.25954399 -0.1555185 0.27633628
0.25954399 -0.14668147 0.27156368
-0.26136601 -0.041723412 0.27808434
-0.10799987 0.28413299 0.2726298
0.031099269 0.28413299 0.27586052
0.18506637 0.28413299 0.27327171
-0.22462682 -0.28413299 0.28367141
-0.16678435 -0.28413299 0.2852141
-0.14743812 -0.28413299 0.28804913
-0.054037668 -0.28413299 0.28764495
0.030095028 -0.28413299 0.28814533
0.11509168 -0.28413299 0.28356341
0.25817466 -0.28413302 0.2813769
0.2723316 -0.15571798 0.28284499
0.26386404 -0.10742272 0.28284499
-0.26136601 -0.084770605 0.28546315
0.26810563 -0.02253478 0.28284499
-0.26136601 0.0013705799 0.28600487
0.27502599 0.007087877 0.28584075
0.27084678 0.036680065 0.28284499
0.25954399 0.058256462 0.28216964
0.25954399 0.16060357 0.28223509
-0.077742778 0.28413299 0.28365135
-0.074401878 -0.28413299 0.29934153
0.073316872 -0.28413299 0.29521745
-0.26136601 -0.23567079 0.29627025
0.27502599 -0.13145432 0.29111281
0.27502599 -0.086646892 0.29656109
-0.26136601 -0.018125787 0.29963148
0.27502599 -0.01439698 0.29085302
-0.26136601 0.019652292 0.29504883
0.27502599 0.12294649 0.29156756
-0.19046299 0.28413299 0.29436231
-0.048018023 0.28413299 0.29552069
-0.030795954 0.28413299 0.29272556
-0.06193015 -0.28169271 0.305989
-0.032716446 -0.28413299 0.30433396
0.19393134 -0.28170675 0.305989
0.032099642 -0.27224296 0.305989
-0.15434822 -0.26168561 0.305989
-0.12688589 -0.2665908 0.305989
-0.076496035 -0.2403129 0.30598897
0.24210352 -0.24831007 0.305989
0.045972876 -0.23030025 0.305989
0.078354962 -0.2328466 0.305989
-0.18592635 -0.22954307 0.305989
-0.11451603 -0.21157728 0.305989
-0.0037330538 -0.21527699 0.305989
0.059242532 -0.21347499 0.30598897
0.22635318 -0.2127154 0.305989
0.13149169 -0.20451191 0.305989
-0.25771952 -0.19518884 0.305989
0.26610413 -0.19573964 0.305989
0.19269647 -0.1820547 0.30598903
-0.22175972 -0.17349137 0.305989
-0.18579078 -0.1779726 0.305989
-0.23037148 -0.16779687 0.305989
-0.15820602 -0.1648788 0.305989
0.23836623 -0.16165078 0.30598897
0.27203846 -0.16533676 0.305989
-0.10049143 -0.15219824 0.305989
-0.013727784 -0.15171535 0.305989
0.27387071 -0.15315802 0.305989
-0.21587834 -0.14187728 0.305989
-0.26136601 -0.13672122 0.30572656
-0.092255637 -0.13489863 0.305989
-0.0021853447 -0.13224506 0.305989
-0.24953969 -0.12108201 0.305989
0.11373016 -0.12684762 0.305989
0.26484287 -0.12542264 0.305989
-0.23323414 -0.11849269 0.305989
-0.16410418 -0.11819229 0.305989
-0.01400134 -0.11164196 0.305989
0.13100071 -0.11326262 0.305989
-0.24726672 -0.10214979 0.305989
0.20503059 -0.083615571 0.305989
-0.052173488 -0.072199441 0.305989
-0.0055903234 -0.06696596 0.305989
-0.23254117 -0.053470254 0.30598897
-0.21626273 -0.053372167 0.305989
-0.20670918 -0.056796975 0.305989
0.024221621 -0.059852757 0.305989
0.23809385 -0.051891733 0.30598897
-0.26136601 -0.042948797 0.30110967
-0.20372739 -0.048674077 0.305989
0.0021080524 -0.043863207 0.305989
0.26493829 -0.047502726 0.305989
-0.20805305 -0.030446611 0.305989
-0.013666973 -0.031030007 0.305989
0.014654115 -0.038299531 0.30598903
0.14577004 -0.0316099 0.305989
-0.14448866 -0.024783295 0.305989
-0.064483486 -0.029996652 0.305989
0.048537366 -0.025339074 0.305989
0.22564733 -0.024664052 0.30598903
-0.2059198 -0.013506345 0.30598903
-0.085167423 -0.0099066049 0.305989
0.08238785 -0.0064958408 0.305989
0.022147473 0.0066744816 0.305989
0.134462 0.0037629455 0.305989
-0.11688065 0.011720456 0.305989
-0.2410447 0.023376465 0.305989
0.061524935 0.022647053 0.305989
0.083675362 0.020728372 0.305989
0.2022714 0.02910196 0.305989
-0.16590866 0.033942588 0.305989
0.10394675 0.036304157 0.305989
0.11673794 0.03581699 0.305989
-0.039377943 0.045548469 0.305989
0.24913499 0.04847433 0.305989
0.27432984 0.045503624 0.305989
-0.23454276 0.056963064 0.30598903
-0.0099322498 0.058981031 0.305989
0.21712062 0.050556287 0.305989
0.073603883 0.062238786 0.305989
0.18294232 0.06921909 0.305989
0.27469623 0.068488769 0.305989
-0.052362353 0.073109202 0.305989
-0.018855877 0.071033306 0.305989
0.079660036 0.070951886 0.305989
0.1935465 0.07134074 0.305989
0.24935785 0.077141315 0.30598903
-0.064476453 0.087689325 0.305989
0.17390209 0.086822882 0.305989
0.12071126 0.090796992 0.305989
0.21722765 0.098140761 0.305989
-0.25502631 0.10052709 0.305989
-0.039491281 0.10202356 0.305989
0.12859024 0.10359013 0.305989
0.26371029 0.11221325 0.305989
-0.099416114 0.12890546 0.305989
0.0048198104 0.12551756 0.305989
-0.050272278 0.13360351 0.305989
-0.20654672 0.14871231 0.30598897
-0.17506461 0.14044747 0.305989
-0.13850798 0.14793324 0.305989
0.16775249 0.14625476 0.305989
0.21122095 0.15931703 0.305989
0.22899914 0.15003493 0.305989
-0.16137512 0.16675195 0.305989
-0.080224127 0.1698902 0.305989
-0.053014554 0.16414079 0.30598903
-0.0051070303 0.16375028 0.305989
0.11029656 0.16179636 0.305989
-0.26136601 0.17600852 0.30569589
-0.23901591 0.1759093 0.305989
0.031918995 0.17769487 0.305989
0.24071153 0.17200935 0.30598897
-0.14544389 0.18426745 0.305989
-0.00582169 0.18593642 0.305989
0.015337043 0.18544464 0.305989
-0.18065007 0.19867548 0.305989
-0.023221828 0.19077721 0.305989
0.070998713 0.1942023 0.305989
0.1345306 0.19493118 0.305989
0.26803988 0.1917738 0.305989
-0.25188622 0.20010421 0.305989
-0.084864207 0.2091555 0.305989
0.078407317 0.20793837 0.305989
-0.059891887 0.21545731 0.30598897
0.11282799 0.21585146 0.305989
-0.14432997 0.2200565 0.305989
-0.079497471 0.22091192 0.305989
0.046661384 0.22076802 0.305989
0.065672427 0.23903707 0.305989
0.24004142 0.2374939 0.305989
-0.074440457 0.24402286 0.305989
-0.031577833 0.2461445 0.305989
0.059145406 0.24878958 0.305989
-0.043920629 0.25343901 0.305989
-0.037553102 0.25068051 0.30598903
0.048565686 0.25198752 0.305989
0.10553192 0.25372046 0.305989
-0.18386893 0.26220432 0.305989
-9.149313e-06 0.26974416 0.305989
0.1275444 0.2644549 0.305989
0.24851879 0.26348096 0.305989
0.25646782 0.26638541 0.305989
0.27502599 0.26499298 0.30527461
-0.11356284 0.27447745 0.305989
-0.08548715 0.27838975 0.305989
-0.19591904 0.28272822 0.305989
