# .PCD v0.7 - Point Cloud Data file format
VERSION 0.7
FIELDS x y z
SIZE 4 4 4
TYPE F F F
COUNT 1 1 1
WIDTH 969
HEIGHT 1
VIEWPOINT 0 0 0 1 0 0 0
POINTS 969
DATA ascii
0.079698555 -0.31454906 -0.24009699
-0.075910106 -0.30151007 -0.24009699
0.14806499 -0.3008087 -0.240097
-0.054400533 -0.29916281 -0.24009699
0.068581164 -0.29911423 -0.24009699
0.071581125 -0.29703107 -0.240097
0.14227633 -0.2919839 -0.24009702
-0.10163109 -0.28679866 -0.24009699
-0.095340438 -0.28174305 -0.24009702
-0.24945492 -0.27153751 -0.240097
0.021427482 -0.27344579 -0.240097
-0.1472064 -0.26021567 -0.24009699
0.074878201 -0.26322493 -0.24009702
0.13960148 -0.26452255 -0.240097
-0.27232316 -0.25426996 -0.240097
-0.2630924 -0.25330681 -0.240097
-0.23715775 -0.25082824 -0.24009702
-0.15325499 -0.24883594 -0.240097
-0.08694458 -0.233181 -0.24009699
0.0059475005 -0.23276986 -0.24009702
0.13447013 -0.23164457 -0.240097
0.19950497 -0.23922236 -0.240097
-0.19126999 -0.2228696 -0.240097
-0.033300191 -0.21203707 -0.24009702
-0.011370525 -0.2145907 -0.240097
-0.15241927 -0.19892168 -0.240097
-0.29316455 -0.18041614 -0.240097
-0.28888625 -0.18159665 -0.24009699
0.089209244 -0.18829268 -0.240097
0.259247 -0.18456128 -0.240097
-0.046242733 -0.17941251 -0.24009702
0.080688968 -0.1756172 -0.240097
0.17111595 -0.17188616 -0.240097
0.15535152 -0.16319875 -0.240097
0.2139601 -0.16644678 -0.240097
-0.036284741 -0.15218705 -0.24009702
0.14705908 -0.15705802 -0.240097
-0.13052398 -0.13167167 -0.240097
-0.030905649 -0.13597935 -0.24009699
0.10052979 -0.1314638 -0.24009702
0.20265771 -0.13498601 -0.24009702
0.22760352 -0.13971947 -0.240097
0.16902488 -0.12612882 -0.24009702
0.21089536 -0.1226502 -0.24009702
-0.16819327 -0.11419975 -0.24009702
0.14290573 -0.1178305 -0.24009699
0.20021653 -0.10398999 -0.240097
-0.24587387 -0.097971566 -0.24009699
0.13343292 -0.098112658 -0.240097
-0.00049731694 -0.08887732 -0.240097
0.16351268 -0.085180677 -0.240097
-0.19623119 -0.079404414 -0.24009702
-0.0081029646 -0.070790969 -0.240097
0.25454524 -0.072426014 -0.240097
-0.20787475 -0.069675706 -0.24009702
-0.045001343 -0.069449566 -0.24009699
0.033352397 -0.067255564 -0.240097
0.18773502 -0.068837486 -0.24009702
0.050481632 -0.05445224 -0.24009702
0.17539772 -0.05190625 -0.24009699
-0.28709525 -0.048613124 -0.240097
-0.029336557 -0.042070754 -0.24009699
0.066248171 -0.045306746 -0.240097
-0.20907271 -0.032738283 -0.240097
-0.087848306 -0.036658864 -0.24009702
-0.010392923 -0.035431296 -0.240097
-0.0061630458 -0.034668252 -0.240097
0.10572667 -0.031934589 -0.240097
0.26319212 -0.030375779 -0.24009702
-0.25773492 -0.021550566 -0.240097
0.034569301 -0.026749611 -0.24009699
0.20235586 -0.013787046 -0.24009699
0.2315964 -0.011453271 -0.24009702
0.21892394 -0.0050207004 -0.240097
0.067582421 0.0046580061 -0.24009702
0.21867521 0.0060991859 -0.24009699
-0.045107469 0.016631871 -0.24009699
0.027704449 0.017190695 -0.24009699
0.11705951 0.017178062 -0.240097
-0.21465144 0.023647249 -0.240097
0.062840275 0.020814709 -0.24009702
0.11778166 0.024780415 -0.24009699
0.12051656 0.021826427 -0.240097
0.21275803 0.021641664 -0.24009699
0.22088861 0.025989302 -0.24009699
-0.24475348 0.036153466 -0.240097
-0.26608709 0.041108906 -0.240097
-0.22233975 0.048142616 -0.240097
0.0075484812 0.046718657 -0.240097
0.04908089 0.045324173 -0.24009699
0.14141387 0.045335069 -0.24009699
0.094031908 0.052180689 -0.24009699
0.0041904151 0.068947122 -0.240097
0.15375993 0.063643754 -0.24009702
-0.094308048 0.077835023 -0.24009702
-0.18171312 0.081892774 -0.240097
-0.17083766 0.080504842 -0.240097
-0.10219959 0.086807109 -0.240097
0.092164703 0.083329178 -0.24009699
0.11284494 0.096027687 -0.24009702
0.14988437 0.09099181 -0.24009699
0.1601994 0.099816464 -0.24009699
-0.29393148 0.10669994 -0.240097
-0.027121395 0.10439618 -0.24009699
0.080069028 0.10229752 -0.24009699
0.14200839 0.10228357 -0.24009702
0.2186276 0.10296716 -0.240097
-0.010465741 0.1151619 -0.240097
0.018133476 0.11875863 -0.240097
0.14704943 0.11827996 -0.240097
-0.22805622 0.12336532 -0.240097
-0.0024873614 0.12454313 -0.24009702
0.16959094 0.12920606 -0.24009702
-0.27826667 0.13893507 -0.240097
-0.039759338 0.13551882 -0.240097
-0.13929269 0.14234214 -0.240097
-0.035050012 0.15449409 -0.240097
0.039217502 0.15759379 -0.24009702
0.094709449 0.15066797 -0.240097
-0.20368133 0.16684493 -0.240097
-0.10163531 0.16558863 -0.24009702
-0.15261376 0.18126124 -0.24009699
-0.14994588 0.18266249 -0.240097
0.13874222 0.18999207 -0.24009699
0.19312856 0.18666254 -0.240097
-0.21052298 0.19193365 -0.240097
-0.05277431 0.19448234 -0.24009702
0.024981543 0.19003083 -0.240097
-0.075671576 0.20232688 -0.24009702
0.05887641 0.20885399 -0.240097
0.27066553 0.2081721 -0.240097
-0.18113136 0.21297777 -0.240097
-0.15217635 0.21196672 -0.240097
-0.13913417 0.22330593 -0.240097
-0.068581849 0.22254336 -0.24009699
-0.12130139 0.23564446 -0.240097
-0.020697862 0.23965761 -0.240097
0.044130269 0.23293126 -0.240097
0.081278816 0.23056428 -0.24009702
-0.2809664 0.24136432 -0.24009699
-0.26430506 0.24249221 -0.240097
0.12712249 0.24730773 -0.24009699
-0.26409912 0.25902134 -0.24009702
-0.24587262 0.25689459 -0.24009699
0.18471929 0.25333413 -0.240097
0.084287144 0.26672801 -0.240097
0.14625195 0.26210338 -0.24009702
0.17648825 0.2676996 -0.240097
0.26921588 0.27549562 -0.24009702
0.12078354 0.28364879 -0.240097
0.13431641 0.28061277 -0.240097
-0.21565573 0.2973913 -0.24009699
0.0016474947 0.29472131 -0.240097
0.12439711 0.2949338 -0.24009702
0.1326468 0.29656136 -0.240097
0.19049247 0.29741693 -0.240097
-0.28397092 0.30816028 -0.240097
0.049401529 0.3167991 -0.240097
0.16904315 0.31192195 -0.24009699
0.20087774 0.31235027 -0.240097
0.278496 -0.0081286281 -0.23313576
-0.293966 0.0019723326 -0.23934901
-0.293966 0.026257306 -0.23831034
-0.293966 0.033311866 -0.23524389
0.278496 0.14030074 -0.23356712
-0.293966 -0.16689494 -0.22487214
-0.293966 0.060811192 -0.22915348
-0.293966 0.13122393 -0.22156692
0.278496 0.153759 -0.22974333
0.278496 0.17301998 -0.22393572
-0.293966 0.23704898 -0.22052503
-0.097994916 0.32548001 -0.22092909
-0.066271305 0.32548001 -0.22966865
-0.047891147 0.32548001 -0.22733551
0.091289885 0.32548001 -0.22498496
-0.293966 -0.32088122 -0.21218075
-0.293966 -0.25113928 -0.21605545
-0.293966 -0.090674609 -0.21606892
0.278496 -0.070422828 -0.21007903
-0.293966 -0.0080561861 -0.21416007
0.278496 0.087605685 -0.21674651
-0.293966 0.12694235 -0.21786985
-0.293966 0.20761739 -0.21379794
-0.18870769 0.32548001 -0.21231601
-0.13028669 0.32548001 -0.21284388
0.018166287 0.32548001 -0.21373509
0.18248698 0.32548004 -0.21000689
-0.293966 -0.30404201 -0.2070985
-0.293966 -0.117126 -0.20199022
0.278496 -0.11590624 -0.20633537
-0.293966 0.061390698 -0.208507
0.276788 0.24517128 -0.20170079
-0.293966 0.27279907 -0.20627819
-0.26886091 0.32548001 -0.20782523
-0.081405625 0.32548001 -0.20053537
0.0010034069 0.32548001 -0.20578262
0.10302279 0.32548001 -0.20414937
-0.293966 -0.19000061 -0.19243871
-0.293966 -0.11600181 -0.19869383
0.278496 -0.014035667 -0.19220193
0.278496 0.034280512 -0.19893779
0.278496 0.073286787 -0.1996417
0.278496 0.26470461 -0.19142038
-0.293966 0.31372571 -0.19315058
-0.22781137 0.32548001 -0.19684932
-0.21384937 0.32548001 -0.19343339
0.24817076 0.32548001 -0.19592538
0.12631001 -0.021517199 -0.18303879
-0.293966 -0.012353726 -0.18329126
-0.0071833883 -0.008409203 -0.1858256
0.045959029 0.0019173152 -0.1873769
0.278496 0.0062455302 -0.18868156
0.25921601 0.019959671 -0.18829648
0.23108156 0.041973829 -0.18696207
0.10124905 0.052405588 -0.18514204
0.12094354 0.058871016 -0.18379742
0.13557304 0.059954636 -0.18357205
0.028905654 0.071140885 -0.18040802
0.278496 0.11560833 -0.18625239
-0.293966 0.15249947 -0.18726785
-0.293966 0.22849551 -0.18333405
0.276788 0.23592003 -0.1898277
-0.293966 0.26229706 -0.18311772
-0.293966 0.29164898 -0.18994682
-0.26216283 0.32548001 -0.18573877
-0.23055771 0.32547998 -0.1824847
-0.19475482 0.32548001 -0.18651298
-0.10940414 0.32548001 -0.18332048
0.19124398 0.32548004 -0.18588896
0.278496 -0.31757694 -0.17018594
0.27849603 -0.060780212 -0.17671293
0.055974774 -0.054075234 -0.17138715
0.095029667 -0.056517951 -0.17005292
0.238654 -0.051236622 -0.17269573
0.054874323 -0.042183869 -0.17635229
0.22282332 -0.049724907 -0.17330635
0.12896498 -0.037369829 -0.17829677
-0.293966 0.0076437369 -0.17789276
-0.00790984 0.054110583 -0.17792639
0.26133624 0.076428287 -0.17864111
0.073408805 0.082228646 -0.17670278
0.085121378 0.084094763 -0.17600913
0.11716276 0.087993249 -0.17417842
0.051751908 0.096868575 -0.1700106
0.278496 0.13950518 -0.17696218
-0.28409994 0.32548001 -0.17845331
-0.2318072 0.32548004 -0.1704157
-0.17680636 0.32548001 -0.17607449
0.1683358 0.32548001 -0.17130275
0.0341677 -0.070773572 -0.16225487
0.15769961 -0.07198438 -0.16139978
0.0061835875 -0.067756794 -0.16391405
0.035130419 -0.065529987 -0.16513038
0.047186434 -0.069805145 -0.16279522
0.10587119 -0.063993454 -0.16596965
0.22250606 -0.068692058 -0.1634032
0.079683714 -0.059201069 -0.16858736
-0.293966 -0.028656162 -0.16120987
0.278496 0.06348227 -0.16941319
0.18380302 0.10464653 -0.16593955
-0.293966 0.12802044 -0.16788401
0.278496 0.12024263 -0.16928926
0.278496 0.15725809 -0.16102412
0.27725604 0.21126494 -0.16301213
0.278496 0.26659399 -0.16125615
-0.24848586 0.32547998 -0.16971232
-0.007261578 0.32548001 -0.16485795
0.15362133 0.32548001 -0.16819701
-0.293966 -0.20934004 -0.15544233
-0.00790984 -0.055505011 -0.15078303
0.278496 -0.036089502 -0.15002722
-0.293966 0.001519233 -0.15499811
-0.00790984 0.016783446 -0.15050822
-0.293966 0.089545079 -0.1557806
-0.293966 0.12989415 -0.15182228
-0.13290225 0.32548001 -0.1572867
0.18195625 0.32547998 -0.15798503
0.23014435 0.32548001 -0.15215054
0.12217177 -0.094141871 -0.14448306
0.15619338 -0.088771552 -0.14927518
0.278496 -0.084713086 -0.14044103
0.278496 -0.053327266 -0.14124243
-0.00790984 0.098362848 -0.14007349
0.066737391 0.12910646 -0.14907569
0.278496 0.25769985 -0.14244004
-0.23664477 0.32548001 -0.14151706
0.23945838 0.32547998 -0.14367777
-0.293966 -0.26197961 -0.13462549
0.278496 -0.25235766 -0.13874374
-0.293966 -0.16227281 -0.13575035
0.12351134 -0.10311505 -0.1363588
0.15477835 -0.10227551 -0.13722509
0.21986263 -0.10338819 -0.13605355
0.069001213 -0.099621929 -0.13959299
0.278496 -0.09349259 -0.13912781
-0.00790984 -0.073189318 -0.13885111
-0.293966 -0.046684481 -0.13837165
0.278496 -0.024007097 -0.13772847
0.278496 -0.0044643297 -0.13819325
-0.00790984 0.021823071 -0.13839428
-0.00790984 0.082341231 -0.13457915
0.278496 0.098886147 -0.13375118
0.24763465 0.13987678 -0.1395953
0.054277632 0.14560771 -0.13390294
0.067566529 0.14950903 -0.13002789
0.14541376 0.14876637 -0.13076554
-0.293966 0.16236685 -0.13227877
0.278496 0.16287023 -0.13794082
-0.293966 0.24785131 -0.13171017
-0.293966 -0.21871868 -0.12358767
0.1412002 -0.1134392 -0.12482076
-0.00790984 0.032859012 -0.12702373
0.041581195 0.15644354 -0.12144201
0.17417228 0.15500176 -0.12323566
-0.26235104 0.32548001 -0.1220285
-0.23126099 0.32548001 -0.1293942
-0.092838421 0.32548001 -0.12426668
0.0077922866 0.32548001 -0.12524989
-0.293966 -0.27951479 -0.118881
0.09721534 -0.12169259 -0.11405674
-0.00790984 0.034940518 -0.11063426
0.0074180607 0.15782616 -0.11972199
-0.293966 0.30212003 -0.11221838
0.278496 0.31924719 -0.11213802
-0.14317317 0.32547998 -0.11494984
0.1112709 0.32548001 -0.11669853
0.15005745 0.32548001 -0.11551096
0.17637995 0.32548004 -0.11934793
-0.293966 -0.30467373 -0.100425
-0.293966 -0.23191959 -0.10486539
-0.293966 -0.15457115 -0.10644756
-0.293966 -0.14293849 -0.10508037
0.034701053 -0.12604395 -0.10794587
0.042621009 -0.12885231 -0.10379979
-0.00790984 -0.10742454 -0.1091251
0.26900032 -0.059442505 -0.10049509
-0.00790984 0.055265389 -0.10489678
0.27611458 0.10775901 -0.10254312
0.011236341 0.16897382 -0.10376622
0.24336326 0.16802281 -0.10526104
0.278496 0.2093251 -0.10636045
0.27699661 0.25472376 -0.10434169
-0.23880725 0.32547998 -0.10238519
-0.19173944 0.32547998 -0.10799249
0.24229842 0.32548001 -0.10052976
-0.293966 -0.27200434 -0.091343373
0.25264767 -0.13475439 -0.093222775
-0.293966 -0.10407896 -0.094123095
-0.293966 -0.015102735 -0.095292948
0.278496 0.15335256 -0.095426805
0.15923443 0.17392018 -0.095911473
0.26808739 0.17319639 -0.097128972
-0.293966 0.23428003 -0.092345029
-0.293966 0.26656625 -0.095170833
-0.16499074 0.32548001 -0.092352048
-0.091683909 0.32548001 -0.099023968
0.0025964454 0.32548001 -0.098244183
0.11471602 0.32548001 -0.098508656
0.26299882 0.32548001 -0.091008119
-0.293966 -0.12340777 -0.083272114
-0.00790984 -0.024244223 -0.084928878
-0.293966 0.042180404 -0.084947027
-0.293966 0.076874629 -0.086108282
-0.293966 0.12289642 -0.082848251
-0.20887424 0.32548004 -0.084215403
-0.17410542 0.32548001 -0.082555667
-0.034195974 0.32548001 -0.083011046
-0.293966 -0.17190205 -0.076724939
0.090440147 -0.14291933 -0.076049797
0.20825058 -0.14143741 -0.079552315
0.23575875 -0.14334342 -0.075047478
0.25263327 -0.14415453 -0.073130421
-0.00790984 -0.1293743 -0.073582701
-0.293966 0.16359645 -0.072804391
-0.00790984 0.17599268 -0.079979554
0.082933024 0.18359883 -0.075778849
-0.26081699 0.32548001 -0.077435173
-0.10338059 0.32548001 -0.074161448
0.039021194 0.32548001 -0.079436101
0.050615918 0.32548001 -0.07127782
0.14429118 0.32548001 -0.078995191
0.27813205 0.32548001 -0.074470416
0.278496 -0.29408848 -0.06527485
-0.293966 -0.2696099 -0.065041296
0.26137477 -0.14557308 -0.069777645
-0.00790984 -0.12928523 -0.066659756
-0.293966 -0.066897228 -0.060236458
-0.00790984 -0.054502431 -0.063116297
-0.293966 -0.033001266 -0.060024299
-0.293966 0.0003452301 -0.061778471
-0.00790984 0.0071481708 -0.063123807
-0.293966 0.013429533 -0.064848319
-0.00790984 0.07277599 -0.067271337
-0.00790984 0.10688043 -0.065586448
0.14349242 0.1870358 -0.066333912
0.1580641 0.18759744 -0.06479051
-0.2744962 0.32548001 -0.068327345
-0.19990344 0.32547998 -0.064936951
-0.13922028 0.32547998 -0.064515643
-0.11165997 0.32548001 -0.066013172
-0.293966 -0.20519635 -0.054165736
0.27849597 -0.195952 -0.054728217
0.015991107 -0.15018591 -0.055456836
0.27715388 -0.1490564 -0.059209481
0.278496 -0.13947609 -0.057146773
-0.293966 0.008398883 -0.054644302
-0.00790984 0.15032463 -0.055819068
-0.00790984 0.18412441 -0.059911523
0.1158482 0.189861 -0.058570169
0.180084 0.18958965 -0.059315771
0.21383907 0.19010815 -0.057890952
-0.27584025 0.32548001 -0.050079867
-0.26313648 0.32548001 -0.05631303
-0.23594609 0.32548001 -0.050784796
-0.056122124 0.32548001 -0.053033009
-0.018056281 0.32548001 -0.057606824
0.17452765 0.32548001 -0.050667766
0.27849597 -0.30403212 -0.04520677
-0.293966 -0.29971263 -0.040961597
0.278496 -0.19140834 -0.04545046
0.075775333 -0.1539907 -0.040153969
0.099936761 -0.15261455 -0.047387928
0.12031379 -0.15393418 -0.040455665
-0.293966 -0.14881748 -0.044486068
-0.293966 -0.1295542 -0.049061935
-0.293966 -0.028288938 -0.042194068
-0.00790984 0.037638638 -0.044209745
-0.293966 0.14211527 -0.043336928
0.278496 0.17963183 -0.046226516
0.03355372 0.19226599 -0.049143087
0.27832767 0.19383878 -0.042755697
-0.293966 0.26495376 -0.047561325
0.278496 0.31391403 -0.046582606
-0.063609302 0.32548001 -0.049875513
0.16429713 0.32548001 -0.048498131
-0.293966 -0.3247872 -0.038451295
-0.293966 -0.31148916 -0.03367582
-0.293966 -0.26989183 -0.03354805
0.278496 -0.26049626 -0.031098187
0.17363468 -0.15454122 -0.037215404
0.23793565 -0.15543896 -0.032423414
-0.293966 -0.073006377 -0.035868611
0.07021223 0.1956196 -0.033946726
-0.293966 0.20515208 -0.038489193
-0.293966 0.25797766 -0.034584671
0.034770116 0.32548001 -0.035264716
0.25977629 0.32548001 -0.039185211
0.278496 -0.25199267 -0.025859369
0.278496 -0.20626149 -0.026645523
0.27761027 -0.15619567 -0.028384255
-0.00790984 0.0057384796 -0.021324433
0.092965327 0.19693789 -0.024213284
-0.293966 0.32061788 -0.024277586
-0.27567959 0.32548001 -0.022298977
-0.16090173 0.32548001 -0.020201463
-0.293966 -0.1885535 -0.010560524
0.24613777 -0.15731718 -0.016709633
-0.00790984 -0.094626404 -0.018731583
-0.293966 -0.017536007 -0.014935583
0.29216701 0.27222916 -0.014619178
-0.22066869 0.32548001 -0.011216857
-0.19425246 0.32548001 -0.013031036
-0.076998569 0.32548001 -0.012317911
0.038553946 0.32548001 -0.017245553
0.26678491 0.32548001 -0.01218266
0.278496 -0.21943377 -0.0046519563
0.27849603 -0.19126272 -0.0022332973
-0.00790984 -0.1576933 -0.0045119678
-0.293966 -0.12347892 -0.0037645381
0.278496 -0.12427494 -0.0025087856
-0.00790984 -0.073339932 -0.0032564383
-0.00790984 0.11542407 -0.0050755078
-0.00790984 0.14041188 -0.0055048056
0.23353833 0.19821873 -0.0077501009
0.24656008 0.19831024 -0.0044760099
-0.293966 0.22640489 -0.0094152186
-0.28659943 0.32548001 -0.0073963217
0.0044569527 0.32548001 -0.0045540128
0.016042611 0.32548001 -0.0025351313
0.14645319 0.32548001 -0.0088310502
0.19679952 0.32548001 -0.0025149807
-0.293966 -0.24898337 0.0025699064
0.278496 -0.21379694 0.005076617
-0.293966 -0.1798304 0.0048168302
0.24222505 -0.15794095 0.0037090136
-0.293966 -0.13376161 0.005489096
-0.00790984 -0.088882901 0.0017650444
-0.00790984 -0.03916847 0.0046478063
-0.00790984 -0.012589254 0.0026675686
-0.293966 0.10748652 0.0083712488
0.048600432 0.19845524 0.0058403974
0.278496 0.24576604 0.0036308342
-0.13376997 0.32548001 0.0068664942
0.086575747 0.32548001 0.0082817264
0.13532598 0.32548001 0.0080713034
0.278496 -0.23833138 0.013914861
-0.293966 -0.22316508 0.010377675
0.14566086 -0.15761577 0.015289951
-0.293966 0.0089324489 0.019362502
-0.293966 0.074483141 0.016140394
-0.293966 0.1705005 0.013225055
0.078737646 0.19744295 0.018708024
0.27124405 0.19767156 0.015802097
0.092638656 0.32548001 0.011666939
0.25693375 0.32548001 0.012267254
-0.293966 -0.26618877 0.02061151
0.278496 -0.23477124 0.028025156
0.278496 -0.22781388 0.027370656
0.27629966 -0.10775279 0.028495427
-0.00790984 -0.075148895 0.021301933
-0.00790984 -0.04728755 0.026674215
-0.00790984 0.041327827 0.020324968
-0.00790984 0.084734455 0.029993771
-0.293966 0.15880221 0.026220858
0.278496 0.2208461 0.022796195
0.278496 0.23571798 0.024619583
-0.293966 0.29692397 0.025135636
0.19510818 0.32548001 0.026806004
0.22516945 0.32548001 0.028683357
0.278496 -0.23686779 0.034241095
0.278496 -0.21274458 0.033868562
-0.00790984 -0.12872891 0.038055852
-0.293966 -0.076483577 0.030889682
-0.00790984 -0.059690349 0.030825526
-0.293966 -0.022444561 0.031516761
-0.293966 0.089443035 0.035415486
-0.00790984 0.092963271 0.031199832
0.14996046 0.19464335 0.037596934
0.20026138 0.19573803 0.03175341
0.025782045 0.32548001 0.032575436
0.24379364 0.32548001 0.032287277
-0.293966 -0.29725069 0.046968706
-0.293966 -0.28635785 0.048539385
-0.293966 -0.21559158 0.042072561
0.14518893 -0.15161216 0.049312167
-0.293966 0.17784564 0.047737479
0.19784889 0.32548001 0.040763766
0.27849603 -0.2477975 0.05245411
0.278496 -0.21485987 0.059412502
-0.293966 -0.16208428 0.056159396
0.12485076 -0.15122953 0.050865553
0.23726979 -0.1492102 0.058347803
0.278496 -0.14115968 0.052243069
-0.00790984 -0.10122651 0.052894853
-0.293966 -0.068542026 0.056260228
-0.00790984 -0.039228722 0.052456122
-0.293966 0.073140837 0.054564159
-0.00790984 0.097021148 0.055749156
-0.293966 0.11110564 0.050708186
-0.293966 0.18370357 0.052892938
0.020415906 0.18896854 0.05969682
0.10549124 0.1896749 0.057350028
0.14170484 0.19173077 0.050519638
0.278496 0.26941234 0.050477225
-0.24888238 0.32547998 0.05765792
0.059913017 0.32548001 0.05961943
0.27849603 -0.31308475 0.062052574
-0.293966 -0.19602786 0.068555839
0.067171447 -0.14680199 0.064966641
0.088802509 -0.14763731 0.062670805
0.12962389 -0.14746208 0.063152395
-0.293966 0.062133804 0.063952908
-0.293966 0.1065198 0.062888578
0.27509502 0.13400188 0.064876094
0.278496 0.14362323 0.062319852
0.10739949 0.18704972 0.066071957
0.17750855 0.32548001 0.060838118
0.22517326 0.32548004 0.063644886
0.23398492 0.32547998 0.060357921
0.24304673 0.32548001 0.065814987
-0.293966 -0.19703035 0.072617874
0.11864604 -0.1429905 0.075442314
0.2757521 -0.091315061 0.070686422
-0.293966 -0.053070728 0.070696846
-0.00790984 -0.024705308 0.078372248
-0.00790984 0.060955547 0.076391697
-0.00790984 0.14020044 0.070461743
-0.293966 0.15246251 0.075843714
0.055393592 0.18373717 0.073964745
0.278496 0.3073664 0.077263869
0.16253467 0.32548001 0.076888368
0.26021039 0.32548001 0.077057034
-0.293966 -0.29963401 0.081997141
0.16280714 -0.1375827 0.086717136
-0.293966 -0.0053508878 0.088917688
-0.293966 0.086213104 0.089413919
-0.00790984 0.1192972 0.085488483
0.08387325 0.177892 0.087240689
0.022342861 0.18105623 0.08030168
-0.040437713 0.32548001 0.088796996
-0.293966 -0.28246498 0.094141103
-0.00790984 -0.12925021 0.09352383
-0.00790984 -0.014061361 0.094668902
0.17905179 0.17340353 0.095284179
-0.293966 0.20366299 0.09190616
0.023215141 0.32548001 0.094065025
0.2222548 0.32548001 0.090974346
0.274836 -0.26398396 0.10255652
0.278496 -0.16953152 0.10415695
-0.293966 -0.12373548 0.10956278
0.27500808 -0.12589748 0.10701843
-0.00790984 -0.072644487 0.10827092
-0.293966 0.07402344 0.10498489
-0.00790984 0.072105825 0.10738871
0.10981274 0.16739848 0.10554263
0.26955122 0.1690459 0.10309318
0.27778798 0.16990739 0.10154936
0.27619824 0.25682083 0.10213587
0.274836 -0.27692646 0.11046062
-0.293966 -0.26315418 0.11676184
-0.293966 -0.17381281 0.11779945
0.0074811419 -0.11699182 0.11929662
-0.00790984 -0.093780451 0.11907747
-0.00790984 -0.055316582 0.11233681
0.27142265 -0.043701865 0.11412477
-0.00790984 0.058019355 0.11356016
-0.293966 0.11922708 0.11511364
0.278496 0.14065501 0.11853792
0.043781985 0.16306612 0.11162634
0.13192913 0.16303296 0.11167289
0.16981138 0.16413009 0.11013225
0.18750246 0.16160057 0.11368432
-0.293966 0.31069738 0.11308817
-0.022092987 0.32548001 0.11561512
0.274836 -0.25398639 0.12975591
0.278496 -0.17580494 0.12101556
-0.293966 -0.14579615 0.12577118
-0.00790984 -0.046725798 0.12311742
-0.293966 0.070151582 0.12408403
0.13339657 0.15308803 0.12460744
0.14772375 0.15542142 0.12199934
0.1923774 0.15299946 0.12470645
-0.11942579 0.32548001 0.1296448
-0.025150184 0.32548001 0.12746537
0.22485679 0.32548001 0.12166233
0.278496 -0.12879315 0.13006429
0.22752666 -0.10289823 0.13522261
-0.00790984 -0.065171592 0.13427356
-0.00790984 -0.049993627 0.13334651
-0.00790984 -0.010977424 0.13493674
0.2779437 0.041428145 0.1370583
0.072080113 0.14321958 0.13563775
0.21091063 0.1441368 0.13461253
0.22812109 0.14342278 0.13541061
-0.293966 0.22919556 0.13746031
-0.19548714 0.32548001 0.13441627
-0.12867352 0.32548001 0.13560125
0.17760408 0.32548001 0.13516375
0.274836 -0.28150311 0.14325438
-0.293966 -0.21345578 0.14465168
0.278496 -0.20537451 0.1417996
0.278496 -0.19235003 0.14361106
0.278496 -0.18589073 0.14847009
-0.293966 -0.11182302 0.14479397
0.278496 -0.11302333 0.14678065
-0.293966 -0.07267534 0.14846194
-0.00790984 -0.076381125 0.14824685
0.17868733 0.12876588 0.14859323
-0.23591767 0.32548001 0.14804439
-0.21288802 0.32548001 0.14957334
-0.20577627 0.32548004 0.1429895
-0.18331259 0.32548004 0.14466394
-0.16758457 0.32548001 0.14507788
0.11354984 0.32548001 0.14402595
-0.293966 -0.23960038 0.15315628
-0.293966 -0.15093845 0.15432626
0.12111647 -0.084138088 0.15170525
0.278496 -0.076577887 0.15864347
0.278496 -0.046149343 0.15241031
0.278496 -0.027111582 0.15968356
-0.293966 0.11645518 0.15746078
0.0089576542 0.11744153 0.15679076
0.14704107 0.11956562 0.1552908
0.18710759 0.1245032 0.15180403
-0.293966 0.23243365 0.15017278
-0.293966 0.25862992 0.15089706
-0.011604436 0.32548001 0.15717417
0.061283477 0.32547998 0.15676707
0.1495415 0.32548004 0.1578486
-0.293966 -0.31660071 0.16540316
0.274836 -0.24588774 0.16941829
-0.293966 -0.2150981 0.16831326
-0.293966 -0.14795935 0.16130388
-0.293966 -0.09558823 0.16087717
0.022866229 -0.071594425 0.16039869
0.038865034 -0.064191848 0.16498445
0.1884786 -0.069466129 0.16171715
-0.00790984 -0.05154971 0.16293159
0.278496 -0.023353226 0.16920148
-0.00790984 0.029245034 0.16053583
-0.293966 0.089979768 0.16884241
0.015044601 0.095346458 0.16988048
0.040171064 0.10864943 0.16261317
0.20980577 0.10475349 0.16474147
-0.293966 -0.29396662 0.17493366
0.13473478 -0.054179907 0.17009105
0.17832467 -0.054185249 0.17008853
0.278496 -0.051032521 0.17142262
0.032472797 -0.0359248 0.17767687
0.15809132 -0.033223644 0.17857948
-0.293966 0.03212934 0.17639901
0.278496 0.032017596 0.17698392
0.086044729 0.078037709 0.1771636
0.18873896 0.071960025 0.17927194
0.19625288 0.078555368 0.17695448
-0.293966 0.29180321 0.17259625
-0.19472179 0.32548001 0.17250434
-0.1106762 0.32548001 0.17318024
-0.032977082 0.32548001 0.17898272
-0.021482989 0.32547998 0.17881431
0.15971504 0.32548001 0.17940599
-0.00790984 -0.003707116 0.18437737
0.08343301 -0.008120345 0.18494682
0.278496 -0.0015496616 0.18446639
-0.293966 0.0091174915 0.18880016
0.11298566 0.00072868331 0.18615547
-0.0048651034 0.010654465 0.18702248
0.028601117 0.01823684 0.18735285
0.278496 0.016765207 0.18760085
0.11223695 0.027482808 0.18706533
-0.0021398533 0.031304762 0.18694648
0.278496 0.033702109 0.18275352
0.016656855 0.042546019 0.18574959
0.15458588 0.049454365 0.18471146
0.278496 0.045260318 0.18866792
-0.293966 0.059974149 0.18038984
0.1019716 0.057836249 0.18313308
0.22188687 0.056919619 0.18338367
0.037224226 0.061592173 0.18210629
0.27849597 0.084796004 0.18274629
-0.293966 0.15447819 0.18630153
-0.293966 0.2676779 0.186078
-0.293966 0.28193134 0.18199062
0.19682412 0.32548004 0.18574548
-0.293966 -0.1991186 0.19396764
0.278496 -0.023901977 0.19884042
-0.293966 -0.004685998 0.1987254
-0.293966 0.0013003573 0.19719437
0.278496 0.10431013 0.19350062
-0.293966 0.15144259 0.19744278
0.278496 0.2323913 0.19581141
0.27420899 0.24775967 0.19506109
0.278496 0.28354514 0.19436488
0.24363567 0.32548001 0.19661742
0.26924518 0.32548001 0.19695674
0.278496 0.3245281 0.1927598
0.278496 -0.29050562 0.20667265
-0.293966 -0.20678397 0.20337202
-0.293966 -0.18494591 0.20473087
0.278496 -0.16610011 0.20890534
0.278496 -0.29305655 0.21113031
-0.293966 -0.24248703 0.21638709
0.278496 -0.087598905 0.21271808
-0.293966 0.095260568 0.21968837
-0.293966 0.13699108 0.21518855
0.278496 0.15105329 0.21370587
0.278496 0.20354003 0.21678869
-0.293966 0.22890449 0.21243788
0.278496 0.30899754 0.21244033
0.074235871 0.32548001 0.21364763
0.17658667 0.32548004 0.2188444
0.26082543 0.32547998 0.21746632
0.278496 0.32135269 0.21119764
0.278496 -0.23358835 0.22692817
0.278496 -0.19017357 0.22225554
0.278496 0.059270203 0.22838686
-0.293966 0.060592532 0.22907625
0.278496 0.21632788 0.22531833
-0.293966 0.24148995 0.22308135
-0.076068245 0.32548001 0.2253485
-0.041644767 0.32548001 0.22620901
-0.025381535 0.32548001 0.22632636
0.042835638 0.32548001 0.22336325
0.12494456 0.32548001 0.22174186
0.13723665 0.32548001 0.22137615
0.21614158 0.32548001 0.22450061
0.22542863 0.32548001 0.22335565
-0.293966 -0.24994804 0.23386215
-0.293966 -0.22896974 0.23827428
0.27675605 -0.045864653 0.23802604
-0.293966 0.070558026 0.2342045
-0.293966 0.10917903 0.23070654
-0.29396597 0.19635786 0.23684822
0.27315411 0.26514465 0.23992673
-0.293966 0.28276625 0.23079398
-0.25601307 0.32548001 0.23054691
-0.099718779 0.32548001 0.23932329
-0.089736134 0.32548001 0.23568039
0.21544413 0.32548001 0.23065549
0.27277008 0.32459325 0.23999384
-0.18018779 -0.32500595 0.240097
-0.167072 -0.32513779 0.240097
0.23592947 -0.32459313 0.240097
-0.11285355 -0.31144804 0.240097
-0.098462261 -0.31407034 0.240097
-0.056619331 -0.31296834 0.240097
0.16999117 -0.3115238 0.240097
0.014025331 -0.30777541 0.240097
0.20050514 -0.30683053 0.240097
-0.15239093 -0.28020954 0.24009702
-0.069891319 -0.28675526 0.24009699
-0.23523912 -0.27797934 0.240097
0.13765928 -0.27046427 0.240097
-0.2301961 -0.26919639 0.24009699
0.12459316 -0.26153049 0.240097
-0.27488273 -0.25807306 0.240097
-0.18026982 -0.25252306 0.240097
-0.14415677 -0.25680202 0.24009702
-0.24377994 -0.24726185 0.24009702
-0.11117652 -0.24071532 0.24009702
-0.033731192 -0.24977149 0.24009702
0.14811334 -0.24809259 0.24009702
0.22497375 -0.24492313 0.240097
-0.17454791 -0.23084442 0.240097
-0.034490071 -0.23043393 0.24009699
0.12858295 -0.23959064 0.240097
-0.21934724 -0.22025502 0.240097
-0.12881929 -0.22868256 0.24009699
-0.031821698 -0.22952923 0.24009702
0.20213346 -0.22005485 0.240097
-0.012882743 -0.21556084 0.240097
0.019755274 -0.21875501 0.24009699
0.020777054 -0.21504052 0.24009699
0.15335318 -0.21685572 0.24009699
-0.18319808 -0.20522843 0.240097
-0.073133498 -0.20055762 0.24009702
0.072023012 -0.20677447 0.240097
0.1412327 -0.20359147 0.24009699
0.21040861 -0.20464182 0.24009699
-0.11703196 -0.19416694 0.240097
-0.047322948 -0.19472271 0.240097
-0.028156586 -0.19317184 0.24009699
-0.22561891 -0.18948197 0.24009699
-0.046838112 -0.18245022 0.24009702
-0.011890523 -0.17419371 0.24009699
0.20141199 -0.17889461 0.24009702
-0.24022402 -0.16813967 0.24009699
-0.16266251 -0.16537353 0.24009699
0.22441071 -0.16794728 0.240097
0.23965368 -0.16790058 0.240097
0.27235386 -0.16225915 0.24005158
0.047962502 -0.15967534 0.240097
-0.17244935 -0.14940725 0.24009702
0.002631221 -0.14746088 0.24009699
0.040450949 -0.14406759 0.24009702
0.2174879 -0.14162469 0.240097
-0.26067358 -0.13416107 0.24009702
0.099730015 -0.13075483 0.24009699
-0.19571754 -0.12858272 0.24009699
-0.070503801 -0.12788987 0.24009702
0.19309032 -0.12030485 0.24009699
0.24726486 -0.12616196 0.24009702
-0.083046496 -0.11728628 0.24009702
0.14543743 -0.11610196 0.24009699
-0.19998205 -0.10195623 0.24009702
0.06455826 -0.10234559 0.24009699
0.12171392 -0.10136845 0.24009702
-0.20239897 -0.099857986 0.24009699
-0.08008039 -0.085183874 0.240097
0.0015806556 -0.08220797 0.24009699
-0.23904425 -0.078246132 0.24009702
-0.2044656 -0.079183355 0.24009702
-0.13669078 -0.077750258 0.24009702
-0.12230029 -0.079296365 0.240097
-0.082191885 -0.072637238 0.24009699
0.023642093 -0.074708603 0.24009699
0.04034169 -0.073609546 0.24009702
-0.16205606 -0.061011322 0.240097
-0.12599841 -0.066399418 0.240097
-0.11476618 -0.051000074 0.240097
0.07523609 -0.052467044 0.24009702
-0.26197433 -0.047225639 0.240097
-0.070758879 -0.041255929 0.24009702
0.076641664 -0.043620244 0.24009702
0.12728749 -0.047425672 0.24009699
0.013223231 -0.03026779 0.240097
-0.25949296 -0.02891288 0.24009699
-0.21682438 -0.029608302 0.24009699
-0.050072506 -0.020758264 0.24009702
0.22634375 -0.023033783 0.240097
-0.22601116 -0.017216504 0.240097
-0.11636548 -0.01357034 0.240097
0.095843263 -0.011481263 0.24009702
0.13144818 -0.014301099 0.24009702
0.17269936 -0.013741538 0.240097
0.20798217 -0.015597604 0.24009702
-0.10354035 -0.0012964979 0.24009699
-0.088259794 -0.0017787749 0.24009702
-0.03420759 -0.0013820082 0.24009702
-0.016852498 -0.0045911223 0.24009702
0.12865689 -0.0098513737 0.24009699
0.2320478 -0.0028477758 0.24009699
-0.07582508 0.0065574571 0.24009702
-0.018281098 0.0080166617 0.240097
-0.042414233 0.011239022 0.24009699
0.25645036 0.018979341 0.24009699
-0.023426108 0.021886028 0.24009699
0.13494788 0.028011005 0.24009702
0.18131025 0.023920812 0.24009699
-0.25786394 0.037544191 0.240097
-0.07949055 0.039606769 0.24009702
-0.27438205 0.043087862 0.240097
-0.043731634 0.044771407 0.240097
0.17902279 0.041647278 0.24009699
0.26875728 0.040099904 0.240097
-0.21989836 0.052303135 0.240097
-0.050934203 0.064249344 0.24009702
0.040527515 0.068422221 0.24009702
-0.26884875 0.079535536 0.240097
-0.15527447 0.0759691 0.240097
-0.20395947 0.089435324 0.24009702
-0.080043659 0.089076065 0.240097
0.081991307 0.089411587 0.24009699
0.099233493 0.088624783 0.24009702
0.10866123 0.093333796 0.240097
0.19730984 0.094810508 0.240097
0.24509968 0.098472834 0.240097
0.26998824 0.095580824 0.240097
-0.03689526 0.10853974 0.24009699
0.21196696 0.10980885 0.24009699
-0.2020487 0.11463569 0.240097
0.11533724 0.11978137 0.24009699
0.1575231 0.11544643 0.240097
-0.24755006 0.12972055 0.240097
-0.13687876 0.12040867 0.24009699
-0.11598033 0.12425052 0.240097
0.085040979 0.12488188 0.24009702
0.16604632 0.12413791 0.24009702
0.25143436 0.12218003 0.240097
-0.079510629 0.13622883 0.24009702
0.082054444 0.13902202 0.24009702
0.04461503 0.15836725 0.240097
0.26903081 0.1566212 0.24009699
0.15125632 0.16563711 0.24009702
-0.24144651 0.17062995 0.240097
-0.21266215 0.17200616 0.240097
-0.13019365 0.17581643 0.240097
-0.1250139 0.17369898 0.240097
-0.050707147 0.17058817 0.24009699
0.01537542 0.17158735 0.24009702
0.1666023 0.18765241 0.240097
-0.10203794 0.19730535 0.240097
0.035150573 0.19825268 0.24009699
0.10258472 0.19200502 0.24009702
0.063269071 0.20303807 0.240097
0.19798253 0.20614713 0.240097
-0.19060808 0.2273975 0.240097
0.01634036 0.22236094 0.24009699
0.22538115 0.22716296 0.240097
0.27102092 0.22483286 0.240097
-0.15130316 0.23730806 0.240097
-0.05701793 0.23682058 0.24009702
0.05573909 0.2309379 0.24009702
0.13709825 0.2311798 0.240097
0.25628981 0.23990899 0.240097
0.070941478 0.24010047 0.240097
-0.29353437 0.2521731 0.24009702
0.073109925 0.26232171 0.24009702
0.052622419 0.27789998 0.24009702
0.21930364 0.2744661 0.24009702
-0.045047577 0.29813492 0.24009699
-0.12015872 0.3033697 0.24009699
-0.11699401 0.30127409 0.24009699
-0.052391812 0.30364394 0.240097
-0.004526861 0.30673429 0.240097
-0.19421454 0.31661499 0.240097
-0.10336526 0.31187683 0.24009702
0.11014538 0.31901106 0.24009699
-0.16966496 0.32226491 0.240097
