# .PCD v0.7 - Point Cloud Data file format
VERSION 0.7
FIELDS x y z
SIZE 4 4 4
TYPE F F F
COUNT 1 1 1
WIDTH 972
HEIGHT 1
VIEWPOINT 0 0 0 1 0 0 0
POINTS 972
DATA ascii
-0.087669648 -0.33055508 -0.251093
0.093407914 -0.33057299 -0.251093
-0.20528087 -0.31754428 -0.251093
-0.12630969 -0.31699806 -0.251093
0.014833942 -0.31851345 -0.251093
-0.26255417 -0.30806068 -0.251093
-0.20992659 -0.30988055 -0.251093
-0.18991029 -0.30859613 -0.251093
0.072947063 -0.30966145 -0.251093
-0.25998747 -0.2982513 -0.251093
-0.095316045 -0.29928672 -0.251093
-0.085619822 -0.29197884 -0.251093
-0.032843437 -0.2962997 -0.251093
-0.17915249 -0.28861693 -0.251093
0.053301334 -0.2835834 -0.251093
0.081363313 -0.28414881 -0.251093
-0.22041123 -0.27791107 -0.251093
-0.17897916 -0.27379054 -0.251093
-0.19392988 -0.26153624 -0.251093
-0.11348112 -0.26549721 -0.251093
-0.1138736 -0.25963712 -0.251093
-0.07182242 -0.259505 -0.251093
-0.052862868 -0.24118063 -0.251093
0.19502215 -0.2281988 -0.251093
0.066567376 -0.21427107 -0.251093
0.14228693 -0.21227881 -0.251093
-0.10387181 -0.20617206 -0.251093
-0.14123198 -0.19307536 -0.251093
0.1299054 -0.19694853 -0.251093
0.21016344 -0.1922743 -0.251093
-0.27740768 -0.18262523 -0.251093
0.18593949 -0.1841476 -0.251093
-0.099796414 -0.17220926 -0.251093
0.14329247 -0.17985719 -0.251093
0.20615308 -0.1717978 -0.251093
-0.24443233 -0.16651687 -0.251093
0.031281121 -0.16550794 -0.251093
0.062524065 -0.16410547 -0.251093
0.099795759 -0.16455913 -0.251093
0.19621259 -0.16816564 -0.251093
-0.19940889 -0.15758643 -0.251093
-0.11868929 -0.15025586 -0.251093
-0.089846358 -0.15844178 -0.251093
-0.030470371 -0.15750179 -0.251093
0.083693057 -0.15866032 -0.251093
0.13134579 -0.15163751 -0.251093
-0.24279201 -0.14701101 -0.251093
0.0094823949 -0.14410612 -0.251093
-0.26402855 -0.1346831 -0.251093
0.088644393 -0.13779442 -0.251093
-0.25136194 -0.12180118 -0.251093
-0.17012709 -0.12768088 -0.251093
0.059827775 -0.11631647 -0.251093
-0.21368545 -0.10063092 -0.251093
-0.094540395 -0.097825341 -0.251093
0.12569164 -0.092476048 -0.251093
-0.21090356 -0.088328592 -0.251093
-0.005348973 -0.089663804 -0.251093
0.031220213 -0.078680515 -0.251093
-0.27278215 -0.064465985 -0.251093
-0.24700445 -0.064558819 -0.251093
-0.16724132 -0.067165866 -0.251093
-0.054839738 -0.068876222 -0.251093
0.16562487 -0.069286503 -0.251093
-0.26008183 -0.044939846 -0.251093
-0.22224134 -0.049153149 -0.251093
-0.13140379 -0.044588387 -0.251093
0.033448275 -0.041249149 -0.251093
0.16745502 -0.040446512 -0.251093
-0.18417689 -0.03096059 -0.251093
-0.13415921 -0.033163786 -0.251093
0.16579756 -0.034456886 -0.251093
-0.1910255 -0.010497972 -0.251093
-0.033043351 -0.018902238 -0.251093
0.077174053 -0.018176958 -0.251093
0.16388097 -0.016512237 -0.251093
-0.1841405 -0.0072433203 -0.251093
-0.014545627 -0.00088223815 -0.251093
0.04041392 -0.0045295134 -0.251093
-0.26552236 0.0084396899 -0.251093
-0.16187719 0.00064703822 -0.251093
-0.13806695 0.0024806336 -0.251093
0.12710766 0.0059555098 -0.251093
0.13032669 0.0043278486 -0.251093
0.14945883 0.0018971264 -0.251093
-0.19146007 0.015612535 -0.251093
-0.17127867 0.018156454 -0.251093
-0.062040344 0.018949829 -0.251093
0.21421894 0.019611999 -0.251093
0.16318046 0.027247421 -0.251093
-0.24640845 0.045298137 -0.251093
-0.1569145 0.041901693 -0.25109297
0.087823443 0.042995702 -0.251093
0.19657245 0.043594055 -0.251093
0.20665948 0.044017725 -0.251093
-0.11730488 0.057161853 -0.251093
-0.10141021 0.05262699 -0.251093
0.14357644 0.055605873 -0.251093
0.10670698 0.064915329 -0.251093
0.12016612 0.069262296 -0.251093
-0.074240416 0.072525278 -0.251093
-0.0042271875 0.074411333 -0.251093
0.12603599 0.072516024 -0.251093
0.15335584 0.075684682 -0.251093
-0.010671239 0.080152988 -0.251093
0.0044687092 0.082098104 -0.251093
-0.24106273 0.10351805 -0.251093
-0.22236848 0.1065307 -0.251093
-0.20194839 0.10590726 -0.251093
-0.012549553 0.10214819 -0.251093
0.1260704 0.10912311 -0.251093
0.13066286 0.10495301 -0.251093
-0.19909962 0.11410705 -0.251093
-0.15973334 0.11796421 -0.251093
-0.2331761 0.12101141 -0.251093
0.082110859 0.12508318 -0.251093
0.20598094 0.12385554 -0.251093
-0.14106089 0.13111091 -0.251093
-0.0008581914 0.13453823 -0.251093
-0.27261719 0.14911683 -0.251093
-0.17235017 0.14088663 -0.251093
0.10188579 0.14852585 -0.251093
-0.2251927 0.15065578 -0.251093
0.091122404 0.17821352 -0.251093
-0.14802995 0.18029657 -0.251093
-0.14450277 0.19135392 -0.251093
0.012642451 0.20010412 -0.251093
0.16764367 0.22580102 -0.251093
0.23605305 0.22495691 -0.251093
-0.13250667 0.23318173 -0.251093
-0.059517868 0.23080425 -0.251093
0.15328258 0.23281543 -0.251093
0.24252222 0.23469689 -0.251093
-0.27699661 0.25019848 -0.251093
-0.052534446 0.25714919 -0.251093
0.10897411 0.25484067 -0.251093
0.11402333 0.26927075 -0.251093
-0.090352505 0.28804657 -0.251093
-0.059977099 0.2802459 -0.251093
0.089469336 0.28796566 -0.251093
0.24047434 0.28100079 -0.25109303
0.26694643 0.28722629 -0.251093
-0.14420575 0.30224162 -0.251093
0.05056848 0.30425173 -0.251093
0.035566188 0.3194046 -0.251093
-0.20413993 0.32425666 -0.251093
-0.09846054 0.32546255 -0.251093
-0.069080107 0.32221955 -0.251093
-0.058629237 0.32495543 -0.251093
0.033072732 0.32798508 -0.251093
-0.18624152 -0.330962 -0.24238047
0.15644889 -0.330962 -0.24426164
-0.278238 -0.22735864 -0.24767904
0.223948 -0.20891501 -0.24658927
0.223948 -0.10134465 -0.2449117
-0.278238 -0.081713401 -0.24648958
-0.278238 0.023961375 -0.24449804
0.223948 0.11651357 -0.24209425
0.094274789 0.330962 -0.24601762
0.012647502 -0.330962 -0.23754746
0.223948 -0.14533138 -0.23123145
0.223948 -0.050646573 -0.23424093
-0.278238 0.027229205 -0.23206758
0.223948 0.098619074 -0.2378121
-0.278238 0.10744623 -0.23005486
0.223948 0.14569777 -0.23495413
0.23697421 0.217375 -0.23517087
-0.19086516 0.330962 -0.23414773
-0.10919675 0.330962 -0.23370314
0.12932828 0.330962 -0.23964828
0.20997749 0.330962 -0.23171429
0.20165181 -0.330962 -0.228053
-0.278238 -0.19545209 -0.22207499
-0.278238 -0.13755383 -0.22666785
-0.278238 -0.12852107 -0.22760805
-0.278238 -0.063588865 -0.22494915
0.223948 0.011689074 -0.22289231
-0.278238 0.066351354 -0.22598028
0.223948 0.16514483 -0.22833991
-0.278238 0.21417813 -0.22528046
-0.17485982 0.330962 -0.22595041
-0.050401486 0.330962 -0.2215305
0.037265494 0.330962 -0.22268552
0.075935714 0.330962 -0.22396821
0.010045655 -0.330962 -0.21217436
0.223948 -0.27501348 -0.21306652
-0.278238 -0.24828613 -0.21109438
-0.278238 -0.20208514 -0.21401244
0.223948 -0.096867681 -0.21936736
0.23313472 0.217375 -0.21805626
0.26779699 0.2469978 -0.21157455
-0.21878685 0.330962 -0.21658325
-0.021789044 0.330962 -0.21124099
0.12794185 0.330962 -0.21903563
-0.21299815 -0.330962 -0.20323479
-0.18915232 -0.330962 -0.20119093
-0.11505118 -0.330962 -0.20292467
-0.0076945424 -0.330962 -0.20905265
-0.278238 -0.328915 -0.20737436
-0.278238 -0.093407288 -0.20801759
0.223948 -0.053344496 -0.20051466
-0.278238 -0.035464644 -0.20117983
0.223948 0.10748781 -0.20853488
0.25231677 0.21737501 -0.20125204
-0.065412849 0.330962 -0.203372
-0.016890794 0.330962 -0.20779364
0.027674817 0.330962 -0.20232442
0.23218347 0.330962 -0.20987727
-0.24850661 -0.330962 -0.19709098
-0.0091188177 -0.330962 -0.19330284
0.045361146 -0.330962 -0.19892523
0.088257149 -0.330962 -0.19095442
0.18511857 -0.330962 -0.19478725
0.21411233 -0.330962 -0.19941175
-0.278238 -0.066157907 -0.19992167
-0.278238 -0.056696221 -0.19713002
-0.278238 -0.02381881 -0.19096529
-0.278238 -0.015732378 -0.19918263
0.223948 0.13093777 -0.19553851
-0.278238 0.20156142 -0.19426088
-0.278238 0.29373908 -0.19424525
-0.073141873 0.330962 -0.19040318
0.10466217 0.330962 -0.19121858
0.21022668 0.330962 -0.19446757
0.090856031 -0.330962 -0.18439727
0.13377626 -0.330962 -0.18474267
0.22294316 -0.330962 -0.18606399
-0.278238 -0.27073088 -0.18123375
-0.278238 -0.20918043 -0.18332462
0.223948 -0.13818553 -0.18693618
0.223948 0.084393434 -0.18644415
-0.098563135 0.330962 -0.18483417
0.13323462 0.330962 -0.18603992
0.223948 -0.30948329 -0.1779397
-0.278238 -0.23722133 -0.17887408
0.223948 -0.19148076 -0.17771423
-0.278238 -0.15743864 -0.17563996
-0.278238 0.016731523 -0.17498115
-0.278238 0.093054384 -0.17182654
-0.278238 0.18331569 -0.17125741
-0.278238 0.20490155 -0.17637876
-0.278238 0.27773145 -0.17748484
-0.2071467 0.330962 -0.17683539
0.060101822 0.330962 -0.17161977
0.26774433 0.330962 -0.1755728
-0.26119021 -0.330962 -0.16254285
0.15469019 -0.330962 -0.16623189
0.223948 -0.32606143 -0.16533944
-0.278238 -0.29839012 -0.16782385
0.223948 -0.23415124 -0.16459906
-0.278238 0.039536782 -0.16172303
0.26779699 0.25234908 -0.169296
0.26779699 0.2645368 -0.16680212
0.26779699 0.29209626 -0.16174856
-0.063180938 0.330962 -0.16256128
0.018019348 0.330962 -0.1638518
0.040949859 0.330962 -0.16978467
0.1150752 0.330962 -0.16859297
0.1530039 0.330962 -0.16209674
0.24215232 0.330962 -0.16291508
0.26068529 0.330962 -0.16947365
-0.25014946 -0.330962 -0.15548778
-0.2201978 -0.330962 -0.15863378
-0.18323788 -0.330962 -0.15887722
0.024706267 -0.330962 -0.15879898
0.05456198 -0.330962 -0.15869263
0.072124846 -0.330962 -0.15460041
0.19916831 -0.330962 -0.1555066
0.223948 -0.27868289 -0.15827206
0.223948 -0.2386865 -0.15381379
-0.278238 -0.10425469 -0.15624645
-0.278238 -0.034940518 -0.15781868
0.223948 0.033259422 -0.15812907
0.223948 0.068747438 -0.15276441
-0.278238 0.19423498 -0.15747857
-0.16790038 0.330962 -0.15006192
-0.093839638 0.330962 -0.15013476
-0.26351663 -0.330962 -0.14443035
-0.072542451 -0.330962 -0.14550084
-0.0042467341 -0.330962 -0.14746246
0.13300091 -0.330962 -0.14670485
0.223948 -0.30369642 -0.14534487
-0.278238 -0.27118966 -0.14442441
-0.278238 -0.10366142 -0.14949974
0.223948 -0.094427899 -0.14981142
0.15697691 -0.059645873 -0.14186038
0.18666172 -0.059669636 -0.14185053
-0.278238 -0.049975291 -0.1410068
0.20006685 -0.046128549 -0.14543515
0.223948 -0.041015018 -0.14664102
-0.278238 -0.032764122 -0.14444631
0.14003775 -0.022509735 -0.14854464
-0.278238 -0.016954657 -0.14755461
0.12946063 -0.01298124 -0.14957291
0.10750195 0.019066697 -0.14535363
0.20875862 0.01055042 -0.14647484
0.223948 0.085159034 -0.14517985
0.223948 0.10763913 -0.14999369
0.24486268 0.217375 -0.14196748
-0.093352854 0.330962 -0.1407911
-0.066140905 0.330962 -0.14505392
0.019184157 0.330962 -0.14319046
0.12260437 0.330962 -0.14470881
-0.018962763 -0.330962 -0.13957739
0.12536742 -0.330962 -0.13366526
0.223948 -0.31372294 -0.13820331
0.22394799 -0.28121296 -0.13032393
-0.278238 -0.024971716 -0.13889168
0.10584248 0.038807385 -0.13902599
0.1678378 0.056856383 -0.13154984
0.223948 0.13840993 -0.13578714
-0.278238 0.17231466 -0.13606969
0.22394802 0.21333385 -0.13326049
-0.278238 0.25757119 -0.13532023
-0.20350386 0.330962 -0.1337253
-0.18018335 -0.330962 -0.12646693
-0.12271751 -0.330962 -0.12160124
-0.08778964 -0.330962 -0.12602431
0.08801163 -0.330962 -0.12774302
0.17366061 -0.330962 -0.12418364
-0.278238 -0.23509879 -0.12368143
0.1838714 -0.097492203 -0.12355776
0.099706203 -0.033967525 -0.12286881
0.223948 0.19684304 -0.12487663
-0.278238 0.27505416 -0.12029251
0.26779699 0.27551827 -0.1291652
-0.278238 0.29395944 -0.12761718
-0.093385644 0.330962 -0.12432554
-0.036551666 0.330962 -0.12924774
0.26629522 0.330962 -0.12793976
-0.2553826 -0.330962 -0.11436488
-0.12806004 -0.330962 -0.11191404
-0.089920722 -0.330962 -0.11095014
0.085765503 -0.330962 -0.1171781
0.13386178 -0.330962 -0.11570745
-0.278238 -0.27122292 -0.11228641
0.223948 -0.16606048 -0.11742782
0.223948 -0.13988495 -0.1138097
-0.278238 -0.031312626 -0.1171046
-0.278238 0.013652146 -0.11582156
0.21782303 0.075747602 -0.1190023
-0.278238 0.21131463 -0.11293835
-0.063349329 0.330962 -0.11806764
0.048552599 0.330962 -0.11132266
-0.14478377 -0.330962 -0.10168642
-0.084750861 -0.330962 -0.10651287
0.18646902 -0.330962 -0.10848938
0.20554568 -0.330962 -0.10135778
0.223948 -0.31909993 -0.10146895
0.223948 -0.27369216 -0.10539644
0.26779699 0.23210177 -0.10798035
-0.278238 0.26471245 -0.10517696
0.26779699 0.31529993 -0.10540068
0.148938 0.330962 -0.10194364
-0.24288683 -0.330962 -0.098325975
-0.23763987 -0.330962 -0.096429184
-0.19637029 -0.330962 -0.095859483
-0.278238 -0.15713179 -0.092766888
-0.278238 0.013102286 -0.09027037
0.099706203 0.067840666 -0.090484254
-0.278238 0.22008403 -0.095147178
-0.23761745 0.330962 -0.090051889
0.11421341 0.330962 -0.098433755
0.17553408 0.330962 -0.091969818
0.21227539 0.330962 -0.093389928
-0.24409698 -0.330962 -0.084703349
-0.10910767 -0.330962 -0.087177329
0.223948 -0.14871281 -0.082619525
-0.278238 0.034619249 -0.087258518
0.15912442 0.10659742 -0.088548973
-0.278238 0.20358643 -0.085916676
-0.278238 0.23136945 -0.0880723
-0.18683651 0.330962 -0.086642548
-0.10826856 0.330962 -0.088837452
0.064623483 0.330962 -0.080238804
0.23721245 0.330962 -0.082001679
-0.27278313 -0.330962 -0.076051652
-0.23581016 -0.330962 -0.07569515
-0.1631946 -0.330962 -0.077245139
0.12925021 -0.330962 -0.072778553
0.223948 -0.30613115 -0.076940343
0.223948 -0.28449005 -0.071038283
-0.278238 -0.27991977 -0.078012288
-0.278238 -0.22051924 -0.07269457
0.099706203 -0.11817449 -0.074346341
-0.278238 0.10789822 -0.077557899
-0.278238 0.22774354 -0.071228758
0.26779699 0.29411629 -0.079845294
0.26779699 0.32045478 -0.077041872
-0.278238 0.33054119 -0.079584777
-0.077808864 0.330962 -0.077492505
0.21510893 -0.330962 -0.062246978
-0.278238 -0.16861501 -0.068387359
0.12956026 -0.14797851 -0.068329044
0.099706203 -0.13266365 -0.066492833
0.099706203 -0.083066136 -0.060683571
-0.278238 -0.067998119 -0.061445609
-0.278238 0.022870675 -0.065665632
0.099706203 0.067035697 -0.061463904
-0.278238 0.091928549 -0.065125108
-0.278238 0.11758851 -0.069036454
-0.278238 0.12806655 -0.063120954
-0.278238 0.1498455 -0.067470349
-0.078860402 0.330962 -0.067818254
-0.022032427 0.330962 -0.068020061
0.1740579 0.330962 -0.061170049
0.18485272 0.330962 -0.06304498
0.22569019 0.330962 -0.062773302
0.25463843 0.330962 -0.06652043
-0.26318496 -0.330962 -0.056986086
-0.13499902 -0.330962 -0.056699872
0.049087275 -0.330962 -0.058271438
0.19240466 -0.330962 -0.055919841
0.223948 -0.31005108 -0.057719614
0.1385722 0.12750648 -0.050925486
0.223948 0.15278235 -0.05317029
-0.278238 0.26305473 -0.053110644
-0.278238 0.3097474 -0.052373432
-0.022284091 0.330962 -0.052122504
0.062753804 0.330962 -0.055001441
0.087901667 -0.330962 -0.044886492
0.13720205 -0.330962 -0.043703452
-0.278238 -0.27572358 -0.044864833
0.13605826 -0.15791379 -0.044343781
0.2061623 0.12957776 -0.045925133
0.12994437 0.13198456 -0.040114716
0.223948 0.15402821 -0.049153142
0.23845911 0.21737501 -0.046523452
0.26779699 0.29159579 -0.040805411
-0.27496594 0.330962 -0.040251926
-0.048235331 0.330962 -0.040212292
-0.025442027 0.330962 -0.042837553
0.25078523 0.330962 -0.044126481
-0.27687988 -0.330962 -0.037024543
-0.044846933 -0.330962 -0.039562404
0.19190358 -0.330962 -0.032735348
0.18373518 0.13337526 -0.03675738
-0.278238 0.18304345 -0.039499898
-0.278238 0.21288767 -0.037316635
0.26779699 0.25431424 -0.039958928
0.013490565 0.330962 -0.035084479
0.09364216 0.330962 -0.032082576
0.10666332 0.330962 -0.031652059
-0.24310678 -0.330962 -0.028804854
-0.18042593 -0.330962 -0.02852264
0.029219609 -0.330962 -0.020138865
0.14290661 -0.330962 -0.024748333
0.223948 -0.32642728 -0.020532049
-0.278238 0.17522174 -0.021126658
0.26779699 0.22374341 -0.025366358
0.050457716 0.330962 -0.020013571
0.069504686 0.330962 -0.020687424
-0.063835531 -0.330962 -0.011340715
0.013203947 -0.330962 -0.01527094
0.16299251 -0.330962 -0.011572592
0.223948 -0.31638053 -0.015028288
0.223948 -0.3049995 -0.017965708
-0.278238 -0.2561776 -0.016643614
0.223948 -0.23983601 -0.012553163
0.19838493 -0.16447389 -0.010905285
0.21924268 -0.16337906 -0.019221339
0.099706203 -0.13525158 -0.017264865
-0.278238 -0.078002878 -0.011628263
0.099706203 -0.0055495575 -0.019339588
-0.278238 0.077020317 -0.012882046
-0.278238 0.2142559 -0.013627812
-0.278238 0.24517381 -0.011730559
0.073006362 0.330962 -0.018318005
0.12282779 0.330962 -0.011044174
-0.278238 -0.08861281 -0.0085886493
0.223948 0.18787295 -0.0076473132
0.2405404 0.217375 -0.0039369371
-0.278238 0.31960601 -0.0091791898
-0.278238 0.32507411 -0.006290935
-0.26037434 -0.330962 0.0082008392
0.223948 -0.26516545 0.00057112426
-0.278238 -0.22497249 0.0060041174
-0.278238 -0.038473651 0.0013214648
0.099706203 0.031423524 0.006848508
0.23935437 0.217375 0.0026875958
-0.17506763 0.330962 0.0087546408
0.19712253 0.330962 0.0057404861
-0.27425262 -0.330962 0.017557643
-0.21122321 -0.330962 0.013755687
0.223948 -0.32832679 0.014178827
0.21338291 -0.1640574 0.019558622
0.099706203 -0.10064562 0.019907631
0.099706203 -0.074662633 0.010853088
0.099706203 -0.053926136 0.017972959
0.099706203 3.4466386e-05 0.012869224
0.099706203 0.10746945 0.018954393
0.23235217 0.21737501 0.010852955
0.26779699 0.24733689 0.011978125
-0.12379527 0.330962 0.016879592
0.19021513 0.330962 0.012274981
0.2559455 0.330962 0.011342116
-0.26359555 -0.330962 0.021781411
0.10131232 -0.330962 0.028758146
0.12012957 -0.330962 0.025005307
0.13663253 -0.330962 0.023025595
-0.278238 -0.31711233 0.023658179
0.223948 -0.25452074 0.025210649
0.099706203 -0.082991101 0.027040266
-0.278238 -0.062282868 0.020265885
0.099706203 -0.035426829 0.021301381
0.099706203 -0.00053666532 0.023968939
-0.278238 0.13760366 0.023385793
0.24626245 0.217375 0.022479706
-0.22755647 0.330962 0.027421728
0.037236661 0.330962 0.022392549
0.13621736 0.330962 0.027934192
-0.278238 -0.26825687 0.036646716
0.10798841 -0.16198999 0.035262
0.13648471 -0.16197903 0.035345163
0.20914118 0.1339891 0.037691776
0.22377193 0.13480742 0.03147608
-0.278238 0.14158717 0.039842345
-0.278238 0.30720654 0.034735579
-0.24940155 0.330962 0.033845924
-0.23128393 0.330962 0.038762659
-0.20545417 0.330962 0.032960176
-0.278238 -0.32786018 0.046552479
0.099706203 -0.12372527 0.040849924
-0.278238 -0.067756034 0.040426761
-0.278238 -0.046431586 0.046110451
0.099706203 -0.0089905877 0.048143771
-0.278238 0.025496984 0.044569254
0.14185977 0.13350236 0.041388869
0.00014959089 0.330962 0.047165878
0.082237273 0.330962 0.045857571
0.15502134 0.330962 0.043999404
-0.15304893 -0.330962 0.05303105
-0.11861944 -0.330962 0.050922096
0.223948 -0.28170672 0.055810161
0.223948 -0.27352849 0.058567334
0.223948 -0.17830496 0.050897583
0.099853471 -0.1539335 0.059442569
0.16615777 -0.15567133 0.055247098
0.099706203 -0.10298509 0.056911565
-0.278238 -0.067684114 0.059940577
0.1633977 0.12978581 0.050912432
0.223948 0.15841414 0.053263504
0.2271615 0.21737498 0.050762385
-0.23843102 0.330962 0.052892856
-0.04702805 0.330962 0.053030532
0.0049851239 0.330962 0.058836855
-0.032708481 -0.330962 0.068204686
0.223948 -0.32304692 0.067997381
0.223948 -0.25702423 0.060959212
-0.278238 -0.21717629 0.067149632
0.099706203 -0.12943362 0.069026135
-0.278238 -0.063235275 0.06547524
0.099706203 -0.063490607 0.061949596
0.223948 0.16823944 0.065500021
-0.278238 0.2781955 0.060298547
-0.278238 0.29083651 0.065483354
-0.14879884 0.330962 0.063803837
-0.08205869 0.330962 0.066881828
0.20190108 -0.330962 0.07701914
0.223948 -0.31374344 0.079039201
0.10446079 -0.14788032 0.074056156
0.14334112 -0.14709663 0.075948156
0.17269248 -0.14695242 0.076296315
0.099706203 -0.021425679 0.079911143
0.22897908 0.21737501 0.071695574
-0.19222829 0.330962 0.07393463
0.023856223 0.330962 0.07931722
0.19654326 0.330962 0.073892474
0.20874041 0.330962 0.075943634
-0.069046959 -0.330962 0.080340043
-0.278238 -0.32290092 0.086289875
0.18663225 -0.14455806 0.080642566
-0.278238 0.00048213825 0.086354762
0.099706203 0.055357475 0.082476936
0.15412712 0.11153983 0.087598093
-0.045072772 -0.330962 0.092354029
0.223948 -0.30005234 0.091929831
0.17650907 -0.13626158 0.091454536
-0.278238 -0.10436538 0.09750966
0.099706203 -0.083260581 0.095866293
-0.278238 -0.040271182 0.098373041
-0.278238 0.03422901 0.092863739
0.16250584 0.10661086 0.094021574
0.17866719 0.10705007 0.093449175
0.26779699 0.23163003 0.099842072
0.26615798 0.27527842 0.090309396
0.26779699 0.32827783 0.098081321
-0.2734428 0.330962 0.096115284
-0.14975773 0.330962 0.098659843
-0.059650637 0.330962 0.092989959
0.078580365 0.330962 0.090271451
0.14582698 0.330962 0.09845259
-0.278238 -0.24598344 0.10696742
0.223948 -0.12453501 0.10780642
0.099706203 -0.11580437 0.10098093
-0.278238 0.01714504 0.10578145
0.099706203 0.091387242 0.10202827
-0.278238 0.27949491 0.10432026
-0.14083956 0.330962 0.10979301
0.0093376637 0.330962 0.10444848
0.079999059 0.330962 0.10471394
0.099085778 0.330962 0.10700215
-0.20194761 -0.330962 0.11672454
-0.13497329 -0.330962 0.11875942
-0.278238 -0.23821828 0.11671196
0.223948 -0.181081 0.11139211
0.20029011 -0.12162308 0.11053048
0.11490232 -0.11645544 0.11449596
0.099706203 -0.028485583 0.11858381
0.099706203 0.00037718564 0.11349423
0.11948545 0.092597425 0.11156239
0.2586619 0.21737501 0.11496387
0.257357 0.27306467 0.11887136
-0.278238 0.29216391 0.11041673
-0.26517472 0.330962 0.11209734
-0.14198905 0.330962 0.11686713
-0.2591821 -0.330962 0.12133949
-0.19856183 -0.330962 0.12890539
0.073606014 -0.330962 0.1216211
0.098082349 -0.330962 0.12377476
0.223948 -0.27926788 0.1230525
-0.278238 -0.20362678 0.12911835
0.099706203 -0.047113702 0.12086036
0.099706203 0.0027332557 0.12471575
-0.278238 0.012758091 0.12050366
0.099706203 0.0330486 0.12439051
-0.278238 0.054063059 0.12757424
0.21836933 0.075964436 0.1243259
0.223948 0.15689926 0.12928472
0.223948 0.16232422 0.12019327
0.23009092 0.217375 0.12210931
0.084801003 0.330962 0.12537929
0.1126625 0.330962 0.12319443
0.19129188 0.330962 0.12057291
-0.038481258 -0.330962 0.13092928
0.078795142 -0.330962 0.13061596
0.20113908 -0.330962 0.13742235
-0.278238 -0.14170358 0.13488153
0.099706203 -0.056805138 0.13013247
0.099706203 -0.027819259 0.13324034
0.15951106 0.061928265 0.13493901
-0.278238 0.12667774 0.13558228
0.223948 0.13262171 0.13883644
-0.278238 0.14292419 0.13294737
0.223948 0.18868698 0.134719
0.25388616 0.217375 0.13348237
-0.22444774 0.330962 0.13153127
-0.11153051 0.330962 0.13407336
-0.022743065 0.330962 0.13450009
0.26662093 0.330962 0.13534828
-0.23246677 -0.330962 0.14214131
0.223948 -0.308909 0.14773788
-0.278238 -0.23568246 0.14054143
0.223948 -0.11788099 0.14467919
0.15924112 -0.076505527 0.14036685
0.21820609 -0.059622735 0.14735997
0.18906951 0.038020309 0.14484203
0.223948 0.099746987 0.14714816
0.223948 0.10923238 0.14461431
-0.278238 0.21570098 0.14057228
0.048193589 0.330962 0.14570612
0.2304782 0.330962 0.14285344
0.26475576 0.330962 0.14611082
-0.13653579 -0.330962 0.15723604
-0.278238 -0.14600018 0.15062207
0.223948 -0.039222345 0.1555196
0.13163467 -0.026562402 0.15350042
0.15321262 -0.01636767 0.15484232
0.19046113 -0.014194562 0.15512836
0.223948 0.080432191 0.15773655
0.223948 0.2069909 0.15001413
-0.278238 0.21419266 0.15502357
0.23670992 0.217375 0.15195622
-0.278238 0.22086988 0.15143521
-0.278238 0.23606721 0.15642351
0.27587226 0.30579126 0.15430062
-0.12385338 0.330962 0.15526122
0.08406046 0.330962 0.1558544
-0.278238 -0.18812527 0.16507776
-0.278238 -0.084826872 0.16394673
0.223948 -0.0801287 0.16062526
0.223948 -0.025749542 0.16158645
0.223948 0.11763052 0.1611833
0.26732981 0.26405299 0.16373375
0.26579881 0.29537401 0.16296083
0.26779699 0.31790909 0.16993657
0.278238 0.31847456 0.16132116
-0.18625574 0.330962 0.16869129
0.076662861 0.330962 0.16449861
0.086134754 0.330962 0.16311994
0.18398738 0.330962 0.16088477
0.25677842 0.330962 0.16017054
-0.26620471 -0.330962 0.17842682
-0.24323654 -0.330962 0.17030346
-0.15655155 -0.330962 0.1703413
-0.12065996 -0.330962 0.17871007
-0.06449762 -0.330962 0.17998753
0.20150226 -0.330962 0.17232752
-0.278238 -0.32813591 0.17516983
0.223948 -0.25259876 0.17433304
0.223948 0.039695814 0.1799902
-0.278238 0.049147636 0.17874873
-0.278238 0.10904925 0.17943752
-0.278238 0.11605965 0.17768207
0.2598893 0.21737498 0.17663971
0.065695122 0.330962 0.17657506
0.19194388 0.330962 0.17297833
-0.17453411 -0.330962 0.18143147
-0.1349425 -0.330962 0.18297866
0.033587806 -0.330962 0.18190496
0.17267172 -0.330962 0.18462893
0.223948 -0.3257013 0.1841249
-0.278238 -0.29139245 0.18650685
-0.278238 -0.20003255 0.18762244
-0.278238 0.012044124 0.18700367
0.223948 0.089492701 0.18997383
-0.278238 0.11643711 0.18111157
0.223948 0.16920385 0.18549025
-0.278238 0.1968787 0.18555245
-0.278238 0.2095264 0.18154177
-0.12646908 0.330962 0.18865137
0.048589744 0.330962 0.18697432
0.21824919 0.330962 0.18798012
0.0016138405 -0.330962 0.19077216
-0.278238 -0.098403044 0.19664797
0.223948 -0.099032387 0.19141236
0.223948 0.048534222 0.19739263
-0.278238 0.19067553 0.19276857
-0.278238 0.26387244 0.19889753
-0.278238 0.31941462 0.19538684
-0.06062986 0.330962 0.19024381
0.0056784451 0.330962 0.19744685
0.10758104 -0.330962 0.20340574
0.223948 -0.090467006 0.20799468
0.223948 0.050616629 0.20332222
0.223948 0.10685309 0.20161876
0.223948 0.16508871 0.20347682
0.0072277635 0.330962 0.2062255
0.13854681 0.330962 0.20285101
-0.2268648 -0.330962 0.21261315
0.2056343 -0.330962 0.21669668
0.223948 -0.19739518 0.21167479
0.223948 -0.18839693 0.21058926
0.223948 -0.084794417 0.21202669
0.223948 0.0069837272 0.21936475
-0.278238 0.18000758 0.21110715
-0.278238 0.32026553 0.21955922
-0.17470646 0.330962 0.21410716
0.23428264 0.330962 0.21943568
0.068741851 -0.330962 0.22465713
0.083613262 -0.330962 0.22507611
0.223948 -0.31551984 0.22580501
-0.278238 -0.27694464 0.22761938
-0.278238 -0.21801293 0.22464609
0.223948 -0.16714539 0.22477616
0.223948 -0.12192342 0.22666499
-0.278238 -0.099986568 0.22343229
0.23490757 0.217375 0.22560908
-0.20524672 0.330962 0.22504379
-0.16256219 0.330962 0.22974969
-0.25804144 -0.330962 0.23531629
0.010026522 -0.330962 0.2373167
-0.278238 -0.26607499 0.23478234
-0.278238 -0.17372352 0.23151478
0.223948 -0.11483304 0.23785453
0.223948 -0.0012415797 0.23750661
-0.278238 0.01409724 0.23863989
-0.278238 0.027493494 0.23051053
0.223948 0.027044699 0.23441225
-0.278238 0.035641763 0.23656896
0.223948 0.053020664 0.23102573
-0.278238 0.075931475 0.23566908
-0.278238 0.25821048 0.23341526
0.26062205 0.26405299 0.23371954
-0.278238 0.30157864 0.23963571
0.10412874 0.330962 0.23956752
0.11404331 0.330962 0.23559067
0.1372861 0.330962 0.23125587
-0.23115806 -0.330962 0.24726832
-0.060873576 -0.330962 0.24910295
0.223948 -0.32384795 0.24261227
-0.278238 -0.26525861 0.24121909
-0.278238 -0.25639269 0.2424283
0.223948 -0.25689194 0.24978018
-0.278238 -0.24346553 0.24155222
0.223948 0.14583692 0.24610057
-0.278238 0.2865414 0.24110554
-0.13729493 0.330962 0.24493064
0.062430963 0.330962 0.2489365
0.25183544 0.330962 0.24769543
-0.011115755 -0.32572439 0.251093
0.19336715 -0.32098222 0.251093
0.2084467 -0.32872978 0.251093
-0.21874511 -0.31338078 0.251093
-0.069592081 -0.31934631 0.251093
0.059723489 -0.31805894 0.251093
0.13544166 -0.31305325 0.251093
-0.20795658 -0.30789542 0.251093
-0.15626648 -0.30253026 0.251093
-0.14593638 -0.30667013 0.251093
-0.18590131 -0.29972509 0.251093
-0.17546099 -0.29228994 0.251093
-0.10078826 -0.29996836 0.251093
-0.019479327 -0.29443538 0.251093
0.15714936 -0.28044093 0.251093
-0.036199227 -0.2770513 0.251093
0.14740713 -0.27349892 0.251093
-0.050357603 -0.26294768 0.251093
0.013461463 -0.26940954 0.251093
0.070196845 -0.26085871 0.251093
0.17689359 -0.25138414 0.251093
0.13925956 -0.24069007 0.251093
-0.13694659 -0.2359468 0.251093
0.223948 -0.23285663 0.25070921
0.17354448 -0.22725202 0.251093
-0.2336303 -0.21169122 0.251093
-0.216571 -0.21418817 0.251093
-0.11633313 -0.21839836 0.251093
-0.073603168 -0.21626104 0.251093
0.17461102 -0.21795398 0.251093
0.18962422 -0.21796107 0.251093
-0.22197877 -0.20273297 0.251093
-0.018081844 -0.20939949 0.251093
0.028504742 -0.20818731 0.251093
0.098353684 -0.20517135 0.251093
0.19426137 -0.20129648 0.251093
-0.26841748 -0.19727066 0.251093
-0.22391905 -0.19341478 0.251093
0.024042703 -0.19439968 0.251093
0.065920107 -0.1846258 0.251093
0.17717123 -0.18310209 0.251093
-0.091771744 -0.17106128 0.251093
-0.053940706 -0.17142129 0.251093
0.19219407 -0.17412595 0.251093
-0.21593037 -0.16329642 0.251093
0.19285052 -0.16830158 0.251093
0.20790716 -0.16481881 0.251093
-0.24988765 -0.14198375 0.251093
-0.23635243 -0.1451031 0.251093
-0.08480937 -0.14508805 0.251093
-0.026729703 -0.14091828 0.251093
0.10121894 -0.14220332 0.251093
0.17716786 -0.1421438 0.251093
0.035282966 -0.13567516 0.251093
-0.12564033 -0.12402775 0.251093
0.11536978 -0.12883854 0.251093
-0.23020522 -0.1138548 0.251093
-0.076160103 -0.11096443 0.251093
0.12224979 -0.11292121 0.251093
0.1327429 -0.1148613 0.251093
-0.022219352 -0.10616454 0.251093
-0.20854101 -0.092319377 0.251093
-0.16622691 -0.096678831 0.251093
-0.094409041 -0.095865764 0.251093
0.031940058 -0.091955751 0.251093
0.10621829 -0.094462439 0.251093
-0.26480252 -0.081480302 0.25109297
-0.14516126 -0.08317475 0.251093
-0.014477126 -0.087097287 0.251093
-0.0091905594 -0.086750515 0.251093
-0.072905555 -0.065098256 0.251093
-0.058076903 -0.069815047 0.251093
0.1081149 -0.065494172 0.251093
-0.0044233818 -0.058979098 0.251093
0.15228066 -0.058721695 0.251093
0.21367456 -0.0538835 0.251093
0.11127669 -0.046084337 0.251093
0.14247356 -0.042762883 0.251093
0.21459514 -0.045499779 0.251093
-0.10389057 -0.031874254 0.251093
0.1735557 -0.034828939 0.251093
-0.10513867 -0.020622343 0.251093
0.15079696 -0.024347261 0.251093
0.20752636 -0.029047079 0.251093
-0.23497167 -0.019564152 0.251093
-0.15011041 -0.01516895 0.251093
-0.048825316 -0.016803205 0.251093
0.0073791072 -0.017724477 0.251093
-0.092913762 -0.0023407862 0.251093
0.15320121 -0.00802809 0.251093
-0.022119127 0.0089940429 0.251093
-0.0067084059 0.0094875246 0.251093
0.030246466 0.010973409 0.251093
0.11440307 0.019102376 0.251093
-0.12218902 0.023084939 0.251093
-0.020850567 0.02434014 0.251093
0.00057881325 0.0234887 0.251093
0.087098628 0.029298395 0.25109297
-0.23806891 0.034970686 0.251093
-0.19259176 0.032323435 0.251093
-0.18827736 0.039113417 0.251093
-0.15132637 0.031696349 0.251093
0.21035327 0.034797095 0.251093
-0.22176446 0.040503383 0.251093
-0.016281975 0.040504131 0.251093
0.033501279 0.051216733 0.251093
-0.2431339 0.061145976 0.251093
-0.15691257 0.079907343 0.251093
0.18970266 0.073664576 0.251093
-0.19808073 0.084147319 0.251093
-0.15380494 0.080984019 0.251093
0.0081442446 0.087507688 0.251093
0.048993699 0.081835784 0.251093
0.18110499 0.087721184 0.251093
0.13972515 0.096097097 0.251093
0.21063304 0.094591126 0.251093
-0.278238 0.10361239 0.25028387
-0.2566461 0.10739367 0.251093
-0.19604954 0.10566782 0.251093
0.16939321 0.10186893 0.251093
-0.073070571 0.11105143 0.251093
0.033992425 0.11244512 0.251093
-0.27573064 0.12177187 0.251093
0.084460035 0.13988094 0.251093
-0.12519944 0.14789239 0.251093
-0.10988898 0.14540499 0.251093
-0.0043218583 0.14524522 0.251093
0.065902926 0.14884201 0.251093
0.1648775 0.14763844 0.25109297
0.19734551 0.1433333 0.251093
-0.13357092 0.15562485 0.251093
-0.047394264 0.16836545 0.251093
-0.2122878 0.17526047 0.251093
0.0017486103 0.17758603 0.251093
0.033519115 0.17101926 0.251093
-0.25472352 0.18939988 0.251093
-0.13949901 0.18975936 0.251093
-0.11259698 0.18999889 0.251093
0.15175299 0.18863863 0.251093
0.17731251 0.181151 0.251093
-0.2768237 0.19081265 0.251093
-0.22530283 0.19680148 0.251093
-0.17695855 0.19285703 0.251093
-0.18452689 0.20534587 0.251093
-0.10994503 0.20693213 0.251093
0.076224148 0.20913392 0.251093
0.0079426244 0.21940812 0.251093
0.13163048 0.21385606 0.251093
0.267726 0.217375 0.25092471
-0.2603485 0.22006793 0.251093
-0.23983108 0.22572131 0.251093
-0.14172556 0.22986673 0.251093
-0.076700144 0.22339976 0.251093
-0.050736383 0.23391941 0.251093
0.18936872 0.2329378 0.251093
0.053522583 0.24222659 0.251093
-0.17139389 0.25383237 0.251093
0.030001909 0.25353593 0.251093
0.070805453 0.25661311 0.251093
0.10890926 0.2586973 0.251093
-0.27597353 0.26630741 0.251093
-0.059449367 0.26111412 0.251093
0.081636533 0.26073098 0.251093
0.1184317 0.26131541 0.251093
-0.23685239 0.27626437 0.251093
-0.20316671 0.27606425 0.251093
-0.1281752 0.27675182 0.251093
-0.06829603 0.27095479 0.251093
0.08711043 0.27838472 0.251093
0.21602762 0.2772164 0.251093
-0.18502058 0.28421241 0.251093
-0.093264267 0.28253591 0.251093
-0.030882526 0.28362554 0.251093
0.13025537 0.28687206 0.251093
0.19039828 0.29631212 0.251093
-0.17842144 0.30104721 0.25109303
-0.21288513 0.31344745 0.251093
-0.057624184 0.31993762 0.251093
-0.028130285 0.31202209 0.251093
0.052178048 0.3171823 0.251093
0.11349296 0.31281102 0.251093
0.20074524 0.32023033 0.251093
