# .PCD v0.7 - Point Cloud Data file format
VERSION 0.7
FIELDS x y z
SIZE 4 4 4
TYPE F F F
COUNT 1 1 1
WIDTH 982
HEIGHT 1
VIEWPOINT 0 0 0 1 0 0 0
POINTS 982
DATA ascii
0.015242085 -0.33649129 -0.25030199
0.2111937 -0.33369091 -0.25030199
0.20498045 -0.32570302 -0.25030199
-0.070244923 -0.31401259 -0.25030199
0.067386068 -0.31034124 -0.25030199
0.0058841715 -0.3064158 -0.25030199
0.017660849 -0.30888209 -0.25030199
0.13080749 -0.29098353 -0.25030199
0.20991176 -0.29742908 -0.25030199
-0.088671371 -0.28301853 -0.25030199
-0.064660721 -0.2787233 -0.25030199
0.0090472586 -0.27641314 -0.25030199
0.18188706 -0.27686101 -0.25030199
-0.19571775 -0.26307005 -0.25030199
0.054204281 -0.26588386 -0.25030199
0.16056478 -0.26221317 -0.25030199
0.064806424 -0.25078511 -0.25030196
-0.14849569 -0.2437239 -0.25030199
-0.11482707 -0.24327496 -0.25030199
-0.076011553 -0.24791542 -0.25030199
-0.045819581 -0.24474472 -0.25030199
-0.056234319 -0.23439626 -0.25030199
0.16953573 -0.23671018 -0.25030199
-0.15694724 -0.22014511 -0.25030199
0.17991523 -0.20566744 -0.25030199
-0.072551966 -0.19008744 -0.25030199
0.071847975 -0.19830027 -0.25030199
0.15130089 -0.19488037 -0.25030199
0.036612738 -0.18886334 -0.25030199
0.10178766 -0.18378964 -0.25030199
0.15373838 -0.18549155 -0.25030199
-0.19029555 -0.17714429 -0.25030199
0.066334181 -0.17380172 -0.25030199
-0.0996501 -0.16924724 -0.25030199
-0.17191155 -0.15796235 -0.25030199
0.093378372 -0.15194163 -0.25030199
0.1886854 -0.13512097 -0.25030199
-0.045767464 -0.12148799 -0.25030199
0.20685598 -0.12291564 -0.25030199
-0.083577581 -0.11251847 -0.25030199
0.16378096 -0.10423349 -0.25030199
0.23054457 -0.085811898 -0.25030199
-0.15138918 -0.065116391 -0.25030199
0.09573599 -0.064430736 -0.25030199
-0.053403243 -0.048705406 -0.25030199
-0.17967519 -0.030938787 -0.25030199
-0.15848297 -0.03908097 -0.25030199
0.1194523 -0.035165645 -0.25030199
0.13668555 -0.038199298 -0.25030199
0.14031734 -0.037866883 -0.25030199
-0.20502815 -0.028333776 -0.25030199
-0.18921353 -0.02446866 -0.25030199
-0.16933195 -0.027233914 -0.25030199
-0.14554748 -0.021043289 -0.25030199
-0.010851324 -0.02830255 -0.25030199
-0.14193833 -0.017383628 -0.25030199
0.11520609 -0.0048056692 -0.25030199
0.19326979 0.0087524727 -0.25030199
-0.15922397 0.019846966 -0.25030199
-0.073412925 0.01292529 -0.25030199
-0.090146422 0.027403627 -0.25030199
-0.050836802 0.026432626 -0.25030199
-0.18682668 0.034624681 -0.25030199
0.038022246 0.036995463 -0.25030199
0.14515051 0.035092544 -0.25030199
0.023080502 0.059950449 -0.25030199
0.070264705 0.055973068 -0.25030199
0.23172686 0.056786124 -0.25030199
0.1900889 0.067505822 -0.25030199
0.053276561 0.078226902 -0.25030199
0.12841329 0.071809545 -0.25030199
0.13408524 0.074283056 -0.25030199
-0.14579968 0.085184157 -0.25030199
-0.015463307 0.10035892 -0.25030199
0.099103689 0.10866043 -0.25030199
-0.14698972 0.11857948 -0.25030199
0.23420413 0.116698 -0.25030199
0.072565109 0.13453546 -0.25030199
0.15658976 0.13692275 -0.25030199
-0.201318 0.15367579 -0.25030199
0.041812263 0.15458696 -0.25030199
0.16224276 0.15923305 -0.25030199
-0.042701099 0.16585702 -0.25030199
-0.0082666874 0.16943476 -0.25030199
0.22213677 0.16188373 -0.25030199
0.046170294 0.22996518 -0.25030199
0.13241473 0.224875 -0.25030199
-0.18154335 0.23697543 -0.25030199
-0.17793012 0.23348673 -0.25030199
-0.0030630603 0.23760474 -0.25030199
0.096370041 0.23503847 -0.25030199
0.16755769 0.2345698 -0.25030199
0.2131689 0.23382153 -0.25030199
-0.176447 0.24619605 -0.25030199
0.095695943 0.24387403 -0.25030199
-0.030133694 0.25415367 -0.25030199
0.20742404 0.25356719 -0.25030199
0.061467677 0.26932511 -0.25030199
0.088944286 0.26929155 -0.25030199
0.0067013726 0.27386349 -0.25030199
-0.18109562 0.28966367 -0.25030199
0.17391378 0.28384763 -0.25030199
0.22628459 0.29357943 -0.25030199
-0.074893422 0.32143635 -0.25030199
-0.037673667 0.32643718 -0.25030199
0.18027826 0.32750079 -0.25030199
-0.21091807 0.34630752 -0.25030199
0.07916303 0.34411275 -0.25030199
0.14857055 0.35101759 -0.25025618
0.23303348 -0.29130137 -0.2452426
-0.21067099 -0.18722406 -0.24947427
0.23987301 -0.18347465 -0.24157318
-0.21067101 -0.06192632 -0.2448633
0.219014 0.0097722486 -0.2468725
-0.21067099 0.022007197 -0.2409786
0.219014 0.067028403 -0.2426368
0.23987301 0.13316207 -0.24368522
0.23987299 0.18347833 -0.24014615
0.22922461 0.28872377 -0.2455252
-0.13806134 0.32956499 -0.24069776
-0.11321325 0.32956499 -0.24175793
-0.014465312 0.32956499 -0.24128917
0.035850782 0.32956499 -0.24946602
0.20551498 0.32956502 -0.24758145
0.219014 0.32017863 -0.24648936
-0.24819233 0.3507916 -0.24959579
-0.060120031 -0.337908 -0.23522966
0.17504491 -0.337908 -0.23252025
0.219014 -0.29507589 -0.23690882
0.219014 -0.1956701 -0.23175272
0.21901402 -0.076369494 -0.23477483
0.23987302 -0.072183758 -0.23495024
0.23987301 -0.052004345 -0.23813362
-0.21067098 -0.025356114 -0.23220304
0.23987301 0.086572275 -0.23254727
-0.21067099 0.19780153 -0.23702896
0.219014 0.27209359 -0.23656906
-0.19095728 0.32956499 -0.23586133
-0.17290786 -0.33848068 -0.225272
0.040513724 -0.337908 -0.22531098
0.219014 -0.31502905 -0.22877812
0.22634327 -0.31354249 -0.22326265
-0.21067099 -0.22087964 -0.2205901
0.21901402 -0.22103803 -0.22464751
-0.21067101 -0.14061278 -0.22070888
0.23987302 -0.063484162 -0.2228637
0.219014 0.0087064262 -0.22719145
0.219014 0.16920124 -0.22312401
0.219014 0.19565742 -0.22622147
0.21901399 0.25742257 -0.22436705
-0.23748675 0.32956499 -0.22989812
-0.11744875 0.32956499 -0.22212857
0.074779481 0.32956499 -0.22796479
0.13870725 0.32956499 -0.22085196
0.14992049 0.32956499 -0.22510554
-0.248216 0.33280772 -0.22558431
0.1358292 0.35459501 -0.22337991
0.1839422 -0.35459501 -0.21405323
-0.15281412 -0.337908 -0.21400037
0.097193934 -0.337908 -0.21041071
0.22715527 -0.31084305 -0.21057552
0.219014 -0.27290747 -0.2187444
0.23987301 -0.22237529 -0.21021149
0.21901399 -0.20594084 -0.21974744
0.21901399 -0.19863263 -0.21275987
0.219014 -0.18201998 -0.21674675
0.219014 -0.17685492 -0.21838924
0.23987301 -0.16343597 -0.21356402
-0.21067098 0.1496253 -0.21324384
-0.21067098 0.15018186 -0.21833561
-0.21067098 0.25211793 -0.21555465
-0.19159691 0.32956499 -0.21665856
0.062529422 0.32956499 -0.21174467
-0.054732367 0.35459501 -0.21046086
0.077017039 0.35459501 -0.21989647
-0.19969037 -0.337908 -0.20093736
0.219014 -0.33316481 -0.20904677
0.23987302 -0.10186755 -0.20740658
0.23987301 0.03389471 -0.20492698
-0.21067101 0.089543432 -0.20006844
0.219014 0.10467491 -0.20860566
-0.21067099 0.12306375 -0.20685384
-0.21067101 0.17774773 -0.20538202
-0.21067099 0.22868574 -0.20759393
-0.045282237 0.35459501 -0.20579895
-0.15643901 -0.3392745 -0.19834049
0.19336948 -0.337908 -0.19593857
0.219014 -0.30885637 -0.19400635
0.21901399 -0.23649123 -0.19083743
0.23987301 -0.23580211 -0.19025005
0.21901402 0.030695386 -0.1986264
0.219014 0.06978137 -0.19207504
0.23987302 0.11370467 -0.19872844
0.21901399 0.19233921 -0.19556943
-0.21067099 0.2182516 -0.1974238
-0.21067099 0.23125191 -0.19334787
0.219014 0.27321196 -0.19017118
0.23263043 0.27510089 -0.19742534
-0.21067099 0.32318959 -0.19141759
-0.18650794 0.32956499 -0.19363335
-0.011872411 0.35459501 -0.19932541
0.056596331 0.35459501 -0.19814783
0.23987301 -0.24718773 -0.1873524
0.21901402 -0.19038361 -0.18125756
-0.21067099 -0.18762593 -0.18371379
0.219014 -0.098362453 -0.18139568
0.219014 -0.04981865 -0.18840355
0.23987299 -0.019334389 -0.18588117
0.21901399 0.086629637 -0.18238774
0.21901399 0.092478916 -0.18473065
0.219014 0.14825244 -0.18265116
0.2231971 0.229444 -0.18528011
0.23106863 0.28134787 -0.18972403
0.21901402 0.30609107 -0.18404733
-0.20317507 0.32956499 -0.18603821
-0.14154512 0.32956499 -0.1846353
-0.248216 0.34358466 -0.18475786
-0.16527078 0.35459501 -0.18046527
-0.084439248 0.35459501 -0.18872291
-0.090757921 -0.33790797 -0.17617047
-0.0889671 -0.33790803 -0.1771998
0.219014 -0.24032399 -0.17168914
0.219014 -0.17147028 -0.1793454
-0.21067099 0.00098653138 -0.17447782
0.21901402 0.018536747 -0.17453204
0.219014 0.026583109 -0.17646162
0.219014 0.083734319 -0.17713031
0.23987299 0.21918923 -0.17421252
-0.21067098 0.31189469 -0.17352867
-0.17611662 0.32956499 -0.17692572
-0.16344467 0.32956499 -0.17765898
0.219014 0.33008775 -0.17437676
0.18979201 0.35459501 -0.17957713
-0.0083668679 -0.337908 -0.16700691
0.23061214 -0.29935092 -0.16806185
0.23523077 -0.28399673 -0.16240185
0.219014 -0.25932574 -0.16309088
0.23987299 -0.25029653 -0.16122362
0.21901399 -0.1890614 -0.16519074
0.23987301 -0.18217112 -0.16418272
-0.21067099 -0.15584335 -0.16625945
0.21901399 -0.15915036 -0.16568224
0.219014 -0.096858948 -0.16160594
0.219014 0.012644846 -0.16496792
0.21901402 0.039361447 -0.16638882
-0.21067098 0.12119803 -0.16908422
-0.21067099 0.26740506 -0.16840805
0.1581741 0.32956499 -0.16250636
-0.248216 0.34732887 -0.16088569
-0.19056544 0.35459501 -0.16776243
0.0032747537 0.35459501 -0.16101858
0.050377935 0.35459501 -0.16884851
0.064915858 0.35459501 -0.16019781
0.079001322 0.35459501 -0.16063946
-0.095626637 -0.337908 -0.15211248
-0.07286936 -0.337908 -0.15067852
-0.21067099 -0.21086986 -0.15535212
0.21901402 -0.093716055 -0.15515372
0.21901399 -0.021831978 -0.15855831
0.23987299 0.0011099055 -0.15609364
0.21901399 0.066426955 -0.15552548
0.21901399 0.075185679 -0.15191844
-0.21067099 0.16199823 -0.15341218
0.21901399 0.24101548 -0.15813406
-0.082553178 0.32956499 -0.15173019
-0.039398924 0.32956499 -0.15205248
0.21939835 0.32802725 -0.15419973
-0.248216 0.33292049 -0.15966597
0.21901402 0.33296531 -0.15475158
-0.244017 0.35459501 -0.15239482
0.087684684 0.35459501 -0.15027046
0.18425263 0.35459501 -0.15960181
-0.081816122 -0.337908 -0.14758141
0.22990771 -0.30169278 -0.14425294
0.23987302 -0.25942144 -0.14386538
0.23987301 -0.24160378 -0.14631584
-0.21067099 0.01077123 -0.14253166
0.23987301 0.048682965 -0.1493762
-0.21067099 0.052445501 -0.14206582
-0.21067098 0.062090375 -0.14741042
-0.21067099 0.15630054 -0.14367962
0.23987299 0.15971549 -0.14344501
0.21901402 0.21390346 -0.14828037
-0.16712011 0.32956499 -0.14753205
-0.088655181 0.32956499 -0.14947942
0.025566779 0.32956499 -0.1442591
0.17779976 0.32956499 -0.14985612
0.064977705 0.35459501 -0.14152122
-0.20083278 -0.337908 -0.13565381
-0.12529723 -0.337908 -0.13270713
0.12552288 -0.337908 -0.13793194
0.219014 -0.29581848 -0.13864377
0.23823863 -0.27399734 -0.13962136
0.219014 -0.21977688 -0.13778611
0.219014 -0.16353399 -0.13128772
0.21901402 -0.13724931 -0.13755089
0.23987302 -0.13688974 -0.13842967
0.219014 -0.0089661274 -0.13866954
0.219014 0.001822276 -0.13025522
-0.21067098 0.075629145 -0.13965496
0.219014 0.09621086 -0.13592309
0.22405586 0.229444 -0.13845824
0.219014 0.28176463 -0.13051681
-0.16302967 0.32956499 -0.13489394
-0.049088821 0.32956499 -0.13098533
-0.18497874 -0.33790797 -0.12986608
0.21901402 -0.3145135 -0.12935875
0.219014 -0.21582921 -0.1269265
-0.21067099 -0.19035771 -0.12050414
0.21901402 -0.095609263 -0.1211882
0.21901399 -0.029531769 -0.12620595
-0.21067099 0.05498537 -0.12795956
-0.21067099 0.24003093 -0.12083143
0.21901399 0.26741374 -0.12562728
0.21901399 0.27377841 -0.12123796
-0.21067099 0.28679326 -0.12223251
-0.18665093 0.32956499 -0.12721515
-0.045687243 0.32956499 -0.12536308
-0.14413796 0.35459501 -0.1282396
0.2188478 0.35157686 -0.12468522
0.15843889 -0.337908 -0.11865745
0.21075808 -0.337908 -0.11835394
0.219014 -0.21599674 -0.11738431
-0.21067098 -0.20478858 -0.11698806
0.219014 -0.14738941 -0.11157256
0.219014 -0.12702601 -0.11985529
0.219014 -0.11938395 -0.11244958
0.21901402 -0.10598692 -0.11601649
-0.21067099 0.053936169 -0.11073282
-0.21067099 0.09231849 -0.11637517
0.23987301 0.18149143 -0.11628495
0.219014 0.2287069 -0.11557656
-0.21067098 0.28251666 -0.11388373
0.21901402 0.31798595 -0.11635682
-0.043675132 0.32956499 -0.11918761
0.21932375 0.32832575 -0.1188591
0.092750579 0.35459501 -0.11758192
-0.051620051 -0.33790803 -0.10019597
0.073550314 -0.337908 -0.10423185
0.1395531 -0.337908 -0.10211671
-0.21067099 -0.25900713 -0.10502975
0.21901402 -0.12472704 -0.10692176
0.23987301 -0.068100423 -0.10836451
0.219014 0.11525092 -0.10731106
-0.023178481 0.32956499 -0.10487352
0.034265339 0.35459501 -0.10212114
-0.19464806 -0.337908 -0.090843171
-0.10014313 -0.337908 -0.092554323
0.012790374 -0.337908 -0.09309186
0.095186405 -0.337908 -0.093803361
0.10072404 -0.337908 -0.099252209
0.21901402 -0.21334657 -0.093808882
0.21901402 -0.19319804 -0.090659343
0.21901402 -0.1863984 -0.098644115
0.219014 -0.17836766 -0.096578002
0.219014 -0.084967569 -0.091748215
-0.21067098 -0.048217449 -0.097035185
-0.21067099 0.050262764 -0.092771918
0.21901399 0.12022907 -0.096009649
0.219014 0.20237494 -0.093377389
-0.21067099 0.25416526 -0.094704106
0.2273214 0.29633459 -0.096117087
-0.1126796 0.32956499 -0.096277349
-0.033222452 0.32956499 -0.092452392
-0.248216 0.33618507 -0.0958125
-0.16444577 0.35459501 -0.098397523
0.11489628 -0.33790797 -0.089771383
0.21351632 -0.337908 -0.086297266
0.21901399 -0.23700093 -0.083994389
0.219014 -0.18883142 -0.083246797
0.219014 -0.16487314 -0.08686623
0.219014 -0.090412132 -0.080937013
-0.21067098 -0.052910298 -0.086064138
0.219014 -0.0088212136 -0.081087008
0.21901399 0.1279792 -0.082067728
-0.18548539 0.32956499 -0.080726437
-0.14602092 0.32956499 -0.087794863
-0.11960466 0.32956499 -0.086064577
-0.017003879 0.32956499 -0.082770728
0.16956706 0.32956499 -0.084651902
-0.20411369 0.35459501 -0.087342016
0.22677541 -0.31210586 -0.079986021
0.23987299 -0.21131667 -0.071932048
0.219014 -0.1317697 -0.071767978
0.23987301 -0.11475849 -0.071837872
-0.21067098 0.062963188 -0.070647255
0.219014 0.18364102 -0.07726524
0.219014 0.21106216 -0.071740806
0.21901399 0.22591951 -0.078720853
-0.21067099 0.28392464 -0.074031256
-0.065870143 0.32956499 -0.077313565
0.18571408 0.32956499 -0.072855651
0.21996808 0.32574797 -0.071231127
-0.14962758 0.35459501 -0.075809687
-0.035817966 0.35459501 -0.073960289
0.13230082 0.35459501 -0.071386322
-0.21067099 -0.33739856 -0.063008375
0.1599566 -0.337908 -0.062111285
0.22062252 -0.33256063 -0.062575549
0.23174536 -0.29558367 -0.064404279
0.219014 -0.23718259 -0.060373917
0.219014 -0.22578716 -0.064554505
0.219014 -0.079472154 -0.063892163
0.219014 -0.044371855 -0.06230158
-0.21067099 0.14134197 -0.067183085
0.21901399 0.16776446 -0.069409609
0.219014 0.18198085 -0.060402837
-0.21067099 0.2359504 -0.064053968
-0.072160557 0.32956499 -0.068818979
0.04566931 0.35459501 -0.069844276
0.082225233 0.35459501 -0.067414097
0.053866208 -0.337908 -0.058310151
0.092760786 -0.337908 -0.056021873
0.23339432 -0.29010183 -0.052362107
0.219014 -0.18726118 -0.05554609
0.219014 -0.12600577 -0.058970693
-0.21067099 0.071312167 -0.05547443
0.219014 0.18339005 -0.059153304
-0.21067099 0.20823111 -0.058898918
0.23987302 0.20379865 -0.059138577
-0.248216 0.34290686 -0.056883339
0.039626941 0.35459501 -0.051302757
-0.086965717 -0.337908 -0.047075864
0.051916834 -0.337908 -0.045857422
0.21904109 -0.337818 -0.040085617
0.219014 -0.27342513 -0.045713112
0.219014 -0.19086005 -0.046041414
-0.21067099 -0.079487503 -0.046947062
-0.21067098 0.1224735 -0.043697536
-0.21067099 0.27698764 -0.040897585
-0.21707417 0.32956499 -0.046279967
-0.0057303458 0.32956499 -0.040713333
-0.017901711 0.35459501 -0.049374193
-0.21067099 -0.33626622 -0.032728665
-0.21067101 -0.27620894 -0.032270879
0.219014 -0.20245935 -0.035401963
-0.21067098 0.1519623 -0.031910285
0.23905963 0.24938482 -0.036578372
0.23728211 0.26337379 -0.036388181
-0.21067099 0.30229306 -0.034785427
-0.21464689 0.35459501 -0.034131557
-0.0094535798 0.35459501 -0.036338314
-0.19410539 -0.337908 -0.029504888
-0.17710172 -0.337908 -0.025399353
-0.089784175 -0.337908 -0.020225018
0.19239643 -0.337908 -0.028725579
0.20863411 -0.337908 -0.028918933
-0.21067099 -0.31020051 -0.02530947
0.23987301 -0.16589007 -0.020027399
0.23987299 -0.090087846 -0.02190325
-0.21067098 -0.025856763 -0.0285272
-0.21067099 0.22330134 -0.027607489
0.21901399 0.25389391 -0.028667543
0.23736593 0.26303858 -0.02890972
0.22585171 0.30221447 -0.021357466
-0.19677754 0.32956499 -0.023246765
-0.1095729 0.32956499 -0.021060098
0.10443251 0.32956499 -0.026248042
-0.17516212 0.35459501 -0.023815051
-0.076799959 0.35459501 -0.020199787
-0.032025613 0.35459501 -0.025993578
0.097082704 0.35459501 -0.024556175
0.19430862 0.35459501 -0.021331763
-0.08878009 -0.337908 -0.018878222
-0.029204629 -0.337908 -0.010182336
0.007547535 -0.33790803 -0.017553642
0.22510509 -0.268657 -0.013346899
0.23987299 -0.23435435 -0.01123558
0.219014 -0.22173315 -0.012767732
0.219014 -0.16164079 -0.011997476
0.21901402 -0.14724056 -0.011604577
0.21901399 -0.13128313 -0.010910496
0.219014 -0.11927879 -0.012657411
-0.21067099 -0.019100942 -0.015978741
-0.21067101 0.2692354 -0.017897889
-0.21067099 0.27583987 -0.012627974
-0.23339795 0.32956499 -0.016231261
-0.15498197 0.32956499 -0.011693597
-0.13491176 0.32956499 -0.013584897
0.21969479 0.32684129 -0.013062824
0.01283168 0.35459501 -0.010037407
-0.15144435 -0.337908 -0.0063842619
-0.064796075 -0.33790803 -0.0075462833
0.065461501 -0.337908 -0.0026250519
0.21901402 -0.1663748 -0.0078730956
0.23987302 -0.092942171 -0.0043870485
0.219014 0.19695207 -0.0043771192
-0.21067098 0.26292038 -0.0049101263
0.23252559 0.27551901 -0.0096251331
-0.20684889 0.32956499 -0.006271109
-0.028730288 0.35459501 -0.0091764331
-0.11835223 -0.337908 0.0097388532
0.068262488 -0.337908 0.00062772259
0.22650525 -0.31300402 0.0057223961
0.23367617 -0.28916484 0.0014961511
0.219014 -0.24321911 0.00099965185
0.21901399 -0.22624622 0.0096185952
0.219014 -0.061473783 0.0062578912
-0.21067099 0.32006305 0.0094504207
-0.088607095 0.32956499 0.0096818507
-0.18819478 -0.337908 0.014236741
0.10389549 -0.337908 0.016110681
0.23470317 -0.28575066 0.015016064
-0.21067101 -0.13253173 0.014549471
-0.21067099 -0.10627485 0.016421864
-0.21067098 -0.0065665245 0.012559675
0.23766306 0.25829843 0.018114679
-0.23949914 0.32956499 0.016064659
-0.075446956 0.35459501 0.014731489
-0.012094133 0.35459501 0.011274346
-0.0046186047 0.35459501 0.011001371
0.21429905 0.35459501 0.01520934
0.219014 -0.32496002 0.022751249
0.21901399 -0.25209305 0.029301748
0.23987299 -0.20416097 0.025998436
-0.21067101 -0.17517805 0.026203997
0.21901402 -0.15419567 0.024025053
0.21901402 -0.12335184 0.027759489
-0.21067099 -0.10105993 0.022845609
0.21901399 0.20473856 0.025928251
0.219014 0.21710896 0.023467332
-0.21067101 0.22564739 0.026711293
0.23436019 0.26818132 0.023980457
0.22253424 0.31548405 0.025948411
0.026176468 0.32956499 0.023373477
0.11007681 0.32956499 0.024252295
0.219014 0.32256088 0.028714113
-0.22666585 0.35459501 0.027952254
-0.020354897 -0.33790797 0.032892495
-0.0022148117 -0.337908 0.034606837
0.1460804 -0.337908 0.033368513
-0.21067099 -0.25870639 0.039662108
0.23987302 -0.25601599 0.038610168
0.219014 -0.22517753 0.032935672
0.219014 -0.2018251 0.035418481
0.21901399 -0.12305178 0.033083893
-0.21067099 -0.11281101 0.031514123
-0.21067099 0.047005929 0.034503702
-0.21067098 0.14316836 0.030785471
-0.21067101 0.15621799 0.036702476
0.219014 0.16343416 0.032736462
0.21901399 0.20852099 0.034113377
0.21901402 0.21800707 0.03552942
0.21901402 0.22534809 0.03325735
-0.21067098 0.23293357 0.03651201
0.24121913 0.24074711 0.03094434
0.12359799 0.32956499 0.03590402
0.13148925 0.35459501 0.036468435
-0.084796004 -0.337908 0.046441808
0.0019681407 -0.337908 0.047500461
0.13567784 -0.337908 0.045469534
0.19591048 -0.337908 0.041687272
0.219014 -0.21237458 0.046564274
0.21901399 -0.15442023 0.049287606
0.21901402 -0.13506429 0.041065294
0.219014 -0.039634578 0.047708474
-0.21067098 0.064177051 0.041846678
-0.21067099 0.19719946 0.046311814
-0.21067099 0.26747894 0.048186511
0.23331946 0.28266084 0.040633742
-0.14094193 -0.337908 0.055237539
-0.099219181 -0.337908 0.055648033
-0.043460459 -0.337908 0.059053324
0.23497662 -0.28484166 0.052500449
0.219014 -0.14899436 0.055584144
0.23987299 -0.1330978 0.052043006
0.219014 -0.074794456 0.057293382
-0.21067101 0.098020971 0.05363588
0.21901402 0.21806405 0.055059835
0.23987299 0.2191567 0.051491141
-0.21067099 0.29873058 0.057482712
-0.21067099 0.30316317 0.05379454
-0.23421368 0.32956499 0.055066772
-0.24627303 0.3539412 0.056076616
0.14075264 0.35459501 0.054650784
0.16469011 -0.33790803 0.065645486
0.219014 -0.31601775 0.060455218
0.219014 -0.25323707 0.060309209
0.219014 -0.099143192 0.068646707
-0.21067099 -0.017258715 0.067346096
-0.21067099 0.02935675 0.060402401
0.21901399 0.1936577 0.068203188
0.22825879 0.229444 0.061675414
-0.17641786 0.32956499 0.060108602
0.17821139 0.32956499 0.069960862
0.12669276 0.35459501 0.062302876
-0.091284364 -0.33790797 0.077338591
-0.03898076 -0.337908 0.076314241
0.1553058 -0.337908 0.079247847
0.23987301 -0.22824508 0.074202552
0.219014 -0.06317284 0.075073309
0.10701665 0.35459501 0.070470333
0.22906792 -0.30448461 0.088502631
0.23987302 -0.13278355 0.084630162
0.21901402 -0.053767636 0.089745186
0.219014 0.13657539 0.080546722
0.24362011 0.2311434 0.089630798
-0.14320588 0.35459501 0.086331889
0.21901399 -0.16959237 0.096378371
0.219014 -0.14812498 0.096589871
0.21901399 -0.031603687 0.096486151
0.219014 -0.0035744384 0.09619686
0.219014 0.1238011 0.098025858
-0.0180481 0.32956499 0.092571184
0.030313361 0.32956499 0.098063134
0.1963947 0.32956499 0.096561357
0.219014 0.32147092 0.096125394
0.093700662 0.35459501 0.091911539
0.16965321 0.35459501 0.096486054
0.17110306 0.35459501 0.090823531
-0.19240892 -0.337908 0.10282353
-0.12730411 -0.33790803 0.10678665
0.094027638 -0.337908 0.10986063
-0.21067098 -0.18651241 0.10891168
0.219014 -0.17167068 0.10690244
0.21901402 -0.027753167 0.10372081
0.219014 0.0344579 0.10364836
0.23987299 0.18765697 0.10621527
0.219014 0.1972895 0.10791561
0.24030212 0.24441436 0.10725438
-0.21067098 0.25004715 0.10807622
0.219014 0.30295816 0.10136607
0.22026721 0.32455203 0.10298341
0.21901402 0.34588408 0.10399041
-0.21797813 0.35459501 0.10793747
0.16432965 0.35459501 0.10449695
-0.19898197 -0.337908 0.1126463
0.021561079 -0.337908 0.11815531
-0.21067098 -0.25366741 0.11789482
0.23987301 -0.14550062 0.1189667
-0.21067099 -0.088162802 0.11460625
0.219014 -0.067087568 0.11089543
0.21901399 -0.019643433 0.11652625
0.21901399 0.011817 0.11842749
0.219014 0.089751638 0.1137355
-0.21067099 0.13168119 0.11542463
0.219014 0.20788948 0.11443666
0.21901402 0.26126021 0.1140046
0.10164126 0.32956499 0.11307702
-0.2433947 0.35459501 0.11236268
-0.23992328 0.35459501 0.11345126
-0.21399553 0.35459501 0.11962588
-0.043040957 0.35459501 0.11143722
0.034924824 -0.337908 0.12990588
0.19837081 -0.337908 0.12606166
0.219014 -0.23409611 0.12790883
-0.21067099 -0.220493 0.12862431
0.21901402 -0.17217392 0.12714113
0.23987301 -0.17331891 0.12808375
0.23987302 -0.099219173 0.12938844
0.23987301 -0.058049321 0.123096
0.21901402 -0.030155204 0.12317523
0.219014 0.0040347204 0.12129834
-0.21067099 0.15645185 0.12017314
-0.21067099 0.16119066 0.12654085
-0.21067098 0.20205742 0.12871473
-0.00411034 0.32956499 0.12052918
0.22109783 0.32122958 0.12087722
-0.1291932 0.35459501 0.12942713
0.12376039 0.35459501 0.12951945
0.219014 -0.25639173 0.13223967
0.21901402 -0.1992704 0.13828169
0.21901402 -0.14822872 0.13087016
0.23987301 -0.13783862 0.13773553
-0.21067099 -0.12004403 0.1334303
0.21901399 0.15932667 0.13392405
0.219014 0.17825937 0.13928427
0.22240669 0.31599399 0.13092273
-0.23681962 0.32956499 0.1325115
-0.078060776 0.32956499 0.13515516
-0.0064331032 0.32956499 0.13288313
0.15708104 0.32956499 0.13420935
-0.059863254 -0.337908 0.14256915
0.21294099 -0.337908 0.14411275
0.219014 -0.26791927 0.14364733
0.219014 -0.21292664 0.14198467
0.23987302 -0.18286651 0.140095
0.23987301 -0.14800242 0.14500618
-0.21067098 -0.13645963 0.14959332
-0.21067098 -0.12904114 0.14684704
0.21901402 -0.089396261 0.1496965
0.219014 0.04726401 0.14349782
0.219014 0.10885005 0.14504702
0.21901402 0.11549304 0.14508528
0.219014 0.12034426 0.14494936
0.23987301 0.12071104 0.1418065
0.219014 0.24757615 0.14624269
0.22618586 0.30087698 0.14226335
-0.14366719 0.32956499 0.14906707
-0.10977842 0.35459501 0.14387597
-0.1807141 -0.33790803 0.15176846
0.026457079 -0.337908 0.15369736
-0.21067099 -0.17918803 0.15273272
0.21901399 -0.1437556 0.15773901
-0.21067099 -0.13277622 0.15580353
-0.21067099 -0.053343508 0.15537117
0.21901399 -0.040047772 0.15355609
0.23987301 0.031588241 0.15914233
-0.21067099 0.043044761 0.15731072
-0.21067101 0.066316411 0.15235516
0.23987302 0.10273129 0.15361032
-0.21067101 0.13677505 0.1579915
-0.21067099 0.19232729 0.15655565
0.21901399 0.20445313 0.15501022
0.23987301 0.21440491 0.15611538
0.219014 0.24356076 0.15501669
0.219014 0.25410485 0.15499794
-0.16656768 0.32956499 0.15433681
-0.1392052 0.32956499 0.15095815
-0.11465033 0.32956499 0.15124422
-0.16071689 0.35459501 0.15151016
-0.075268999 -0.337908 0.16465774
0.23987299 -0.20716172 0.16680987
0.21901402 -0.18926086 0.16482605
0.23987299 -0.10290797 0.16285287
0.21901402 0.15459494 0.16275701
-0.21067099 0.16783665 0.16990057
-0.21067099 0.20757931 0.16889817
0.23987302 0.21959189 0.16092618
0.003858529 0.32956499 0.16385463
0.059236504 0.32956499 0.16343024
0.1262922 0.32956499 0.16455771
0.219014 0.33155274 0.16478822
-0.21067099 -0.33724698 0.17985919
0.21776083 -0.337908 0.17933527
0.22191165 -0.328275 0.17243341
0.219014 -0.26866367 0.17501968
0.219014 -0.17810623 0.17746143
0.219014 -0.1563687 0.17944607
-0.21067099 -0.14599693 0.17993221
0.219014 -0.13021231 0.17889223
-0.21067101 -0.11886311 0.17018363
0.219014 -0.099821046 0.17286266
-0.21067099 -0.055104762 0.17604747
0.21901399 -0.048772238 0.17022064
0.219014 0.084747434 0.17054984
0.23987301 0.08622124 0.176339
0.23987301 0.21920133 0.17649513
-0.21067098 0.31059611 0.17419465
-0.13869506 0.32956499 0.17870289
0.034785055 0.35459501 0.17545442
0.10457684 0.35459501 0.17729159
-0.028550066 -0.337908 0.18588239
0.077280484 -0.337908 0.18258394
0.10598539 -0.337908 0.18013816
0.23342015 -0.29001594 0.18201873
0.219014 -0.25981826 0.18102497
0.219014 -0.17506365 0.18932107
0.219014 -0.1067207 0.18879153
-0.21067101 -0.089740813 0.18972588
0.219014 -0.037248395 0.18043703
0.219014 0.054902591 0.18981457
0.23987301 0.18314227 0.18175998
0.21901402 0.20608176 0.1834361
0.219014 0.21786082 0.18936224
0.219014 0.24220853 0.18547782
0.21901399 0.31632754 0.18381634
-0.071413107 0.32956499 0.18054102
-0.012379741 0.32956499 0.18659014
-0.0036468878 0.32956499 0.18641457
0.13402176 0.32956499 0.1870314
-0.12496343 0.35459501 0.18594798
0.10775408 0.35459501 0.18991949
0.16791071 0.35459501 0.1821197
0.18089725 -0.35179445 0.19606999
-0.21067099 -0.33266255 0.19417502
0.219014 -0.32279804 0.19385493
0.23987301 -0.1772294 0.1982985
0.23987301 -0.15678746 0.19687948
0.21901399 -0.10565332 0.19304997
-0.21067099 -0.07491374 0.19398698
-0.21067099 -0.036666483 0.19042417
-0.21067099 -0.015350722 0.19233474
-0.21067099 0.027093798 0.19216259
0.21901399 0.047858838 0.19886859
0.23987302 0.13699985 0.19810525
0.219014 0.15903744 0.19864231
0.23987301 0.18233575 0.19040088
0.219014 0.23140493 0.19878356
0.24205923 0.23738645 0.19108221
-0.21067099 0.27388421 0.19764729
0.16221604 0.32956499 0.19364032
0.18608955 0.32956499 0.19204693
-0.20792846 0.35459501 0.19638819
0.0066459635 -0.337908 0.20748645
0.21901399 -0.24715869 0.20289823
0.23987302 -0.17203736 0.20982812
0.219014 -0.13899539 0.2057461
0.21901402 -0.11194298 0.2076408
0.23987302 -0.03758458 0.20380464
0.219014 0.12819494 0.20952849
0.23987299 0.16454498 0.2061065
0.219014 0.18215209 0.2086354
0.219014 0.25715402 0.20055713
-0.248216 0.3404398 0.20713903
0.21901399 -0.22608399 0.21456598
0.219014 -0.21595876 0.21369293
0.21901402 -0.20696375 0.21772316
0.21901399 -0.071431421 0.21070272
0.21901399 0.1460792 0.21338816
-0.21067101 0.16131732 0.21241322
0.22125706 0.229444 0.21886984
-0.16792014 0.35459501 0.21524236
0.15490322 -0.337908 0.22096343
0.21901399 -0.19787751 0.22579969
0.23987299 -0.14284334 0.22943014
-0.21067098 -0.1188328 0.22301269
0.21901399 -0.065133065 0.22827762
0.219014 -0.035458438 0.2229687
0.21901399 0.056079783 0.22310765
-0.21067098 0.13903455 0.22265396
0.219014 0.13520691 0.22563094
-0.21067099 0.21243872 0.22146727
-0.21067099 0.30391341 0.22920367
0.069077328 0.32956499 0.2227284
0.14684027 0.32956499 0.22814605
-0.067113236 0.35459501 0.22402667
-0.049660243 0.35459501 0.22186221
0.050127804 0.35459501 0.2218174
-0.15862578 -0.337908 0.23287991
0.219014 -0.31646931 0.2329669
0.21901402 -0.28621832 0.23889333
0.21901402 -0.27598998 0.23098432
0.219014 -0.2376281 0.23872015
-0.21067099 -0.21912295 0.23239152
0.23987302 -0.18958767 0.23685671
0.219014 -0.17438653 0.23776647
0.23987301 -0.17684834 0.23143816
-0.21067099 -0.12212575 0.23306793
0.21901399 0.01215902 0.23808309
0.23987299 0.061264135 0.23286612
0.23987302 0.11129793 0.23787981
-0.21067099 0.14071897 0.23256312
-0.21067099 0.1645402 0.23656085
0.21901399 0.20631567 0.23441891
-0.04441065 0.32956499 0.23877239
-0.018965177 0.32956499 0.23582369
0.045220405 0.32956499 0.23285699
0.11694337 0.32956499 0.23078544
0.18394887 0.32956499 0.23284906
0.059148505 0.35459501 0.23605028
-0.066138588 -0.337908 0.24333555
-0.21067099 -0.27265215 0.24900649
0.23987301 -0.10972493 0.24247608
-0.21067099 -0.094498783 0.24060357
0.23987301 0.11050193 0.24184275
0.21901399 0.13269559 0.24709669
0.21901402 0.140466 0.24967983
0.219014 0.16263685 0.24817382
0.23987301 0.2200494 0.24648161
-0.18183556 0.32956499 0.24034598
-0.063088015 0.32956499 0.2494954
-0.055503502 0.32956499 0.24569765
0.17636296 0.32956499 0.24045917
-0.18462043 0.35455737 0.24668425
0.057407677 -0.3350417 0.25030199
0.20645356 -0.33339217 0.25030199
0.090220451 -0.32258907 0.25030199
0.098022409 -0.3173033 0.25030199
0.11631258 -0.3115418 0.25030199
-0.15323281 -0.30328509 0.25030199
-0.11964357 -0.30953985 0.25030199
-0.1292001 -0.2887488 0.25030199
0.22897136 -0.28704274 0.25030199
0.013967276 -0.27827305 0.25030199
0.11730464 -0.27378789 0.25030199
0.012748085 -0.26660502 0.25030199
-0.091241241 -0.25491464 0.25030196
-0.039431132 -0.25703123 0.25030199
0.04651577 -0.25268564 0.25030199
0.05997631 -0.23886362 0.25030199
-0.13828845 -0.22838502 0.25030199
0.068607032 -0.22281235 0.25030199
0.07359723 -0.2232738 0.25030199
0.21207041 -0.22771263 0.25030199
-0.089182876 -0.21053463 0.25030199
0.074428342 -0.21132305 0.25030199
0.16258508 -0.20482375 0.25030199
0.23707236 -0.20383574 0.25030199
0.046204034 -0.19783461 0.25030199
-0.079485804 -0.18237309 0.25030199
-0.16834244 -0.17899431 0.25030199
0.075011089 -0.17081751 0.25030199
0.096935824 -0.16791356 0.25030199
-0.20039126 -0.153164 0.25030199
-0.10345418 -0.1595037 0.25030199
0.071232341 -0.14335047 0.25030199
0.086252034 -0.14639182 0.25030199
-0.038660571 -0.12776771 0.25030199
0.070115954 -0.12415446 0.25030199
0.10514966 -0.12085283 0.25030199
0.17710611 -0.11604479 0.25030199
-0.14298837 -0.10244061 0.25030199
0.027052514 -0.10959479 0.25030199
-0.056293875 -0.093066484 0.25030199
0.012202494 -0.082373604 0.25030199
0.13197443 -0.082470134 0.25030199
-0.028727628 -0.074656233 0.25030199
0.0083973315 -0.066861324 0.25030199
0.14321372 -0.067837298 0.25030199
0.1749323 -0.062013634 0.25030196
0.20524263 -0.068345025 0.25030199
-0.17372197 -0.0556923 0.25030199
0.08730533 -0.051524527 0.25030199
0.10144304 -0.05913277 0.25030199
0.219668 -0.050286785 0.25030199
-0.18797907 -0.049157307 0.25030202
-0.17078876 -0.04061868 0.25030199
-0.15339607 -0.047980025 0.25030199
0.19296671 -0.048293263 0.25030199
0.024356984 -0.030758485 0.25030199
0.15642384 -0.034496032 0.25030199
0.20303968 -0.03002052 0.25030199
-0.089137167 -0.026606761 0.25030199
0.20261949 -0.028250396 0.25030199
0.21164232 -0.026993349 0.25030199
-0.12948433 -0.015807606 0.25030199
0.079511106 -0.0016225763 0.25030199
0.15769333 -0.0035666302 0.25030199
0.054168906 0.0060268193 0.25030199
0.074960336 0.0029719975 0.25030199
0.11990383 0.011390731 0.25030199
0.02201877 0.026021473 0.25030199
0.23875207 0.027299419 0.25030199
0.013322672 0.030065231 0.25030199
0.093496293 0.032835968 0.25030199
0.22689892 0.037318133 0.25030199
-0.20809615 0.04932873 0.25030199
0.096082173 0.048556119 0.25030199
0.14097627 0.051324993 0.25030199
0.21874082 0.059711225 0.25030202
0.17898756 0.067250989 0.25030199
0.1924061 0.087885663 0.25030199
0.18560436 0.091649972 0.25030199
-0.039765336 0.10014473 0.25030199
-0.17870593 0.11551961 0.25030199
-0.1387455 0.11098813 0.25030199
-0.076918907 0.11390544 0.25030199
0.14236659 0.1241177 0.25030199
0.015826155 0.13304162 0.25030199
0.14419284 0.13725641 0.25030199
0.17679983 0.13662554 0.25030199
0.039266292 0.14881304 0.25030199
0.15741348 0.14989814 0.25030199
0.18272167 0.15023491 0.25030199
-0.15117329 0.16949834 0.25030199
-0.15220535 0.17560203 0.25030199
0.14018464 0.17882659 0.25030199
0.13632873 0.18072852 0.25030199
-0.090603843 0.20193446 0.25030199
0.036075469 0.20031476 0.25030199
-0.089777939 0.2150853 0.25030199
-0.15472795 0.23086661 0.25030199
-0.059706386 0.24038652 0.25030199
0.010730468 0.24479593 0.25030199
0.054170497 0.24872923 0.25030199
-0.13620396 0.25630787 0.25030199
-0.087814711 0.27378649 0.25030199
-0.06357678 0.2771095 0.25030199
-0.025969349 0.27573222 0.25030199
0.23326027 0.27258164 0.25023586
-0.13166504 0.28278068 0.25030199
-0.032934848 0.29747969 0.25030199
0.019528627 0.29480153 0.25030199
-0.16540727 0.30663198 0.25030199
-0.064982429 0.31842628 0.25030199
0.036079042 0.31840092 0.25030199
0.061509624 0.31614047 0.25030199
0.10646802 0.31384879 0.25030199
0.21988316 0.3104974 0.25030199
-0.18238515 0.3264381 0.25030199
0.020529978 0.32702988 0.25030199
0.063663051 0.32287192 0.25030199
0.1676489 0.32931745 0.25030199
0.19778001 0.32592636 0.25030199
-0.15044656 0.33854741 0.25030199
-0.13379547 0.33791304 0.25030199
-0.093215786 0.33333522 0.25030199
-0.046517465 0.33865955 0.25030199
-0.060575057 0.34923109 0.25030199
0.013603054 0.34159708 0.25030199
0.16193908 0.35028905 0.25030199
