# .PCD v0.7 - Point Cloud Data file format
VERSION 0.7
FIELDS x y z
SIZE 4 4 4
TYPE F F F
COUNT 1 1 1
WIDTH 975
HEIGHT 1
VIEWPOINT 0 0 0 1 0 0 0
POINTS 975
DATA ascii
-0.18317401 -0.357438 -0.24626154
-0.011086121 -0.35210368 -0.247251
-0.20814289 -0.34727395 -0.247251
-0.073955052 -0.34429669 -0.247251
0.052198209 -0.34560782 -0.247251
-0.14401087 -0.33919856 -0.247251
0.13871756 -0.3326976 -0.247251
0.19867629 -0.33394551 -0.247251
0.20438111 -0.33953214 -0.247251
-0.13800514 -0.32758176 -0.247251
0.025189914 -0.32023692 -0.247251
0.13262594 -0.32699597 -0.247251
0.15259755 -0.32848126 -0.247251
0.18428616 -0.32562432 -0.247251
-0.24362713 -0.31935647 -0.247251
-0.18067802 -0.31161276 -0.247251
0.18067166 -0.31805184 -0.247251
-0.13615303 -0.30598405 -0.247251
0.057230383 -0.30253184 -0.247251
-0.12034039 -0.29891384 -0.247251
0.015189849 -0.29474896 -0.247251
0.2166708 -0.29475769 -0.247251
-0.22739045 -0.28223252 -0.247251
-0.03300073 -0.28604025 -0.247251
0.08380904 -0.28816777 -0.247251
-0.068851069 -0.27732503 -0.247251
-0.082914889 -0.2654992 -0.247251
0.1932523 -0.26066834 -0.247251
-0.1046236 -0.25181302 -0.247251
-0.23921005 -0.24221556 -0.247251
-0.22843824 -0.24940783 -0.247251
-0.11212673 -0.24235053 -0.247251
-0.097340323 -0.24234328 -0.247251
0.14853585 -0.24061908 -0.247251
0.18868656 -0.24279588 -0.247251
-0.17819805 -0.23043251 -0.247251
-0.15590182 -0.23562719 -0.247251
0.055249859 -0.23239629 -0.247251
0.10002644 -0.23363087 -0.247251
-0.17972919 -0.22697137 -0.247251
-0.14494252 -0.22322956 -0.247251
-0.10175639 -0.22537819 -0.247251
-0.03746561 -0.21932414 -0.247251
0.07199958 -0.21835408 -0.247251
-0.18715541 -0.20298481 -0.247251
-0.17098269 -0.20817983 -0.247251
-0.068625197 -0.20684786 -0.24725102
0.039532349 -0.2083997 -0.247251
-0.10688343 -0.19770816 -0.247251
-0.073083095 -0.19474003 -0.247251
0.16936582 -0.1949514 -0.247251
0.20693193 -0.19458471 -0.247251
0.21837434 -0.19166887 -0.247251
-0.082497589 -0.18822698 -0.247251
0.032977946 -0.17076524 -0.247251
-0.0793529 -0.16706528 -0.247251
-0.031913564 -0.1651333 -0.247251
0.042802371 -0.1651939 -0.247251
0.16991538 -0.16388515 -0.247251
0.22335586 -0.16813189 -0.247251
0.040849335 -0.15158235 -0.247251
0.113565 -0.1585452 -0.247251
-0.1417082 -0.14909488 -0.247251
0.24719301 -0.14341345 -0.24344011
-0.24536042 -0.13263533 -0.247251
0.036272973 -0.13734701 -0.247251
0.047709916 -0.13608927 -0.247251
0.24542382 -0.13337818 -0.247251
-0.10433663 -0.12536356 -0.247251
-0.026244029 -0.12472764 -0.247251
0.1966227 -0.12848964 -0.247251
-0.09198992 -0.11799305 -0.247251
0.15603895 -0.11401851 -0.247251
0.24719301 -0.11814685 -0.24622591
0.20364267 -0.10889375 -0.247251
-0.14511161 -0.093327098 -0.247251
-0.21293747 -0.082805946 -0.247251
0.067353085 -0.080170788 -0.247251
0.10476311 -0.087068319 -0.247251
0.22139248 -0.080432966 -0.247251
0.23347062 -0.080161847 -0.247251
-0.091466151 -0.077412017 -0.247251
-0.042315297 -0.079051994 -0.247251
0.011248931 -0.075243272 -0.247251
-0.11038646 -0.060753137 -0.247251
0.017856456 -0.066704743 -0.247251
0.029687487 -0.064232603 -0.247251
0.091310725 -0.063917309 -0.247251
0.11904623 -0.067300104 -0.247251
0.13224551 -0.066758059 -0.247251
0.17511249 -0.065888032 -0.247251
-0.14141086 -0.057940498 -0.247251
0.067822084 -0.055836864 -0.247251
-0.12333398 -0.04255759 -0.247251
0.099621393 -0.045161638 -0.247251
-0.16543949 -0.03420037 -0.247251
-0.15060569 -0.035653524 -0.247251
0.062787697 -0.039239138 -0.247251
-0.12294161 -0.021999009 -0.247251
-0.11375303 -0.023037098 -0.247251
0.014687443 -0.023863276 -0.247251
0.11188032 -0.028541133 -0.247251
-0.21109779 -0.0070518907 -0.247251
-0.070803262 -4.3906271e-05 -0.247251
0.02945251 -0.0062981695 -0.247251
0.15075302 -0.0043288842 -0.247251
-0.19030824 0.0060286671 -0.247251
-0.12523028 0.0058450401 -0.247251
-0.037912764 0.0083870515 -0.247251
-0.24718936 0.01178211 -0.24285236
-0.028306905 0.010113377 -0.247251
0.025466893 0.013600621 -0.247251
0.093997464 0.015074804 -0.247251
0.18070568 0.015013423 -0.247251
0.027072068 0.02991838 -0.247251
0.070797957 0.026268132 -0.247251
-0.20852399 0.037733778 -0.247251
-0.22061372 0.045117646 -0.247251
-0.15233251 0.048221678 -0.247251
0.018885888 0.044150926 -0.247251
-0.14795305 0.051829576 -0.247251
-0.1168554 0.052511223 -0.247251
-0.030052714 0.053279784 -0.247251
-0.020054432 0.056687705 -0.247251
0.14916182 0.054659985 -0.247251
-0.24106364 0.065141089 -0.247251
-0.14185014 0.066575989 -0.247251
-0.027719997 0.068600804 -0.247251
0.097230405 0.065726534 -0.247251
0.17171322 0.068312734 -0.247251
0.11933007 0.072073705 -0.247251
0.14731169 0.075972922 -0.247251
-0.16174679 0.084165789 -0.247251
0.089376882 0.081961222 -0.247251
0.19443361 0.083385125 -0.247251
-0.21506211 0.094563358 -0.247251
-0.10301557 0.10007829 -0.247251
-0.078693151 0.10986876 -0.247251
-0.24262977 0.11775368 -0.247251
-0.21126696 0.11156086 -0.247251
-0.13975732 0.11556119 -0.24725102
-0.21029477 0.12693077 -0.247251
-0.1555928 0.12259713 -0.247251
-0.11979257 0.12372529 -0.247251
0.23989952 0.12999976 -0.247251
-0.061142594 0.13386557 -0.247251
-0.040774629 0.13729766 -0.247251
-0.039000396 0.13979302 -0.247251
0.10346127 0.13344558 -0.247251
0.12225473 0.13033542 -0.247251
-0.023286521 0.14112718 -0.247251
-0.20808294 0.15631476 -0.247251
0.014995247 0.15224202 -0.24725099
0.076836631 0.15206008 -0.247251
0.16253239 0.15643482 -0.247251
-0.20881236 0.16316906 -0.247251
-0.12815204 0.16301276 -0.247251
-0.10450298 0.16841537 -0.24725099
0.025059998 0.16153991 -0.247251
-0.16407023 0.17668501 -0.247251
-0.019770063 0.17805943 -0.247251
0.13729735 0.17834723 -0.247251
-0.17026427 0.18244898 -0.247251
-0.087267518 0.18312754 -0.247251
0.24233733 0.18151213 -0.247251
-0.14647247 0.19028014 -0.247251
0.018987715 0.19783434 -0.247251
0.068826124 0.19327833 -0.247251
-0.060055248 0.20355359 -0.247251
0.0054196194 0.20126295 -0.247251
0.10129377 0.20324522 -0.247251
0.074337721 0.21070495 -0.247251
-0.15207261 0.22399347 -0.24725102
-0.2102662 0.23912409 -0.247251
-0.009475816 0.23645422 -0.24695665
-0.17787035 0.24593779 -0.24299102
-0.23664677 0.26874042 -0.247251
-0.24718669 0.28143603 -0.24597131
-0.23391788 0.28906047 -0.247251
-0.21465757 0.28668737 -0.247251
-0.2052657 0.28226563 -0.24225327
-0.24636129 0.29413643 -0.247251
-0.22771853 0.30025324 -0.247251
-0.22195913 0.31707627 -0.247251
-0.19631445 -0.357438 -0.23756582
0.24719301 -0.045823239 -0.23174711
-0.24718855 0.092438482 -0.23767081
-0.24718827 0.1217471 -0.23022701
-0.24718754 0.19503093 -0.23367736
-0.028655179 0.23753434 -0.2342909
-0.0096983984 0.23646675 -0.23862672
-0.14880393 0.24430084 -0.23960105
-0.20444562 0.2751925 -0.2359814
-0.2163551 0.35743257 -0.23627111
-0.15309124 -0.357438 -0.22285047
0.075822867 -0.357438 -0.22554141
0.1352879 -0.357438 -0.22479108
0.1696509 -0.357438 -0.22514871
0.21333092 -0.357438 -0.22921751
-0.24719271 -0.33022499 -0.22640985
-0.24719253 -0.30984953 -0.22529964
0.24719299 -0.055955358 -0.22512296
0.24719298 -0.0056791678 -0.22157177
-0.2471883 0.11825368 -0.22029433
0.24719301 0.12241866 -0.22025582
-0.24718773 0.17541447 -0.22972836
-0.24718726 0.22464851 -0.22955886
0.13629296 0.22824486 -0.22615659
0.038756914 0.23373786 -0.2211014
0.068037741 0.23208883 -0.22330916
-0.084451899 0.2406767 -0.2279776
-0.20255874 0.25891894 -0.22816882
-0.20946325 0.31846797 -0.22089799
-0.032985508 -0.357438 -0.21398449
-0.24719238 -0.29583573 -0.21406579
-0.24719101 -0.15531 -0.21993998
-0.24719064 -0.11757418 -0.21826622
0.24719298 -0.10258128 -0.21440519
0.24719299 -0.089034177 -0.21635267
0.24719298 0.028828889 -0.21713458
0.24719299 0.12929995 -0.21031627
0.14572491 0.22771367 -0.21805932
0.04251064 0.23352647 -0.21085167
-0.24718684 0.26719484 -0.21876775
-0.24718641 0.31032613 -0.21944299
-0.19176181 -0.357438 -0.20901571
0.24719299 -0.34847137 -0.20820871
0.24719299 -0.27766836 -0.20982786
0.24719299 -0.18237668 -0.20011643
0.24719301 -0.11063307 -0.20988974
0.24719301 -0.085553683 -0.20220298
-0.24718979 -0.031962708 -0.20783088
0.24719299 0.15429474 -0.20675623
-0.24718724 0.22576863 -0.20982406
0.2101683 0.22254212 -0.2009497
0.015966451 0.23502137 -0.20051661
0.066690966 0.23216468 -0.20909256
-0.20798114 0.30568522 -0.20800878
-0.12225479 -0.357438 -0.19773304
0.038947921 -0.357438 -0.19086289
0.18176128 -0.357438 -0.19675931
-0.24719284 -0.34202826 -0.19523811
-0.24719156 -0.21207038 -0.19713058
0.24719301 -0.20331505 -0.1913607
0.24719301 -0.19778936 -0.19281733
0.24719301 -0.18875951 -0.19855404
0.24719298 -0.056045495 -0.1996904
-0.24718946 0.0012219995 -0.19162244
0.24719298 0.07110177 -0.192164
0.24201655 0.20340486 -0.1900108
-0.24718735 0.21492171 -0.1964948
0.17261203 0.22619948 -0.19341066
0.016724497 0.23497868 -0.19232793
-0.24718684 0.26593065 -0.19242309
-0.20833035 0.30869704 -0.19905029
-0.24718606 0.34509927 -0.19180818
-0.17565548 -0.357438 -0.18754587
0.24046776 -0.35743797 -0.18751153
0.24719299 -0.075726122 -0.18951517
-0.2471894 0.008472681 -0.18999034
-0.24718915 0.031085938 -0.18810306
-0.24718861 0.0873909 -0.18741328
-0.24718843 0.10492659 -0.18316142
-0.24718836 0.11201934 -0.18982029
0.24719299 0.13741894 -0.18880315
0.24719299 0.18037246 -0.1894981
0.097098112 0.23045224 -0.18951693
-0.15537043 0.24467066 -0.18831751
-0.21362637 0.35437346 -0.18294916
-0.16364996 -0.35743803 -0.17905289
0.18798849 -0.357438 -0.17285478
-0.24719214 -0.26990801 -0.17207134
0.24719301 -0.14755242 -0.17068952
-0.24719001 -0.054307565 -0.17773896
-0.24718897 0.050646566 -0.17390159
0.23123074 0.21258943 -0.17634895
-0.24718723 0.22733887 -0.17284863
0.0016432181 0.23582801 -0.17639011
-0.24718601 0.34996274 -0.17766684
-0.024363928 -0.35743803 -0.16744962
0.022667967 -0.357438 -0.16127156
0.18372315 -0.357438 -0.16881543
-0.24719173 -0.22802711 -0.16683942
-0.2471913 -0.18586528 -0.1678296
0.24719299 -0.14160281 -0.16741055
0.24719301 -0.11899228 -0.16823451
-0.24719043 -0.099144116 -0.16500475
0.24719301 -0.06622009 -0.16725755
-0.2471896 -0.011732824 -0.16810922
-0.24718809 0.14067668 -0.16006365
-0.088163689 0.24088573 -0.16058345
-0.20180598 0.25242662 -0.1604223
-0.20477909 0.27806848 -0.16601332
-0.20588234 0.28758398 -0.16175196
-0.22779435 0.35743523 -0.16478734
-0.18187323 -0.357438 -0.15845899
-0.14442621 -0.357438 -0.1576955
-0.12811802 -0.357438 -0.15159713
-0.11391029 -0.357438 -0.15854321
-0.071648136 -0.35743803 -0.15400219
-0.24719155 -0.21184665 -0.15464737
-0.24719098 -0.15291296 -0.1560657
0.24719299 -0.15022823 -0.15225947
0.24719301 -0.12110768 -0.15742821
-0.24719024 -0.078165531 -0.15049808
0.24719299 0.0061762258 -0.15660742
-0.24718899 0.048778091 -0.15347731
-0.24718815 0.13304587 -0.15390441
-0.2471877 0.17823903 -0.15539323
-0.24718767 0.18228275 -0.15087104
0.18009928 0.2257778 -0.15362932
0.008169882 0.23546046 -0.15247393
-0.13506031 -0.35743797 -0.14876047
0.024616919 -0.35743803 -0.14502111
0.24719299 -0.22599468 -0.14909953
-0.24719071 -0.12512496 -0.14244753
0.24719299 -0.0012589768 -0.14306629
-0.24718818 0.12908342 -0.14505711
-0.24718812 0.13695347 -0.1477699
-0.20460291 0.27654922 -0.1424946
0.24719299 -0.19167407 -0.13162206
0.24719298 -0.1594346 -0.13105631
-0.24718909 0.039001778 -0.1318039
-0.24718755 0.19300763 -0.1309025
0.18164496 0.22569075 -0.13925129
-0.050300527 0.23875336 -0.13520563
0.070716023 0.231938 -0.13077018
-0.21227244 0.34269631 -0.13015278
0.028311465 -0.35743803 -0.12649179
0.24719301 -0.33073682 -0.12132294
0.24719299 -0.21096414 -0.12749878
-0.24719124 -0.17881475 -0.12499844
0.24719298 -0.14702944 -0.12654459
0.24719299 -0.052320801 -0.1203514
0.22736053 0.21508762 -0.12576996
-0.24718723 0.22610198 -0.12705648
0.12963858 0.22861962 -0.12736425
0.14406331 0.22780727 -0.12842715
0.015986204 0.23502025 -0.12990111
0.056801945 0.23272161 -0.12733601
-0.16136764 0.24500841 -0.12175279
-0.24719298 -0.35702187 -0.11870832
-0.18153319 -0.357438 -0.11619548
-0.12575889 -0.357438 -0.1133946
-0.11535808 -0.357438 -0.11118285
-0.044189297 -0.35743797 -0.11328633
0.24719299 -0.28882703 -0.11200803
-0.24719092 -0.14750902 -0.11401768
0.24719298 -0.10861874 -0.11984352
0.24719298 0.025015462 -0.11004679
0.24719301 0.054202043 -0.11576598
-0.24718863 0.085716844 -0.11320929
0.24719299 0.089384213 -0.11022401
0.24719301 0.15298891 -0.11869317
-0.2471869 0.26129568 -0.11645778
-0.24564925 0.35354859 -0.11828926
0.12858722 -0.357438 -0.10431914
0.22158019 -0.35743803 -0.10906354
-0.24719249 -0.30735892 -0.10684802
-0.24719216 -0.27307993 -0.10675885
-0.24719118 -0.17311597 -0.10914212
0.24719299 -0.0040113926 -0.10434085
-0.24718943 0.0036101937 -0.10272285
-0.24718758 0.19005297 -0.10758412
-0.18847929 0.24653527 -0.1003494
-0.091373891 0.24106652 -0.10465908
-0.17593431 -0.357438 -0.09208408
-0.15219913 -0.357438 -0.097750902
0.11973207 -0.357438 -0.099209405
-0.24719277 -0.33465144 -0.098560549
0.24719298 -0.26449165 -0.093691312
-0.24719176 -0.23260634 -0.092278488
0.24719299 -0.1119256 -0.095722832
-0.24718922 0.023972467 -0.094636828
0.018914439 0.23485535 -0.098152362
0.046439558 0.23330519 -0.095893137
-0.18138084 0.2461355 -0.094175696
-0.11398094 0.2423397 -0.096067801
-0.21335125 0.35200062 -0.092330158
-0.1562278 -0.357438 -0.080456771
-0.012496643 -0.357438 -0.087446839
0.24719301 -0.27788997 -0.083137251
0.24719299 -0.25564146 -0.088043392
-0.24719122 -0.17894101 -0.088297024
0.24719299 -0.16913167 -0.089665189
0.24719298 -0.090678446 -0.082829237
-0.24718976 -0.029270574 -0.086986393
0.24719298 -0.029256448 -0.084396921
0.24719298 0.10057432 -0.085688107
0.22836381 0.21446207 -0.083485335
-0.037691627 0.23804326 -0.083603762
-0.20065919 0.2472212 -0.087197624
-0.19298673 0.2467891 -0.089598797
-0.24718629 0.32221624 -0.087846585
-0.24718606 0.34459811 -0.080607265
-0.1958355 -0.357438 -0.071396716
0.10922685 -0.357438 -0.076183341
-0.24719247 -0.30675408 -0.079215422
0.24719299 -0.27091241 -0.070138879
0.24719301 -0.22177699 -0.072674438
-0.24719059 -0.11308681 -0.077405475
0.24719299 0.057209909 -0.079845458
0.24719298 0.11032537 -0.070021898
0.11203066 0.22961126 -0.079814702
0.09886957 0.23035246 -0.0798444
-0.088343382 0.24089585 -0.078157902
-0.20595944 0.28824875 -0.07901106
-0.20714819 0.29850149 -0.071711458
0.12406687 -0.357438 -0.063438304
0.24719298 -0.31429437 -0.064274639
0.24719301 -0.1187695 -0.069531493
0.24719298 -0.0012721047 -0.064947844
-0.24718936 0.010496814 -0.066525191
0.22779477 0.21481687 -0.061208516
-0.070113517 0.23986918 -0.060066063
-0.041516677 0.23825869 -0.065759651
-0.0036518369 0.23612623 -0.060131967
0.053702764 0.23289615 -0.066690028
-0.20143978 0.24926832 -0.063619249
-0.20219111 0.25574839 -0.061812803
-0.24718606 0.34415114 -0.068676837
-0.15633251 -0.357438 -0.051057883
-0.019826068 -0.357438 -0.055502169
0.17907958 -0.357438 -0.059803519
0.24719301 -0.35117638 -0.05637911
-0.24719268 -0.32489279 -0.052982107
0.24719298 -0.26081747 -0.052313622
-0.24719124 -0.18044135 -0.057532139
-0.24719052 -0.10748801 -0.053138811
-0.24719033 -0.087556526 -0.057472162
-0.24718985 -0.038956106 -0.059666142
0.24719301 0.035110351 -0.052658826
0.24719301 0.10431283 -0.057349823
0.12943178 0.22863126 -0.052490313
0.14256524 0.22789162 -0.053218871
-0.20404705 0.27175507 -0.051536411
-0.24605528 0.35300583 -0.057338655
0.017790079 -0.357438 -0.041413438
-0.24719286 -0.34412101 -0.041336596
-0.24719235 -0.29157281 -0.047599159
0.24719298 -0.14273721 -0.044521615
0.24719299 0.059948526 -0.041002393
0.24719301 0.098037764 -0.044162616
0.24719301 0.10280482 -0.04571585
0.24719298 0.18302163 -0.049205124
0.079151936 0.23146293 -0.040259812
-0.23385784 -0.357438 -0.039183617
-0.20887884 -0.35743803 -0.036621593
-0.015033754 -0.357438 -0.039731566
0.076045364 -0.357438 -0.037219904
0.19133708 -0.357438 -0.039480068
0.23363067 -0.357438 -0.036602758
-0.24719292 -0.34970146 -0.032432914
-0.24719189 -0.24467546 -0.03041023
-0.24719183 -0.23920108 -0.036255099
0.24719298 -0.23344143 -0.038895514
-0.24719101 -0.15754645 -0.036066946
0.24719298 -0.14456683 -0.038554408
-0.24719004 -0.057793368 -0.035733338
-0.24718836 0.1118654 -0.031129986
0.23615526 0.2088422 -0.03415595
-0.24718682 0.26664141 -0.039178647
-0.20859988 0.3110216 -0.039597001
-0.14517204 -0.35743803 -0.022547893
-0.017896578 -0.357438 -0.024394825
0.18780905 -0.35743797 -0.028318793
0.24719299 -0.301458 -0.020860486
-0.24719045 -0.099306047 -0.021462522
0.24719299 -0.094408423 -0.027735971
0.24719298 -0.068686336 -0.029561721
0.24719301 0.011424914 -0.02869886
-0.24718848 0.099399015 -0.022567132
-0.24718817 0.13218287 -0.025884595
-0.24718766 0.18310556 -0.02557138
0.10280395 0.2301309 -0.028374229
-0.18112053 0.24612084 -0.029744476
-0.20580561 -0.357438 -0.019152842
-0.19030043 -0.357438 -0.017750353
0.24719299 -0.33680952 -0.014034063
0.24719298 -0.17729053 -0.014416754
0.24719298 -0.10987813 -0.012324987
0.24719298 -0.033457875 -0.01905039
-0.24718948 -0.00084619224 -0.012406588
0.24719301 0.028341739 -0.014351521
-0.24718843 0.10493137 -0.016221683
-0.24718817 0.1327865 -0.014372125
-0.24718764 0.18457554 -0.012204293
0.13048473 0.22857198 -0.014986843
0.16558641 0.22659513 -0.01056888
0.033735462 0.23402067 -0.018313082
0.053864077 0.23288706 -0.015225274
-0.2471869 0.26054385 -0.01904797
-0.13740945 -0.357438 -0.0080570281
-0.24719289 -0.34735769 -0.0093352273
0.24719299 -0.10304762 -0.00027194526
0.24719301 0.037591565 -0.0017460287
-0.24718875 0.074097112 -0.0089977682
0.24719298 0.14467891 -0.0029403567
-0.24718721 0.22838461 -0.00036018342
-0.050857641 0.23878475 -0.0077188313
0.067145318 -0.357438 0.0054783523
-0.24719267 -0.32462886 0.0057096817
-0.24719128 -0.18425947 0.0032744855
0.24719298 -0.0310321 0.0086787343
0.24719301 -0.024796009 0.0030262433
0.24474236 0.20042087 0.0033102743
-0.10604336 0.24189267 0.0062512457
-0.20285949 0.26151285 0.0056526512
0.090919584 -0.357438 0.017653458
0.12889566 -0.357438 0.011162803
0.24719299 -0.34791857 0.017522432
0.24719301 -0.050700568 0.018776923
0.24719298 0.10662541 0.011897981
0.24719301 0.1586498 0.017044932
0.23310846 0.21124187 0.011227012
-0.012907103 0.23664746 0.015864767
-0.0079877153 0.23637041 0.01522585
0.027538359 0.23436967 0.016945176
-0.18141738 0.24613756 0.013401836
-0.17145646 0.24557658 0.016332552
-0.24025598 0.35728201 0.010184616
-0.24719281 -0.34009165 0.028179474
-0.24719204 -0.26139316 0.02532436
-0.24719022 -0.077068247 0.027270971
0.24719299 0.0033674538 0.022863604
-0.24718887 0.061807148 0.025000956
-0.011164576 -0.357438 0.036129124
0.17719194 -0.357438 0.036781073
0.24523389 -0.357438 0.033212505
0.24719298 -0.33894616 0.035291228
-0.24719092 -0.1466634 0.031521324
0.24719299 -0.12119979 0.034520712
0.24719299 -0.03453194 0.031167015
-0.24718928 0.016884819 0.034361407
0.24719299 0.087188318 0.03570243
-0.18318234 0.24623695 0.034383684
-0.24718694 0.25503477 0.030085299
-0.24718666 0.2852093 0.031877533
-0.24718603 0.34892225 0.032329734
-0.21288246 0.34795755 0.038169533
-0.14324091 -0.357438 0.044702828
0.079092205 -0.357438 0.041260816
-0.24719104 -0.16127416 0.043164898
0.24719301 -0.11306956 0.040013112
-0.24718961 -0.016832143 0.043993801
-0.24718949 -0.0013152882 0.040399075
-0.24718872 0.076513477 0.046374813
0.088476256 0.23093781 0.048698172
-0.1048585 -0.357438 0.056724429
-0.24719259 -0.31573525 0.057580106
0.24719299 -0.16356051 0.057619184
-0.24718866 0.081519812 0.059598565
0.24184412 0.20358893 0.057827789
-0.20058075 0.24721679 0.056076884
-0.10055899 0.24158381 0.052470326
0.24719301 -0.3396543 0.06742081
-0.24719116 -0.17288221 0.061741952
0.24719298 -0.16250889 0.064732648
0.24719299 -0.1457153 0.06887909
-0.24719054 -0.10803697 0.066364177
-0.24719021 -0.074608177 0.069786109
0.24719298 -0.026991878 0.064473391
-0.24718957 -0.012095843 0.063273214
0.24719299 -0.0069440398 0.060186058
-0.2471889 0.058851808 0.067127958
0.24719301 0.085531399 0.061461255
-0.24718738 0.21023735 0.06337142
0.0078498051 0.23547849 0.064983726
0.015165091 0.2350665 0.066152625
-0.21095265 0.33131352 0.062827565
-0.24718601 0.35012352 0.062240358
-0.22708394 0.35743505 0.061675921
0.05736636 -0.357438 0.075065829
0.24719301 -0.2472038 0.079797097
-0.24719134 -0.18761012 0.071539775
-0.24718976 -0.028694883 0.075552814
-0.24718896 0.052911412 0.073128879
0.24719301 0.093893789 0.076964915
0.24719301 0.13272779 0.075258359
-0.24718806 0.14257762 0.07469672
0.16730899 0.22649813 0.073577136
0.17481266 0.22607553 0.076287247
-0.19971249 0.2471679 0.07857272
-0.1997728 -0.357438 0.086561114
-0.085823283 -0.357438 0.080708541
-0.24719235 -0.29145867 0.088780351
-0.24719229 -0.28740618 0.085015088
0.24719298 -0.12532027 0.081240043
0.24719299 0.031629734 0.084342606
-0.24718904 0.042602986 0.085401565
-0.2056329 0.28543249 0.08889021
-0.23941836 0.35743797 0.088926516
-0.22116774 -0.357438 0.094419681
-0.11494415 -0.35743797 0.096740544
0.050131164 -0.357438 0.090074778
0.15616986 -0.35743797 0.099054404
-0.24719284 -0.34249988 0.097647369
0.24719301 -0.29748106 0.092598371
0.24719299 -0.28173473 0.092444628
0.24719301 -0.18798456 0.098314375
-0.24719013 -0.067618757 0.090143569
0.24719301 -0.0042274669 0.097687542
-0.24718897 0.050582234 0.093549751
0.22130752 0.21833736 0.090373307
-0.055819206 -0.357438 0.10620373
0.11691482 -0.357438 0.10617841
0.15479383 -0.357438 0.10771698
0.18013662 -0.357438 0.10614809
0.24719298 -0.30051294 0.10302932
0.24719301 -0.24068682 0.10845566
-0.24719149 -0.20368738 0.10922471
0.24719299 -0.19868962 0.1022431
-0.24719083 -0.13916226 0.10938308
-0.24718985 -0.038864404 0.10537678
0.24719299 0.079382896 0.10247472
0.24719299 0.1389479 0.10384354
0.11681531 0.2293418 0.1025641
0.15271115 0.22732024 0.10130462
0.078174032 0.23151799 0.10816213
-0.24718684 0.26696041 0.10374953
-0.10010701 -0.357438 0.11583877
-0.2471925 -0.30752584 0.11249557
-0.24719205 -0.262454 0.1193586
-0.24719155 -0.20993191 0.11234133
0.24719298 -0.16663094 0.1127722
-0.24719052 -0.10575032 0.11495665
0.24719299 -0.090695292 0.11865982
-0.24718811 0.13687062 0.11217286
0.24719301 0.17835434 0.1140933
-0.24718754 0.19413231 0.11903527
0.15112196 0.22740974 0.1189276
-0.0045314692 0.23617576 0.11233187
0.0083227158 0.23545185 0.11596352
-0.1747994 0.24576484 0.11111774
-0.092128545 0.24110901 0.11217367
-0.24718647 0.30331445 0.11556208
-0.21367538 0.35479605 0.11038213
-0.12185228 -0.357438 0.12331124
0.052207362 -0.35743797 0.12397745
0.16769554 -0.357438 0.12742649
0.24719298 -0.19535033 0.12142381
0.24719301 -0.09505076 0.12929584
0.24719299 0.0024883933 0.1271257
-0.24718906 0.041437894 0.12778389
-0.24718824 0.12413505 0.1207426
0.24719299 0.17145538 0.12231322
-0.24718739 0.21006212 0.12978324
0.2182864 0.21971241 0.12365568
0.14819846 0.22757439 0.12538819
-0.16400136 0.24515674 0.1268983
-0.15621026 0.24471796 0.1299977
-0.20548737 0.28417727 0.12346085
-0.20024641 -0.357438 0.13266461
0.24719301 -0.2638163 0.1383633
0.24719299 -0.18871494 0.13338669
-0.24719021 -0.0752386 0.13795269
-0.24718949 -0.0026948154 0.13267064
-0.24718826 0.12280678 0.13055961
0.04477302 0.23339906 0.135829
0.069892332 0.23198439 0.13858581
-0.105075 0.24183814 0.13959026
-0.079199083 0.24038085 0.13679212
-0.21008071 0.32379341 0.13202189
0.17861347 -0.35743797 0.14513393
0.18544301 -0.357438 0.14609993
-0.24719253 -0.31213877 0.14968161
0.24719301 -0.24462496 0.14986137
0.24719299 -0.2354524 0.14084214
-0.24719083 -0.13997532 0.14079432
-0.24718931 0.016036116 0.14192827
-0.247188 0.14732835 0.14298338
0.24719298 0.17767054 0.14981274
0.24719299 0.1958743 0.1413963
0.12906045 0.22865218 0.14329171
-0.062322251 0.2394304 0.14550591
-0.035674125 0.23792964 0.14511874
-0.20634383 0.29156402 0.14347665
-0.24718651 0.30009645 0.14943786
-0.2080929 0.30664903 0.14216577
-0.24718632 0.31914741 0.1405423
-0.24719299 -0.35697326 0.15345849
-0.2386158 -0.357438 0.1566622
-0.19806603 -0.357438 0.15952843
-0.15640953 -0.35743797 0.15370449
-0.12450261 -0.357438 0.15069669
-0.028079621 -0.357438 0.15093556
0.24719298 -0.32641962 0.15330791
0.24719298 -0.30332011 0.15366548
-0.24719124 -0.17967145 0.15154219
-0.24719049 -0.10289636 0.15462913
0.24719298 -0.053287961 0.15260488
-0.24718958 -0.011135638 0.1545933
0.24719299 0.17489357 0.1585633
0.22167061 0.21817212 0.1580731
0.12304045 0.22899123 0.15745586
-0.20550469 0.28432673 0.15346968
-0.23727512 0.35743749 0.15061006
-0.094370574 -0.357438 0.16663596
0.043024652 -0.357438 0.16183236
0.12690322 -0.357438 0.16879398
-0.24719276 -0.33351183 0.1602748
0.24719301 -0.31057179 0.16021886
-0.24719223 -0.28316885 0.16423289
-0.24719086 -0.14244902 0.16180088
-0.24719059 -0.11512974 0.16137294
0.24719298 -0.086921215 0.16315043
-0.24718893 0.054041028 0.16962805
-0.2471883 0.11868054 0.16932352
-0.24718779 0.16888183 0.16635533
0.17500938 0.22606444 0.16521814
-0.080740981 0.24046771 0.16147411
-0.24718687 0.26306432 0.16419005
-0.2219502 0.35743389 0.16561903
0.11491156 -0.357438 0.17212793
-0.24719279 -0.33488584 0.17998484
0.24719298 -0.25066212 0.17976023
-0.24718955 -0.0088589936 0.17235106
-0.24718726 0.22332262 0.17141353
-0.18262596 0.24620561 0.17183998
-0.13876821 0.24373566 0.17855668
-0.20007811 -0.357438 0.18300939
0.012467436 -0.357438 0.1842449
-0.24719056 -0.11103828 0.18368617
0.24719301 -0.032784313 0.18485147
-0.24718951 -0.003840521 0.18094686
0.24719298 0.10777905 0.18422928
0.24719299 0.12522735 0.1808566
-0.20888986 0.31352261 0.1873329
-0.2273165 0.35743514 0.18342432
0.20931084 -0.357438 0.19666387
0.24719298 -0.34775811 0.19239721
-0.24719244 -0.30068606 0.19030903
-0.2471914 -0.19612785 0.19223636
-0.24718976 -0.029762268 0.19211115
0.24719298 -0.013388522 0.1941888
0.24719299 0.03213457 0.19686854
-0.24718791 0.15777901 0.19501735
-0.24718782 0.16580528 0.1909911
-0.061207466 0.23936762 0.19376798
0.075850427 0.23164886 0.19771506
-0.24718657 0.29429954 0.19816615
-0.21409628 0.35743201 0.1993323
-0.094931431 -0.35743803 0.20727406
-0.074519441 -0.357438 0.20547235
0.13993354 -0.357438 0.20218012
0.24342772 -0.357438 0.20089144
0.24719298 -0.25714049 0.20059493
0.24719299 -0.23089652 0.20787698
0.24719299 -0.20561238 0.20174424
0.24719301 -0.16788748 0.2029267
0.24719299 -0.15816116 0.20724908
0.24719298 -0.14588904 0.20169394
0.24719301 0.0043536481 0.20879805
0.24719299 0.042387947 0.20800562
-0.24718878 0.070135847 0.20433244
-0.24718821 0.12606657 0.20287859
0.24719299 0.13492733 0.20007479
0.15963519 0.22693028 0.2083315
0.029126234 0.23428023 0.20520028
-0.24718626 0.32597694 0.20689638
-0.19402973 -0.357438 0.21797453
-0.15307273 -0.357438 0.21959224
-0.09679877 -0.357438 0.21244076
-0.083387725 -0.357438 0.21363238
-0.028357454 -0.357438 0.21265733
0.03146828 -0.357438 0.21740928
0.055051282 -0.357438 0.21619031
0.10680433 -0.357438 0.21034551
0.1676583 -0.35743803 0.21278509
0.24719298 -0.31281611 0.21453595
0.24719299 -0.18735561 0.21373175
-0.24719107 -0.16389492 0.21401085
-0.24719046 -0.10142644 0.21419361
-0.24718925 0.02163507 0.21649536
-0.24718904 0.042826608 0.21762332
-0.2471884 0.10735282 0.21064454
0.24719299 0.14304377 0.21483709
-0.24718729 0.21935283 0.21292722
-0.24718724 0.22651216 0.2179013
-0.028336786 0.23751642 0.21557134
0.087510094 0.2309922 0.21916109
0.097041138 0.23045544 0.21486938
-0.11258855 -0.357438 0.22474532
0.008073464 -0.357438 0.22966066
0.099783473 -0.357438 0.22913025
0.11945482 -0.357438 0.22848667
0.22451085 -0.357438 0.22529599
0.23166133 -0.35743803 0.22736347
0.24719299 -0.29645216 0.22984375
-0.24718997 -0.051461995 0.22937267
0.24719301 0.00748647 0.22920132
-0.2471886 0.089015126 0.22078618
0.22037363 0.21876241 0.22071761
0.14665121 0.22766151 0.22832698
0.022288023 0.23466535 0.22852308
-0.2471866 0.28993732 0.22927973
-0.16001819 -0.357438 0.23046407
-0.14218706 -0.35743803 0.23275489
-0.056100968 -0.357438 0.23242831
0.021443108 -0.357438 0.23283261
0.061280139 -0.357438 0.23854716
-0.24719092 -0.14746603 0.23325898
0.24719298 -0.041078024 0.23653363
-0.24718976 -0.030345052 0.23472992
0.24719299 -0.023262531 0.23879218
0.24719301 0.12409081 0.23785619
0.034765705 0.23396266 0.23184478
-0.12853082 0.24315912 0.23727235
-0.24718647 0.30405015 0.23180714
-0.2026336 -0.35571092 0.247251
-0.07487043 -0.357438 0.24187961
-0.036449477 -0.357438 0.24591365
0.017284937 -0.357438 0.24332662
0.048132323 -0.35482103 0.247251
0.090934478 -0.3506369 0.247251
0.17454731 -0.3550536 0.247251
-0.023352362 -0.3457531 0.247251
-0.14103447 -0.32995725 0.247251
0.21298811 -0.32405335 0.24725099
-0.038904712 -0.31437391 0.24725099
-0.003156662 -0.31083357 0.247251
0.12417185 -0.31984401 0.247251
-0.13370071 -0.30662128 0.247251
-0.09780369 -0.30700836 0.247251
-0.06618958 -0.30703646 0.247251
0.082632422 -0.30453399 0.247251
-0.24719216 -0.27279058 0.2460286
-0.23547444 -0.2721737 0.247251
-0.10649878 -0.27834946 0.247251
-0.079548873 -0.27259922 0.247251
-0.052412637 -0.27901268 0.247251
-0.048762463 -0.27410471 0.247251
0.18375601 -0.27919057 0.247251
0.20909801 -0.27705112 0.247251
0.23674342 -0.27630517 0.247251
0.24337095 -0.27002835 0.247251
-0.22022404 -0.26454496 0.247251
0.010431848 -0.264258 0.247251
0.084601909 -0.26801515 0.247251
0.1505859 -0.26143757 0.247251
-0.090061456 -0.25469148 0.247251
0.22165184 -0.2500059 0.247251
-0.23735544 -0.24820307 0.247251
0.20390975 -0.24705601 0.247251
0.21406868 -0.24590708 0.247251
0.053208034 -0.22046664 0.247251
-0.237369 -0.21747531 0.247251
-0.22034541 -0.21380058 0.247251
-0.19774728 -0.21647544 0.247251
-0.044080909 -0.21103719 0.247251
0.037732787 -0.2107783 0.247251
-0.24719143 -0.19875276 0.24643336
-0.13189706 -0.19139636 0.24725099
-0.079552941 -0.19426049 0.247251
0.032441333 -0.19414926 0.247251
-0.22185272 -0.18786596 0.247251
-0.073772199 -0.18663958 0.247251
-0.24719115 -0.17083229 0.24171621
-0.22419643 -0.17670736 0.247251
-0.11781099 -0.17709011 0.247251
-0.16324794 -0.16191465 0.247251
0.014497355 -0.16616619 0.247251
0.021579733 -0.16566561 0.247251
-0.23632666 -0.15567064 0.247251
-0.11437452 -0.15605611 0.247251
-0.028416097 -0.15701425 0.247251
0.1714749 -0.1529692 0.247251
-0.066006608 -0.14661014 0.247251
-0.0576085 -0.14714818 0.247251
0.17635974 -0.14401764 0.247251
-0.022946265 -0.13185662 0.247251
-0.00021483749 -0.13402408 0.247251
0.13474414 -0.13557667 0.247251
0.2194297 -0.13075475 0.247251
0.23521395 -0.13537242 0.247251
0.0095581785 -0.12604132 0.247251
0.069799595 -0.12037089 0.247251
-0.17748073 -0.11756985 0.247251
-0.1491221 -0.11990742 0.247251
0.21845649 -0.11066703 0.247251
-0.16116776 -0.10076055 0.247251
0.021334492 -0.10812834 0.247251
0.064411283 -0.10768615 0.247251
0.079191796 -0.10584994 0.247251
0.10718647 -0.10462531 0.247251
-0.089346334 -0.095025674 0.247251
0.037950717 -0.091480322 0.247251
0.087869376 -0.092511557 0.247251
0.13537253 -0.099275507 0.247251
-0.050863318 -0.085239403 0.24725102
-0.24719018 -0.072350353 0.2418786
-0.18938488 -0.07089819 0.247251
-0.071386859 -0.075049348 0.247251
-0.061650895 -0.070219755 0.247251
-0.18223754 -0.069577605 0.247251
0.11248884 -0.066688754 0.247251
0.1665794 -0.067152679 0.247251
-0.082121886 -0.056844816 0.247251
-0.0046746954 -0.056064777 0.247251
0.19805443 -0.058911122 0.247251
0.2268689 -0.055233836 0.247251
-0.005656682 -0.048373803 0.247251
0.15756217 -0.044850003 0.247251
0.18551955 -0.048998922 0.247251
-0.046087988 -0.026051737 0.247251
-0.0074791983 -0.020624623 0.247251
0.030425735 -0.026471943 0.247251
0.22070205 -0.022226691 0.247251
-0.093242146 -0.0019330233 0.247251
0.041035295 0.0046389699 0.247251
0.065770239 0.0070633367 0.247251
0.14564975 0.00030250847 0.247251
0.060748611 0.018771261 0.247251
0.084892683 0.018512115 0.247251
0.099010952 0.012444858 0.247251
0.081724226 0.031166641 0.247251
-0.16314048 0.044640567 0.247251
0.056188811 0.043722436 0.247251
0.2464999 0.040653307 0.247251
0.23969735 0.067174003 0.247251
-0.16407777 0.076369271 0.247251
-0.137609 0.071969509 0.247251
-0.066560194 0.073334105 0.247251
0.2132238 0.076455556 0.247251
-0.11613408 0.085246928 0.247251
-0.099835262 0.088733613 0.247251
-0.057763785 0.085360184 0.247251
-0.025529098 0.085071802 0.247251
0.1209083 0.082910135 0.247251
0.23489553 0.085668065 0.247251
-0.20815057 0.090891436 0.247251
-0.10539287 0.090324998 0.247251
0.204124 0.091849349 0.247251
0.22420824 0.09466742 0.247251
-0.15184024 0.10981412 0.247251
-0.085769154 0.10180825 0.247251
-0.040352736 0.10292482 0.247251
0.1829534 0.10249403 0.247251
-0.19388829 0.11818953 0.247251
0.1245757 0.11498842 0.247251
0.15038586 0.11609246 0.247251
-0.051270023 0.1281828 0.247251
-0.016191654 0.12209019 0.247251
-0.18036228 0.13093418 0.247251
-0.14015782 0.13595787 0.247251
0.061387692 0.13525122 0.247251
-0.13993302 0.1425781 0.247251
-0.10440797 0.14041427 0.247251
0.09756808 0.14633681 0.247251
0.1348539 0.14926082 0.247251
-0.034021422 0.15366562 0.247251
0.03001515 0.15888116 0.247251
-0.24493942 0.16450655 0.247251
-0.18653195 0.1652474 0.247251
0.14914474 0.16172373 0.247251
0.1533031 0.16601214 0.247251
0.10610766 0.17763381 0.247251
0.17391439 0.17327978 0.247251
-0.23787569 0.18189391 0.247251
-0.1101694 0.18230152 0.247251
-0.026691832 0.18105766 0.247251
0.068053268 0.1869113 0.247251
-0.014820678 0.19369692 0.247251
-0.2378151 0.20539027 0.247251
-0.043037426 0.2036418 0.247251
-0.02998697 0.20553854 0.247251
-0.046842325 0.21051998 0.247251
0.22229837 0.21788627 0.24628481
0.178149 0.2250531 0.247251
-0.19952345 0.233514 0.247251
-0.077734709 0.23496534 0.247251
0.031393178 0.23051351 0.247251
0.092006192 0.23073898 0.24280939
-0.1247718 0.24294741 0.24722081
-0.20601073 0.28869116 0.24512748
