# .PCD v0.7 - Point Cloud Data file format
VERSION 0.7
FIELDS x y z
SIZE 4 4 4
TYPE F F F
COUNT 1 1 1
WIDTH 970
HEIGHT 1
VIEWPOINT 0 0 0 1 0 0 0
POINTS 970
DATA ascii
-0.23961276 -0.34504411 -0.253326
-0.21103504 -0.34707555 -0.253326
0.026920773 -0.34619424 -0.253326
0.03735381 -0.348786 -0.25195581
0.067556605 -0.34205043 -0.253326
-0.11271162 -0.33609241 -0.253326
0.098181292 -0.33171251 -0.253326
0.12219952 -0.32693842 -0.253326
0.18350615 -0.31572294 -0.253326
-0.021527074 -0.30263054 -0.253326
0.24621008 -0.30805168 -0.253326
-0.11131833 -0.29884219 -0.253326
-0.081319883 -0.29886997 -0.253326
0.14981738 -0.29565471 -0.253326
0.21662931 -0.29742408 -0.253326
0.2337054 -0.29937124 -0.253326
-0.064604379 -0.28001598 -0.253326
0.018688768 -0.2862986 -0.253326
-0.15736644 -0.27970475 -0.253326
-0.11942563 -0.27045938 -0.253326
0.087362774 -0.27816895 -0.253326
0.14138608 -0.27778068 -0.253326
-0.079691641 -0.26671576 -0.253326
-0.064618483 -0.26625553 -0.253326
0.18005012 -0.26917353 -0.253326
-0.094562702 -0.25379771 -0.253326
-0.089114502 -0.25341538 -0.253326
0.1367701 -0.25803298 -0.253326
-0.20023572 -0.2406631 -0.253326
0.083157569 -0.24324176 -0.253326
-0.16587517 -0.23454136 -0.253326
-0.253326 -0.22392616 -0.25248829
-0.18636328 -0.22650279 -0.253326
-0.17874679 -0.2254176 -0.253326
-0.20497906 -0.21781603 -0.253326
-0.14587584 -0.21622546 -0.253326
0.032409634 -0.21313417 -0.253326
0.2496289 -0.21710683 -0.253326
-0.17784782 -0.20893973 -0.253326
-0.059860472 -0.20379557 -0.253326
-0.010880291 -0.20095649 -0.253326
0.22149743 -0.20079942 -0.253326
0.20545286 -0.19009171 -0.253326
-0.093435854 -0.18718049 -0.253326
0.19119219 -0.1875716 -0.253326
-0.25213608 -0.16803238 -0.253326
-0.043746069 -0.15960094 -0.253326
0.0026719123 -0.15886109 -0.253326
0.14190137 -0.15367283 -0.253326
-0.17927846 -0.14999817 -0.253326
-0.072376981 -0.14052202 -0.253326
0.047249965 -0.14590524 -0.253326
0.14497072 -0.14628696 -0.253326
-0.19060573 -0.13659254 -0.253326
-0.10761957 -0.1300962 -0.253326
0.017153643 -0.1306501 -0.253326
-0.0394095 -0.12537779 -0.253326
0.17634921 -0.12419108 -0.253326
0.19058615 -0.12428652 -0.253326
-0.025607876 -0.10952117 -0.253326
-0.00083860755 -0.10244589 -0.253326
0.15575445 -0.10744734 -0.253326
0.18976322 -0.10439233 -0.253326
0.083658591 -0.094622068 -0.253326
0.23770405 -0.092147216 -0.253326
0.063817523 -0.084149331 -0.253326
-0.15673082 -0.070592016 -0.253326
-0.12037806 -0.071562357 -0.253326
0.14075495 -0.061297167 -0.253326
-0.20483342 -0.059099555 -0.253326
-0.13705574 -0.055654816 -0.253326
0.0043777828 -0.05222366 -0.253326
0.17066281 -0.053135008 -0.253326
0.15881811 -0.043318294 -0.253326
-0.1504879 -0.030487292 -0.253326
-0.24233095 -0.027819417 -0.253326
0.0216479 -0.027913593 -0.253326
-0.07792601 -0.014834484 -0.253326
-0.0035544932 -0.013991512 -0.253326
0.019000052 -0.015630292 -0.253326
-0.070368744 -0.0019747093 -0.253326
-0.21308666 0.005803071 -0.253326
-0.16472416 0.014866814 -0.253326
0.077037804 0.017533552 -0.253326
-0.24099493 0.027175371 -0.253326
-0.17883615 0.025535315 -0.253326
0.13726908 0.023178656 -0.253326
0.21025139 0.02559603 -0.253326
0.25053406 0.026933536 -0.253326
-0.2313873 0.035142973 -0.253326
-0.13793021 0.031261701 -0.253326
-0.036983818 0.036413904 -0.253326
-0.16826196 0.04278921 -0.253326
-0.12433073 0.042580303 -0.253326
-0.1054241 0.059049152 -0.253326
-0.03562513 0.050487224 -0.253326
-0.21354303 0.06584134 -0.253326
-0.11262704 0.075886525 -0.253326
-0.25302526 0.080198832 -0.253326
0.1508739 0.080112189 -0.253326
-0.14765087 0.095969468 -0.253326
0.082553521 0.094977371 -0.253326
0.10185218 0.097898863 -0.253326
-0.19001949 0.1025393 -0.253326
0.043963481 0.10922037 -0.253326
0.1571414 0.10671522 -0.253326
-0.086673349 0.11201365 -0.253326
-0.05689694 0.1123835 -0.253326
-0.013156183 0.11573462 -0.253326
0.11129484 0.11627326 -0.253326
-0.1650908 0.12027451 -0.253326
-0.13398594 0.12662618 -0.253326
0.0066812411 0.12885463 -0.253326
0.090262637 0.12680238 -0.253326
0.13813291 0.12394476 -0.253326
0.20750508 0.12251247 -0.253326
0.07866367 0.13186085 -0.253326
0.24337961 0.13084073 -0.253326
-0.21158318 0.14686349 -0.253326
-0.18632773 0.15459245 -0.253326
-0.091640949 0.16164677 -0.253326
0.067669757 0.16706418 -0.253326
-0.1755393 0.17707999 -0.253326
0.0072923675 0.17058276 -0.253326
0.10259507 0.17973234 -0.253326
0.14487161 0.20193458 -0.253326
0.24131003 0.20153452 -0.253326
-0.071571484 0.21305758 -0.253326
-0.19582328 0.22881326 -0.253326
-0.064632297 0.22778884 -0.253326
0.0086864159 0.22858286 -0.253326
0.070184365 0.22169268 -0.253326
-0.087538384 0.23195052 -0.253326
-0.20367163 0.2450072 -0.253326
-0.1704645 0.24337673 -0.253326
0.14045028 0.2429488 -0.253326
-0.24385943 0.25997788 -0.253326
-0.22701931 0.25166216 -0.253326
-0.064706221 0.25169101 -0.2529338
0.042299755 0.25124425 -0.25178629
-0.23362483 0.26195356 -0.253326
-0.24973059 0.29207271 -0.253326
-0.22975084 0.32150769 -0.253326
-0.16159494 -0.348786 -0.24310218
0.035531305 -0.348786 -0.24004745
0.076728001 -0.348786 -0.24782264
0.2238716 -0.348786 -0.24896134
-0.253326 -0.12010184 -0.2478216
-0.253326 -0.050552785 -0.24388996
0.253326 0.052352145 -0.2476552
-0.1737407 0.25169101 -0.24651229
-0.066776156 0.25169101 -0.24602824
-0.043587148 0.25169101 -0.24012372
0.19452551 0.25169101 -0.24335915
-0.21443 0.31316137 -0.24833117
-0.23858802 -0.348786 -0.23294982
-0.021975126 -0.348786 -0.23855335
0.044518903 -0.348786 -0.23754124
0.057492871 -0.348786 -0.23813909
0.10595828 -0.348786 -0.23357904
0.1457148 -0.348786 -0.23847371
0.16398837 -0.348786 -0.2361266
-0.253326 -0.30135381 -0.23491317
0.253326 -0.19671547 -0.23578148
-0.253326 -0.089799017 -0.23500839
0.253326 0.024642222 -0.23899019
-0.253326 0.095114037 -0.23989262
0.253326 0.11579554 -0.23623002
-0.253326 0.24075964 -0.23537283
-0.16766408 0.25169101 -0.23797333
-0.09935908 0.25169101 -0.23347992
0.081829242 0.25169101 -0.23877412
0.11636615 0.25169101 -0.23413116
0.19484241 0.25169101 -0.23946357
0.24174075 0.25169101 -0.23325363
-0.253326 0.32833585 -0.23519914
-0.086515062 -0.348786 -0.22879589
-0.253326 -0.25181389 -0.22325516
0.253326 -0.20712592 -0.22098355
-0.253326 -0.18530308 -0.22337537
0.253326 -0.17401806 -0.22621092
0.253326 -0.14147882 -0.22297037
0.253326 -0.12618822 -0.22181466
0.253326 -0.11527932 -0.22466588
0.253326 -0.026480928 -0.22350059
-0.253326 0.055655397 -0.22097343
-0.253326 0.21639681 -0.22414292
-0.21443 0.25899601 -0.22823456
0.059580896 0.25169101 -0.22295338
0.23721544 0.25169101 -0.22521552
-0.253326 0.34801352 -0.2296024
0.076368317 -0.348786 -0.21052083
0.085456625 -0.348786 -0.21888137
-0.253326 -0.32293335 -0.21197985
0.253326 -0.31271288 -0.21174374
0.253326 0.011554196 -0.21756479
-0.253326 0.055194229 -0.21582013
-0.253326 0.12070535 -0.21010198
-0.253326 0.14012176 -0.21815887
0.0018413067 0.25169101 -0.21837234
0.12671669 0.25169101 -0.21707383
0.24812129 0.25169101 -0.21577525
-0.23116034 0.348786 -0.21748579
-0.24975315 -0.348786 -0.20582739
-0.14340538 -0.348786 -0.20714772
0.09637627 -0.348786 -0.20257294
-0.253326 -0.31253228 -0.20365995
-0.253326 -0.1886667 -0.20247424
0.253326 -0.10556485 -0.20412371
0.253326 -0.01127582 -0.20518062
-0.253326 0.0054091439 -0.20248556
-0.253326 0.033184774 -0.20935294
-0.253326 0.078497052 -0.20786335
0.253326 0.18168718 -0.20624128
0.253326 0.19365993 -0.2068204
-0.026064355 0.25169101 -0.20422569
0.17267027 0.25169101 -0.20723261
0.23790048 0.25169101 -0.20559236
-0.076619014 -0.348786 -0.1985289
-0.253326 -0.33924317 -0.19624892
-0.253326 -0.20439716 -0.19568378
0.253326 -0.18154116 -0.19244786
-0.253326 -0.051643901 -0.19683135
0.253326 -0.0034470409 -0.19209644
-0.253326 0.078300379 -0.19695963
0.253326 0.083618335 -0.19619699
0.253326 0.096280925 -0.19498497
-0.253326 0.11205941 -0.19980894
-0.253326 0.19901319 -0.19373018
0.253326 0.21151617 -0.19884372
-0.02685301 0.25169101 -0.19641094
-0.253326 0.29969239 -0.19465843
-0.253326 0.30477569 -0.19272476
-0.253326 -0.33827823 -0.18635415
-0.253326 -0.22425914 -0.18593331
-0.253326 -0.071890779 -0.18539275
0.253326 -0.059255976 -0.18819939
0.253326 0.022302277 -0.18647791
0.253326 0.11144636 -0.1844071
0.253326 0.19596782 -0.18667206
-0.253326 0.22706231 -0.18210605
-0.14302707 0.25169101 -0.18866624
0.16922724 0.25169101 -0.18387507
-0.253326 0.2645044 -0.18203217
-0.23889869 -0.348786 -0.17857258
-0.21685115 -0.348786 -0.17244342
-0.13005176 -0.348786 -0.17294127
0.096711963 -0.348786 -0.17073023
0.253326 -0.34158251 -0.1709808
0.253326 -0.25474811 -0.17348382
0.253326 -0.13841036 -0.17314601
-0.253326 -0.11710071 -0.17379585
0.253326 -0.11901123 -0.1712946
-0.253326 -0.067970961 -0.17658576
-0.253326 0.031638801 -0.17112699
-0.253326 0.152789 -0.17044267
-0.253326 0.18965399 -0.17562516
-0.18513069 0.25169101 -0.17322499
-0.061626188 0.25169101 -0.17494395
0.022703741 0.25169101 -0.17111325
0.089723781 0.25169101 -0.17069967
-0.253326 0.30528048 -0.17817438
-0.253326 0.34314281 -0.17093869
0.1106433 -0.348786 -0.16452903
0.244536 -0.348786 -0.1605114
-0.253326 -0.31500995 -0.1655201
-0.253326 -0.27859831 -0.16016817
-0.253326 -0.19792345 -0.16826811
0.253326 -0.16734913 -0.16053285
0.253326 -0.095784783 -0.16530895
0.253326 -0.081016764 -0.16533789
0.253326 -0.059199672 -0.16577634
0.253326 0.088328153 -0.16421279
0.085476123 0.25169101 -0.16916811
0.19134201 0.25169101 -0.16084526
-0.18990135 -0.348786 -0.1571689
0.12759161 -0.348786 -0.15439934
-0.253326 -0.24351956 -0.15722898
-0.253326 -0.2042761 -0.15335931
0.253326 -0.17230466 -0.15625054
0.253326 -0.098114654 -0.1584284
0.253326 0.017517827 -0.15146993
-0.253326 0.06544669 -0.15526561
0.253326 0.092534401 -0.15139644
0.253326 0.21137649 -0.15687054
-0.253326 0.24092805 -0.15921126
-0.15913615 0.25169101 -0.15636504
-0.14563593 0.25169101 -0.15130448
-0.058883004 0.25169101 -0.15399103
0.019689262 0.25169101 -0.15433194
-0.253326 0.27830869 -0.15990028
-0.099328116 -0.348786 -0.14015311
-0.04439069 -0.348786 -0.14868434
0.16353828 -0.348786 -0.14681241
0.253326 -0.30658469 -0.1464965
-0.253326 -0.25405321 -0.14399543
0.253326 -0.096964613 -0.14446387
-0.253326 -0.059863135 -0.14425366
-0.253326 -0.025330976 -0.14378218
-0.253326 -0.017339043 -0.14919136
0.253326 -0.010538369 -0.1463439
-0.253326 -0.0061205328 -0.14134221
-0.253326 0.060725488 -0.14541547
0.253326 0.11942109 -0.14212748
0.253326 0.13350569 -0.14879461
0.253326 0.16035144 -0.14708214
0.253326 0.18432787 -0.14335212
0.253326 0.19370119 -0.14723644
-0.20670785 0.25169101 -0.1407626
0.21674733 0.25169101 -0.14712866
-0.21443 0.26143292 -0.14291631
-0.24212104 0.348786 -0.14416468
-0.21453956 0.348786 -0.14487045
-0.177891 -0.34878597 -0.13055739
0.057150193 -0.348786 -0.13916633
0.253326 -0.30132699 -0.13376747
0.253326 -0.24087617 -0.13092355
0.253326 -0.20093949 -0.13593037
0.253326 -0.19871253 -0.13515291
0.253326 0.082937926 -0.13110343
0.253326 0.2036771 -0.13881627
0.19561571 0.25169101 -0.13882926
0.20452306 0.25169101 -0.13351598
-0.21443 0.28618518 -0.13910308
-0.21863718 0.348786 -0.13864006
0.1876944 -0.348786 -0.12846899
0.253326 -0.34726483 -0.12907755
-0.253326 -0.17184953 -0.12370926
-0.253326 -0.023226395 -0.12950549
-0.253326 0.13010621 -0.12229125
0.253326 0.13030788 -0.1221611
-0.15331829 0.25169101 -0.12534952
-0.253326 0.3445608 -0.12806967
-0.16564859 -0.348786 -0.1103636
-0.0050822273 -0.348786 -0.11509188
0.011142392 -0.348786 -0.11881277
0.099309146 -0.348786 -0.11081968
-0.253326 -0.3048915 -0.11175191
-0.253326 -0.28901228 -0.11077807
0.253326 -0.070172265 -0.11190839
0.253326 -0.061808996 -0.11510158
-0.253326 -0.024095774 -0.11207063
0.253326 -0.013365977 -0.11911762
-0.253326 0.0077086017 -0.11778115
0.253326 0.072171755 -0.11823168
0.253326 0.12638208 -0.11817161
0.253326 0.14348866 -0.11928295
-0.253326 0.16531079 -0.11525962
-0.253326 0.18838684 -0.11492896
0.253326 0.19109625 -0.11925444
0.253326 0.23280844 -0.11335318
0.16262972 0.25169101 -0.11349546
-0.21443 0.28940547 -0.11497957
-0.18969631 -0.348786 -0.10875615
-0.16695431 -0.348786 -0.10148819
0.05720412 -0.348786 -0.10881317
0.1129093 -0.348786 -0.10181248
0.19339034 -0.348786 -0.1037937
-0.253326 -0.22079661 -0.10846318
0.253326 -0.22839303 -0.10285023
0.253326 -0.20321542 -0.1079659
-0.253326 -0.16979212 -0.10004659
0.0079586729 0.25169101 -0.10385879
-0.055314329 -0.348786 -0.095268592
0.12268265 -0.348786 -0.096422456
0.253326 -0.29254782 -0.094220459
0.253326 -0.25533235 -0.092787713
0.253326 -0.19779386 -0.09235841
-0.253326 -0.11439911 -0.095848277
-0.253326 -0.10874236 -0.098207518
-0.253326 -0.027139638 -0.093892738
-0.253326 0.15276107 -0.090961687
0.253326 0.19691031 -0.091889732
0.025909558 0.25169101 -0.096560605
0.16393813 0.25169101 -0.092660069
0.22749791 0.25169101 -0.098182693
-0.21443 0.30447203 -0.096003339
-0.21443 0.32793903 -0.098170541
-0.21574712 -0.348786 -0.081024252
-0.14651521 -0.348786 -0.081529796
0.087952614 -0.348786 -0.082691573
0.20472929 -0.348786 -0.088687927
0.253326 -0.31780672 -0.082730919
0.253326 -0.28918925 -0.087499902
-0.253326 -0.11263098 -0.087103903
0.253326 0.059830755 -0.08895582
0.253326 0.10642449 -0.089188978
0.0093962029 0.25169101 -0.084787838
0.099348813 0.25169101 -0.082021341
-0.21443 0.28867301 -0.089372933
-0.253326 -0.28882301 -0.075319968
-0.253326 -0.17963716 -0.079883672
0.253326 -0.12487903 -0.073297516
-0.253326 -0.016615804 -0.071500771
0.253326 0.0012801588 -0.078181654
-0.253326 0.16647747 -0.074925669
0.253326 0.21600176 -0.07742808
0.253326 0.2479834 -0.076815806
0.009228494 0.25169101 -0.078765363
0.051765181 -0.348786 -0.067375384
0.253326 -0.34844595 -0.061062925
0.253326 -0.33225083 -0.06904164
0.253326 -0.32231915 -0.068777308
-0.253326 -0.30470604 -0.065201491
0.253326 -0.26477125 -0.063605636
0.253326 -0.25383711 -0.061714042
0.253326 -0.14734118 -0.063258968
-0.253326 0.048330501 -0.067994751
0.253326 0.081884108 -0.065258607
-0.253326 0.12672502 -0.064827845
-0.253326 0.29340804 -0.061132148
-0.2317307 0.348786 -0.066249609
0.1074601 -0.348786 -0.058118165
0.253326 -0.14109658 -0.055490572
-0.253326 -0.1382605 -0.051806979
0.253326 -0.05496119 -0.052586034
0.253326 -0.040416852 -0.058994848
-0.253326 -0.009697672 -0.05614464
0.253326 0.036516748 -0.051780745
0.253326 0.090237036 -0.053198308
-0.253326 0.10375622 -0.059610501
0.253326 0.23569053 -0.057655118
-0.17850663 0.25169101 -0.057716023
-0.20942225 0.287893 -0.052772697
-0.093815446 -0.348786 -0.042274602
0.11231267 -0.348786 -0.049894691
0.1467948 -0.348786 -0.045801185
0.253326 -0.28907886 -0.045074739
-0.253326 -0.14435607 -0.048401751
-0.253326 -0.073863164 -0.041391689
-0.253326 0.032695688 -0.044225458
0.253326 0.14846805 -0.047166388
0.253326 0.16976666 -0.041206703
-0.12697633 0.25169101 -0.047752693
0.019182395 0.25169101 -0.045224756
-0.21443 0.28673217 -0.041424215
-0.24635825 0.348786 -0.045512967
-0.25146699 -0.348786 -0.03402853
-0.24113844 -0.348786 -0.037251532
-0.18690214 -0.348786 -0.037684798
0.011441581 -0.348786 -0.037016831
0.253326 -0.18557277 -0.031933542
0.253326 -0.17238358 -0.032367885
-0.253326 -0.12302869 -0.035539813
0.253326 -0.029157184 -0.031744018
-0.253326 0.057130709 -0.032295816
-0.253326 0.18169789 -0.035205677
-0.16728181 0.25169101 -0.03396764
0.028566353 0.25169101 -0.037654951
0.11193964 0.25169101 -0.035787351
-0.253326 0.31339198 -0.031894863
-0.21443 0.31062594 -0.035494041
0.253326 -0.14793456 -0.020871393
0.253326 -0.1286418 -0.020191558
0.253326 -0.036772572 -0.024418086
-0.253326 -0.025550976 -0.025946595
-0.253326 0.11624371 -0.02794103
-0.253326 0.19074714 -0.028871872
0.253326 0.21730536 -0.028776295
-0.253326 0.24091552 -0.026520584
-0.052312076 0.25169101 -0.02158621
0.14478901 0.25169101 -0.027591081
0.17567012 0.25169101 -0.028683987
0.21689117 0.25169104 -0.025768742
-0.21222544 0.29214481 -0.0295214
-0.253326 0.32713202 -0.02312162
-0.16197219 -0.348786 -0.014270082
-0.14107388 -0.348786 -0.011437073
0.036620706 -0.348786 -0.015534062
0.253326 -0.15148145 -0.018480904
-0.253326 -0.084615849 -0.016171794
0.253326 -0.019623527 -0.015384801
-0.253326 0.15704194 -0.015447322
-0.061998427 0.25169101 -0.010099933
0.079795733 0.25169101 -0.015335238
-0.253326 0.32760292 -0.016620252
-0.24340208 0.348786 -0.010571726
-0.082479089 -0.348786 -0.0056129694
0.253326 -0.20384833 -0.003354948
0.253326 -0.094931707 -0.005749125
0.253326 -0.088039085 -0.0059508141
0.253326 -0.053861178 -0.0093520507
0.253326 -0.00080512976 -0.0052007232
-0.253326 0.14907289 -0.0049694553
0.253326 0.15713248 -0.0032355562
0.253326 0.18188176 -0.0085229427
-0.10105619 0.25169101 -0.0066825598
0.02990099 0.25169101 -0.00307649
-0.17555496 -0.348786 0.0042248406
-0.039094094 -0.348786 0.00071629696
-0.253326 -0.20496157 0.009765327
-0.253326 -0.16735172 0.00036903843
-0.253326 -0.10064513 0.0077338368
0.253326 -0.041282833 0.0053537041
0.253326 0.042545617 0.0051769633
0.253326 0.096829489 0.0069733039
0.253326 0.12367721 0.0056210086
-0.253326 0.1964225 0.0095646083
0.253326 0.21050701 0.0082737878
-0.18968248 0.25169101 0.002520483
0.11922957 0.25169101 0.0045943577
-0.253326 0.34616566 0.0015107691
-0.13082014 -0.348786 0.01378097
0.068624973 -0.348786 0.015599359
0.1950219 -0.348786 0.01818648
0.20964158 -0.348786 0.01082857
0.21091178 -0.348786 0.019623429
-0.253326 -0.33507079 0.010790363
0.253326 -0.33678153 0.011442983
0.253326 -0.27020288 0.012384139
-0.253326 -0.18874729 0.01312322
-0.253326 -0.1213313 0.019515987
0.253326 0.15751877 0.016139034
0.253326 0.2144998 0.010959622
-0.19697669 -0.348786 0.029014595
-0.17459369 -0.348786 0.026272029
-0.0023633614 -0.348786 0.021734595
0.13039717 -0.348786 0.029071394
0.14877385 -0.348786 0.023101896
-0.253326 -0.32611752 0.021044154
0.253326 -0.2978709 0.02198986
0.253326 -0.21550822 0.028182616
0.253326 -0.11525011 0.022591703
-0.253326 -0.058459971 0.027281031
0.253326 -0.021143313 0.026665539
0.253326 0.10387921 0.022813551
-0.253326 0.11818771 0.027034007
-0.253326 0.23398575 0.025615245
0.253326 0.23565845 0.020429343
0.253326 0.24846873 0.029061027
-0.06012683 0.25169101 0.02003181
0.19643553 0.25169101 0.027053889
-0.24045673 -0.348786 0.037502088
-0.090924308 -0.348786 0.038134396
-0.085337438 -0.348786 0.034846295
-0.011127437 -0.348786 0.039906077
0.21406126 -0.348786 0.037521392
-0.253326 -0.2691097 0.037618738
0.253326 -0.040529475 0.030442148
0.253326 -0.038585175 0.030733526
-0.253326 -0.029838312 0.034920562
0.253326 0.014886858 0.032887153
-0.253326 0.11408185 0.034151651
-0.253326 0.12422518 0.036953118
-0.253326 0.22276898 0.030329473
-0.1792886 0.25169101 0.039436705
-0.1214876 0.25169101 0.034182824
-0.23706529 0.348786 0.03193279
-0.2087214 -0.348786 0.045160405
0.10054346 -0.348786 0.041249
0.253326 -0.31070471 0.046265397
-0.253326 -0.21274874 0.041381117
-0.253326 -0.015609957 0.042352274
-0.253326 0.094615176 0.046871331
-0.253326 0.15285021 0.048768677
-0.15023117 0.25169101 0.045916867
-0.085569113 0.25169101 0.041840676
0.033556998 0.25169101 0.042898156
0.069818869 0.25169101 0.041535031
-0.21443 0.31736517 0.047178887
-0.253326 0.343245 0.047514252
-0.23908783 0.348786 0.041552059
-0.22425973 0.348786 0.046232998
-0.21443 0.34003556 0.043528967
-0.24067231 -0.348786 0.053812385
-0.022378793 -0.348786 0.055251502
0.16210908 -0.348786 0.053046197
0.25293139 -0.3480548 0.058169473
-0.253326 -0.29861796 0.058953151
-0.253326 -0.025786281 0.058119707
0.253326 0.1554797 0.05505294
-0.253326 0.17881083 0.056230519
-0.253326 0.1824189 0.054444443
-0.12206405 0.25169101 0.054590158
-0.063365176 0.25169101 0.052653741
-0.042898849 0.25169101 0.05127899
0.052680392 0.25169101 0.059317064
-0.13649185 -0.348786 0.064996988
-0.030415706 -0.348786 0.069376141
0.068421371 -0.348786 0.068328597
0.253326 0.098902434 0.062736809
0.06473843 0.25169101 0.068385929
-0.253326 -0.34789485 0.079307333
-0.12241016 -0.348786 0.078055173
-0.08301039 -0.348786 0.077036425
0.064844303 -0.348786 0.075337768
0.20069429 -0.348786 0.07315094
0.253326 -0.27661267 0.0745496
0.253326 -0.099663571 0.0704908
-0.253326 -0.0005195511 0.070364252
0.253326 0.072438203 0.074446097
0.253326 0.11885065 0.071872205
-0.15601604 0.25169101 0.079262301
0.22557226 0.25169101 0.073209725
-0.24606775 0.348786 0.078855954
0.058903471 -0.348786 0.080248907
0.12543118 -0.348786 0.08180619
0.16010392 -0.348786 0.082433611
-0.253326 -0.26890165 0.086151794
0.253326 -0.20043249 0.081161737
-0.253326 0.01317331 0.082587808
0.253326 0.16455022 0.085214816
0.253326 0.17083757 0.089720398
-0.253326 0.23059613 0.087057799
-0.067608103 0.25169101 0.084446266
-0.013689623 0.25169101 0.083384082
-0.23032092 0.348786 0.086470567
-0.11608607 -0.348786 0.094266541
0.253326 -0.31042176 0.090466484
0.253326 -0.27295813 0.094545767
0.253326 -0.090361983 0.092663214
-0.253326 -0.0027268231 0.098025113
0.253326 0.056358449 0.091180943
0.253326 0.091293417 0.098456018
0.253326 0.24794418 0.097286731
-0.1985942 0.25169101 0.092312627
0.038125306 0.25169101 0.094750553
0.18852089 0.25169101 0.096490137
-0.13237855 -0.348786 0.101647
-0.042166948 -0.348786 0.10474344
0.1559753 -0.348786 0.10015266
0.253326 -0.2308661 0.1094733
-0.253326 -0.21866643 0.10939749
0.253326 -0.20027934 0.10098219
-0.253326 -0.11612534 0.1083741
-0.253326 -0.098000906 0.10532504
-0.253326 0.13840586 0.10938194
0.074358366 0.25169101 0.10762528
-0.20598499 0.29597694 0.10349967
-0.22902206 -0.348786 0.11174324
-0.085326344 -0.348786 0.11489609
0.022263236 -0.348786 0.11597815
0.11822018 -0.348786 0.11391463
0.12887904 -0.348786 0.11618072
0.253326 -0.33828601 0.11182375
-0.253326 0.0020633787 0.11469522
-0.253326 0.24838574 0.11840147
-0.13976356 0.25169101 0.1125503
-0.12429385 0.25169101 0.11731206
0.06083465 0.25169101 0.11392437
0.20071626 0.25169101 0.11275319
-0.253326 0.28631467 0.11599086
-0.253326 0.30837566 0.11931917
-0.253326 0.31721726 0.11681911
-0.045629706 -0.348786 0.12959972
0.015989274 -0.348786 0.1295644
0.12538128 -0.348786 0.129455
0.253326 -0.27129352 0.1216452
0.253326 -0.09841311 0.12067252
0.253326 -0.023510046 0.12120396
-0.253326 0.060850844 0.12162498
0.253326 0.071376927 0.12163763
0.253326 0.19316773 0.12381571
-0.16107392 0.25169101 0.12241027
-0.044691045 0.25169101 0.12276556
0.010577157 0.25169101 0.12632383
0.044372972 0.25169101 0.12926295
0.12560585 0.25169101 0.12037309
0.19982575 0.25169101 0.12098738
-0.21443 0.26811779 0.12127741
-0.23719245 -0.348786 0.13432081
-0.19861725 -0.348786 0.13619295
-0.16011567 -0.348786 0.13724683
0.033316988 -0.348786 0.13805073
0.253326 -0.34759477 0.13655193
-0.253326 -0.30474761 0.13778198
-0.253326 -0.20713726 0.1396527
-0.253326 -0.19104171 0.13646278
0.253326 -0.14529015 0.13924658
0.253326 0.059406616 0.13524577
-0.253326 0.098640576 0.1302698
-0.13728501 0.25169101 0.13324258
-0.046368346 0.25169101 0.13786109
-0.019131444 0.25169098 0.13348486
0.22051334 0.25169101 0.13863017
-0.253326 0.26771355 0.13017827
-0.042123958 -0.348786 0.14858428
0.06778948 -0.348786 0.14177157
0.073185869 -0.348786 0.14920044
0.094585449 -0.348786 0.14164394
0.253326 -0.34570551 0.14741021
0.253326 -0.31098557 0.14412387
-0.253326 -0.28455046 0.14594749
0.253326 -0.19659063 0.14459184
-0.253326 -0.028741825 0.14010569
0.253326 0.060522057 0.14692992
0.253326 0.10666902 0.14409772
-0.253326 0.24077035 0.14196943
-0.11014307 0.25169101 0.14365979
0.053055368 0.25169101 0.14596333
0.15220548 0.25169101 0.14586218
0.19115344 0.25169101 0.14238957
-0.21443 0.26223278 0.1494554
-0.21443 0.33593136 0.1421019
0.049221795 -0.348786 0.15778604
0.10939348 -0.348786 0.15241554
0.22795981 -0.348786 0.15740401
-0.253326 -0.27660298 0.15069553
-0.253326 0.022379242 0.15582977
0.253326 0.039556947 0.1526469
0.253326 0.05620335 0.15193732
-0.253326 0.25292987 0.15844706
-0.038721457 0.25169101 0.15211198
0.045935608 0.25169101 0.15287152
-0.253326 0.29113212 0.15562445
0.040609404 -0.348786 0.16144988
0.080820218 -0.348786 0.16332319
0.11828077 -0.348786 0.1615701
-0.253326 -0.29660293 0.16174513
0.253326 -0.26389477 0.16231553
-0.253326 -0.24298005 0.16394803
-0.253326 -0.23902799 0.16905893
0.253326 -0.23676105 0.16991226
-0.253326 -0.11412335 0.16130981
-0.253326 -0.03114637 0.16294917
-0.253326 -0.013734177 0.16510256
-0.253326 0.02622823 0.16037637
-0.253326 0.032545228 0.16845742
-0.253326 0.24056649 0.16396248
-0.21443 0.28380033 0.16210054
-0.24252219 0.348786 0.16986108
-0.19714694 -0.348786 0.17710185
-0.0097372904 -0.348786 0.17821157
-0.253326 -0.18553683 0.17952442
0.253326 -0.17157979 0.17836729
0.253326 -0.13145718 0.17003661
-0.253326 0.0062027052 0.17432016
-0.253326 0.02475334 0.17709553
-0.253326 0.18857798 0.17629915
-0.21443 0.33334133 0.17684931
0.13652216 -0.348786 0.18345225
0.253326 -0.29859871 0.18965183
-0.253326 -0.14923087 0.18102132
0.253326 -0.11395634 0.1840924
-0.253326 -0.059325568 0.18766174
-0.253326 0.020740896 0.18069132
0.253326 0.17638814 0.18750401
-0.088784777 0.25169101 0.18115264
-0.24694441 -0.348786 0.1921187
-0.056918655 -0.348786 0.19343112
0.048392974 -0.348786 0.19158025
0.14791416 -0.348786 0.1921539
0.21850935 -0.348786 0.19816279
-0.253326 -0.32931665 0.19764031
0.253326 -0.23742595 0.19285153
0.253326 -0.17816658 0.1928377
0.253326 -0.0081567094 0.19550759
0.253326 0.017741665 0.19693559
0.253326 0.020306021 0.19837961
-0.253326 0.076789774 0.19715095
0.253326 0.24700214 0.19656646
0.22074348 0.25169101 0.19265874
-0.21443 0.27103078 0.19699575
-0.253326 0.29879585 0.19201803
-0.19123796 -0.348786 0.2015937
-0.089248881 -0.348786 0.20062876
-0.065818422 -0.348786 0.20615254
0.09724237 -0.348786 0.20259139
-0.253326 -0.29130057 0.20197409
-0.253326 -0.24411412 0.20391139
0.253326 -0.085455403 0.20849548
-0.253326 -0.037677385 0.20612985
-0.253326 -0.013751656 0.20134819
-0.253326 0.0036390126 0.20613325
-0.253326 0.035972834 0.20355025
-0.253326 0.041501939 0.20132272
-0.253326 0.15815774 0.20003517
0.253326 0.24675089 0.2083216
-0.21443 0.25307167 0.20951511
-0.253326 0.34840938 0.2037929
-0.028330609 -0.348786 0.21270707
-0.253326 -0.33778632 0.21932542
-0.253326 -0.31219542 0.2125821
-0.253326 -0.24154806 0.21877611
-0.253326 -0.18713801 0.21393189
0.253326 -0.018174313 0.2171696
-0.253326 0.060239024 0.21053284
0.253326 0.074205711 0.21347517
0.253326 0.20348534 0.21076716
-0.21443 0.28681713 0.21113777
-0.1913442 -0.348786 0.22929272
0.12650301 -0.348786 0.22832593
0.22119409 -0.34878603 0.22894536
0.253326 -0.31483912 0.22138712
0.253326 -0.29376331 0.22116953
-0.253326 -0.24371418 0.22500336
0.253326 -0.22736368 0.22123046
-0.253326 -0.19385235 0.22362906
-0.253326 -0.14436501 0.22261302
-0.253326 0.0059788525 0.22195196
-0.253326 0.1416868 0.22483474
0.253326 0.18273436 0.22458202
-0.17931964 0.25169101 0.22689584
-0.076946288 0.25169101 0.22311449
0.0051399246 0.25169101 0.2272886
-0.14713946 -0.348786 0.23031422
-0.090713196 -0.348786 0.23108301
-0.0065837502 -0.348786 0.23806432
0.10466656 -0.348786 0.23386924
-0.253326 -0.33616754 0.23083527
0.253326 -0.26380348 0.23260489
-0.253326 -0.14765266 0.23708785
-0.253326 -0.11581209 0.23694389
-0.253326 -0.10784544 0.23424256
0.253326 0.032290138 0.23123433
0.253326 0.086263642 0.23549002
0.253326 0.12930863 0.23155746
-0.253326 0.18304053 0.23197278
-0.15872064 0.25169101 0.23483539
-0.21443 0.2692745 0.23251
-0.21443 0.27963775 0.23002832
-0.21443 0.30218419 0.23524582
-0.04353679 -0.348786 0.24581072
0.16751745 -0.348786 0.24340284
-0.253326 -0.31405631 0.24513863
-0.253326 -0.28743407 0.24448738
0.253326 -0.27079403 0.24787709
-0.253326 -0.06213551 0.24463387
0.253326 0.061284587 0.24817628
0.253326 0.24337484 0.24341813
0.23611094 0.25169101 0.24820164
-0.253326 0.30900022 0.2435104
-0.012888268 -0.34386626 0.253326
0.03472048 -0.34254462 0.253326
0.15504847 -0.348786 0.25231224
0.21563877 -0.3477129 0.253326
0.21709447 -0.3315126 0.253326
0.2350395 -0.33478162 0.253326
-0.048771426 -0.32980514 0.253326
0.047986895 -0.32974532 0.253326
0.13166013 -0.3263154 0.253326
0.2013153 -0.32948121 0.253326
-0.14532423 -0.31823963 0.253326
0.036249593 -0.31863597 0.253326
0.2372483 -0.31181258 0.253326
-0.075093485 -0.30469605 0.253326
0.18722859 -0.30512506 0.253326
0.0010248348 -0.2929869 0.253326
-0.10661081 -0.2890228 0.253326
-0.095222421 -0.28455189 0.253326
0.15951206 -0.28677526 0.253326
-0.10646497 -0.27332735 0.253326
-0.1500269 -0.25546682 0.253326
-0.0060344338 -0.25127023 0.253326
-0.16009338 -0.24057147 0.253326
-0.072047375 -0.24567628 0.253326
-0.016933013 -0.24438131 0.253326
0.253326 -0.2488725 0.25173303
-0.16093482 -0.23633748 0.253326
-0.12165424 -0.23241207 0.253326
-0.094466567 -0.23890802 0.253326
-0.027951375 -0.23448595 0.253326
0.13311695 -0.23339914 0.253326
0.1648331 -0.23275897 0.253326
-0.1523785 -0.22719461 0.253326
0.22026028 -0.22730513 0.253326
0.00097066909 -0.21865454 0.253326
0.16320908 -0.21822903 0.253326
0.17183965 -0.21737701 0.253326
0.24952264 -0.21615146 0.253326
-0.023108371 -0.19257382 0.253326
-0.15123965 -0.18713668 0.253326
-0.14525922 -0.18132487 0.253326
0.12318638 -0.18825474 0.253326
0.1614936 -0.18533763 0.253326
-0.14538635 -0.17899208 0.253326
-0.11203346 -0.17988011 0.253326
0.045726083 -0.17049812 0.253326
-0.18795216 -0.16953602 0.253326
0.1462447 -0.16789076 0.253326
0.20081127 -0.16495986 0.253326
0.21405053 -0.16170831 0.253326
-0.21537715 -0.1501531 0.253326
-0.12574925 -0.1585955 0.253326
-0.073426932 -0.15553498 0.253326
-0.20944057 -0.13924059 0.253326
-0.084108911 -0.13774744 0.253326
-0.010531694 -0.12105516 0.253326
0.14970718 -0.12269986 0.253326
0.25144926 -0.12768601 0.253326
0.21760753 -0.1194241 0.253326
-0.10551456 -0.10084563 0.253326
-0.056724474 -0.1052072 0.253326
0.18102744 -0.092355259 0.253326
-0.23987287 -0.086121283 0.253326
-0.19345632 -0.08230868 0.253326
0.088629633 -0.084613398 0.253326
0.098470822 -0.084659792 0.253326
-0.17354183 -0.079143353 0.253326
0.040082563 -0.064273439 0.253326
0.092601947 -0.060908124 0.253326
0.20619896 -0.060365565 0.253326
0.019167922 -0.055408351 0.253326
-0.16353753 -0.04561878 0.253326
-0.13245763 -0.043719236 0.253326
0.10592885 -0.045281991 0.253326
0.24535593 -0.044868372 0.253326
-0.11066115 -0.038595732 0.253326
-0.050589334 -0.036085416 0.253326
0.20045555 -0.028755382 0.253326
-0.064552963 -0.017610885 0.253326
-0.058417358 -0.013879113 0.253326
0.12221215 -0.018250987 0.253326
-0.20298716 -0.0058482625 0.253326
-0.17191744 -0.0013664365 0.253326
-0.078168966 -0.0026314792 0.253326
-0.027223103 -0.0083571225 0.253326
-0.015087275 -0.0055968501 0.253326
0.036094811 -0.0038225874 0.253326
-0.11143879 0.0032831877 0.253326
0.0290525 0.0079552382 0.253326
0.0395527 0.0060612783 0.253326
-0.253326 0.015405603 0.2530039
-0.22748648 0.011300482 0.253326
-0.21684663 0.011836568 0.253326
-0.015624624 0.016260667 0.253326
0.083892487 0.013403729 0.253326
0.10581765 0.01739832 0.253326
-0.040449284 0.021341212 0.253326
-0.019515958 0.020345762 0.253326
0.024695329 0.020035006 0.253326
-0.087559581 0.039858639 0.253326
-0.010298572 0.039347775 0.253326
0.20200926 0.0344125 0.253326
0.18613276 0.04305011 0.253326
-0.13971996 0.058295444 0.253326
0.048254669 0.055057354 0.253326
0.093453139 0.058109343 0.253326
-0.23539408 0.060891509 0.253326
0.099971659 0.0660436 0.253326
-0.23503681 0.0729127 0.253326
-0.038038418 0.072004989 0.253326
0.18373211 0.086913578 0.253326
-0.19403437 0.094895653 0.253326
-0.028903402 0.096946344 0.253326
0.19198994 0.090607405 0.253326
-0.23256342 0.11139541 0.253326
-0.19353884 0.11492778 0.253326
-0.073160782 0.1182677 0.253326
-0.018377043 0.11736003 0.253326
0.13668345 0.11011526 0.253326
0.15778849 0.11801301 0.253326
0.21642023 0.1182645 0.253326
-0.15731585 0.1297785 0.253326
0.10339851 0.12210023 0.253326
0.11346352 0.12196005 0.253326
-0.10208098 0.13855697 0.253326
-0.24410218 0.1493964 0.253326
-0.038901262 0.14124346 0.253326
0.14429459 0.14285123 0.253326
-0.19775012 0.15635651 0.253326
0.19094501 0.15485463 0.253326
-0.097297505 0.16041899 0.253326
-0.066185191 0.16223545 0.253326
-0.12973513 0.17876588 0.253326
0.0023476277 0.17352793 0.253326
0.13711838 0.1710739 0.253326
0.062384062 0.18823472 0.253326
0.015599765 0.19931351 0.253326
-0.19608688 0.2042844 0.253326
-0.063150883 0.20404261 0.253326
0.1739987 0.2081264 0.253326
-0.067044921 0.21836361 0.253326
0.18373418 0.21702878 0.253326
0.12732878 0.22922768 0.253326
-0.14043704 0.23107146 0.253326
0.1664466 0.23232716 0.253326
-0.21987353 0.2470762 0.253326
-0.17741351 0.24441667 0.253326
0.10149831 0.25169101 0.25108746
