# .PCD v0.7 - Point Cloud Data file format
VERSION 0.7
FIELDS x y z
SIZE 4 4 4
TYPE F F F
COUNT 1 1 1
WIDTH 984
HEIGHT 1
VIEWPOINT 0 0 0 1 0 0 0
POINTS 984
DATA ascii
-0.12038709 -0.34556496 -0.26732939
0.027378691 -0.34556499 -0.26619631
0.13879888 -0.34556496 -0.26729265
0.22620094 -0.33512828 -0.26764399
-0.17921129 -0.32765406 -0.26764399
-0.11356618 -0.32245547 -0.26764399
-0.078329973 -0.32418573 -0.26764399
-0.22229561 -0.31379816 -0.26764399
-0.19695194 -0.31022888 -0.26764399
-0.13674308 -0.31334302 -0.26764399
-0.11246543 -0.31196696 -0.26764399
0.15977579 -0.3138842 -0.26764399
-0.2118028 -0.30763346 -0.26764399
0.16585599 -0.3006601 -0.26764399
0.18007819 -0.30883434 -0.26764399
-0.12167415 -0.29403156 -0.26764399
0.10088139 -0.29793262 -0.26764399
-0.1386444 -0.28885943 -0.26764399
-0.085857362 -0.288546 -0.26764399
-0.14739244 -0.27156836 -0.26764399
0.10490426 -0.27048379 -0.26764399
0.025009949 -0.26629996 -0.26764399
-0.093152076 -0.25350872 -0.26764399
-0.24082696 -0.24248828 -0.26764399
-0.059695177 -0.24143296 -0.26764399
0.022449277 -0.24497256 -0.26764399
-0.19598469 -0.23720205 -0.26764399
-0.077718794 -0.23499595 -0.26764399
-0.08415705 -0.22066297 -0.26764399
0.10183285 -0.21854064 -0.26764399
-0.0014080703 -0.19590287 -0.26764399
-0.1449087 -0.18891254 -0.26764399
-0.16597798 -0.14846815 -0.26764399
0.22755864 -0.14350827 -0.26764399
-0.21572615 -0.13083529 -0.26764399
0.20150036 -0.12692663 -0.26764399
-0.066287018 -0.11038464 -0.26764399
0.12491632 -0.09652932 -0.26764399
0.1736562 -0.09792088 -0.26764399
-0.19904408 -0.081764653 -0.26764399
-0.11158837 -0.080584116 -0.26764399
-0.24279898 -0.064067513 -0.26513562
0.1083817 -0.06419111 -0.26764399
-0.20597917 -0.054254919 -0.26764399
-0.23313485 -0.039479226 -0.26764399
0.047333725 0.00076028705 -0.26764399
-0.2386905 0.011863708 -0.26764399
0.18139128 0.017736468 -0.26764399
-0.02325676 0.026258461 -0.26764399
-0.029282473 0.038264371 -0.26764399
0.015730821 0.03745497 -0.26764399
0.12772293 0.030904476 -0.26764399
-0.12150225 0.040817618 -0.26764399
-0.034719937 0.049802288 -0.26764399
0.11941417 0.055448122 -0.26764399
-0.18293698 0.062854484 -0.26764399
-0.012193926 0.061096199 -0.26764399
-0.20718232 0.081861243 -0.26764399
-0.242799 0.10996739 -0.26730368
-0.029649004 0.10498302 -0.26764399
0.1212471 0.10874403 -0.26764399
-0.13412523 0.11387365 -0.26764399
-0.022835374 0.11662304 -0.26764399
0.03444171 0.11249101 -0.26764399
0.15735218 0.11848812 -0.26764399
0.228118 0.11243401 -0.26488248
-0.03660433 0.12923068 -0.26764399
0.032267351 0.12452468 -0.26764399
-0.051419474 0.13426526 -0.26764399
0.22210452 0.13857758 -0.26764399
-0.058021724 0.14283465 -0.26764399
0.0071427301 0.14041549 -0.26764399
0.15958969 0.14172643 -0.26764399
0.22130591 0.14176653 -0.26764399
-0.17077433 0.15422899 -0.26764399
-0.19539085 0.17913055 -0.26764399
-0.17330444 0.17543556 -0.26764399
-0.15782121 0.19145252 -0.26764399
-0.093909428 0.2111896 -0.26764399
-0.076004192 0.21977811 -0.26764399
-0.19158773 0.22619373 -0.26764399
-0.087147646 0.2281934 -0.26764399
-0.15287021 0.23014136 -0.26764399
-0.14824174 0.23792329 -0.26764399
0.10158129 0.2506797 -0.26764399
0.10014209 0.26893377 -0.26764399
0.07889083 0.27721784 -0.26764399
0.1902812 0.27583092 -0.26764399
-0.242799 0.28539756 -0.26598859
-0.21682529 0.28759599 -0.26764399
-0.17050576 0.28910238 -0.26764399
0.071980529 0.28499332 -0.26764399
0.081687637 0.28313491 -0.26764399
0.072131135 0.29263508 -0.26764399
0.14662658 0.2934472 -0.26764399
-0.030448057 0.3071554 -0.26764399
-0.019561149 0.30305293 -0.26764399
-0.10887449 0.32729942 -0.26764399
0.051066786 0.32575005 -0.26764399
-0.19326687 -0.34556499 -0.25599506
-0.027765676 -0.34556499 -0.25203639
0.1280968 -0.34556499 -0.25195223
-0.242799 -0.2909984 -0.25899389
0.228118 -0.2549493 -0.25621688
0.228118 -0.19186911 -0.25336623
-0.1245621 0.028324027 -0.25044999
-0.20261739 0.030557992 -0.25044999
-0.10803581 0.049087171 -0.25044999
0.228118 0.048090484 -0.25916085
0.024937786 0.058408249 -0.25044999
0.21987559 0.055500399 -0.25044999
0.082255669 0.069660306 -0.25044999
-0.10776397 0.074971668 -0.25044999
-0.018773906 0.070183896 -0.25044999
-0.009868728 0.074873775 -0.25044999
0.019101597 0.09868364 -0.25044999
0.042535171 0.098338842 -0.25044999
-0.037572429 0.109145 -0.2501241
0.15114555 0.1059127 -0.25044999
-0.062565595 0.34556499 -0.25752807
0.1111257 0.34556499 -0.25515199
0.228118 -0.3075901 -0.24283084
-0.24279898 -0.018454283 -0.24748196
0.14836189 0.018800899 -0.24139325
-0.080801398 0.109145 -0.24008843
0.21857215 0.34556499 -0.24068457
0.072088733 -0.34556499 -0.23125252
0.228118 -0.12180715 -0.23971182
-0.242799 -0.04822506 -0.2351951
0.16396222 0.018800899 -0.23251367
-0.204403 0.042482063 -0.23763955
-0.20440298 0.070458725 -0.23175076
0.1543529 0.109145 -0.23321462
0.228118 0.27735806 -0.23419702
-0.082686812 0.34556499 -0.23945314
0.046145748 0.34556499 -0.23304865
0.13452865 0.34556502 -0.23133591
0.18744412 0.34556499 -0.23096545
0.063641436 -0.34556499 -0.22241947
-0.24279901 -0.089832053 -0.22602332
0.228118 0.005180602 -0.22565915
-0.24279898 0.061744928 -0.2229735
-0.204403 0.10549042 -0.22676358
-0.095096998 0.109145 -0.22544596
0.228118 0.16128156 -0.22662202
-0.24279901 0.22392641 -0.22243215
-0.1910409 0.34556499 -0.22840518
-0.14063127 -0.34556499 -0.21885571
0.073619828 -0.34556499 -0.2147036
-0.242799 -0.33202872 -0.21255612
0.228118 -0.16096011 -0.21494623
0.22195128 -0.071262032 -0.21962166
-0.043587416 -0.024002526 -0.21079749
0.054167446 -0.018297762 -0.21244815
0.082578048 -0.018858584 -0.21228588
-0.14655679 0.015208503 -0.21902271
-0.074341722 0.014601971 -0.21901068
0.015665047 0.012386598 -0.21896674
0.096066959 0.015265846 -0.21902385
-0.20440301 0.037338506 -0.21333468
0.1079803 0.109145 -0.21512678
0.228118 0.13678613 -0.21018244
-0.20492883 0.34556499 -0.21730749
0.02438131 0.34556499 -0.21338519
0.228118 -0.20312129 -0.20707172
0.228118 -0.14887251 -0.2044224
0.228118 -0.070955619 -0.20734294
0.055747926 -0.027484454 -0.2097899
-0.24279898 0.022905648 -0.20716695
-0.076798707 0.039703488 -0.20012455
0.12283652 0.035663854 -0.20004819
0.1411255 0.041387793 -0.20015639
0.063407272 0.052583195 -0.20036805
0.10920703 0.057610273 -0.20046309
0.070798025 0.063008972 -0.20056514
-0.204403 0.1106468 -0.20651279
-0.16803385 0.127775 -0.20043522
-0.24279898 0.29051718 -0.20078525
-0.23458378 0.34556499 -0.20502862
-0.242799 -0.3441821 -0.19832852
-0.242799 -0.26211938 -0.19018798
-0.24279898 -0.19341916 -0.19059286
-0.24279898 -0.14721316 -0.19892311
0.21908399 -0.14255342 -0.19534573
-0.012746971 -0.072630584 -0.19019249
-0.20347144 -0.063273475 -0.19584543
0.047014378 -0.060093381 -0.19776663
0.22784074 -0.062971383 -0.19602792
-0.204403 -0.052698079 -0.19403274
-0.16515556 -0.05809005 -0.19897692
-0.015223119 -0.0051916414 -0.19290037
0.12872489 0.00043956179 -0.19429857
0.16011052 0.0031365964 -0.19507617
-0.11952771 0.017874703 -0.19932543
-0.087102443 0.0193091 -0.19691646
-0.0020956472 0.010586388 -0.19722408
0.064333625 0.0193091 -0.19368339
0.0087464452 0.09126237 -0.19573475
0.11712404 0.093799621 -0.19510606
0.22170234 0.093652673 -0.19514248
-0.20440298 0.12356436 -0.19064108
-0.19675896 0.13906148 -0.19421503
-0.01117453 0.13414796 -0.19692299
0.10582805 0.13797446 -0.19481412
0.12573737 0.1452336 -0.1908133
-0.242799 0.24617419 -0.19183733
0.228118 0.26078939 -0.19725934
0.082550213 -0.34556499 -0.1803799
0.228118 -0.2135123 -0.18742959
-0.1730274 -0.081736468 -0.18469131
-0.041985787 -0.08202 -0.18452002
-0.11492261 -0.073807433 -0.1894815
-0.11843131 -0.03455751 -0.18379205
-0.0070084445 -0.033734664 -0.18415128
0.22499819 -0.039035652 -0.1818375
-0.18857843 -0.029281097 -0.18609552
0.050905656 0.0193091 -0.18843359
0.099892676 0.0193091 -0.18616605
-0.069134556 0.11603506 -0.18959646
0.10671929 0.13102204 -0.18297404
0.24217273 0.16407694 -0.18042719
-0.15767749 0.34556496 -0.18359673
-0.13540448 0.34556499 -0.18270247
0.228118 -0.21812072 -0.17030558
-0.12845741 -0.1032124 -0.17089632
-0.242799 -0.091428563 -0.17321438
-0.12772727 -0.090888783 -0.1791621
-0.16183126 -0.059029516 -0.17310944
-0.15167718 -0.056394748 -0.17425953
-0.072709568 -0.04290631 -0.17986141
-0.204403 -0.037640892 -0.1710923
-0.18841273 -0.034877669 -0.17601438
-0.062301241 -0.038687754 -0.17784002
-0.057653554 -0.038095593 -0.17755628
-0.12303554 0.0193091 -0.17349498
0.012306146 0.0193091 -0.17642443
0.14119276 0.0193091 -0.17295888
-0.204403 0.051649883 -0.17713067
-0.24279898 0.073189296 -0.17042704
-0.053320237 0.13972551 -0.17816615
0.16734305 0.14145979 -0.17720811
0.10840102 0.16752431 -0.17852706
-0.24279901 0.17464086 -0.17215906
0.21461341 0.34556499 -0.17951481
0.21994798 -0.34556499 -0.1695835
-0.24279901 -0.3114621 -0.16575691
0.228118 -0.25373608 -0.16816741
-0.13334766 -0.11253032 -0.16120046
-0.11277679 -0.11197825 -0.16177492
-0.15745465 -0.07565479 -0.16226959
-0.11507218 -0.067690179 -0.16862386
-0.047597378 -0.011170976 -0.16465496
-0.0088882744 -0.010022788 -0.16410479
0.17790535 -0.0073389541 -0.1628188
0.20488113 0.0193091 -0.16589135
0.24193233 0.13864897 -0.16975708
0.228118 0.14166403 -0.1686212
0.016231164 0.16458511 -0.16443345
-0.096478537 0.17924055 -0.1675055
0.1908607 0.17745939 -0.16921724
0.15888092 0.18174803 -0.16509579
-0.24279898 0.25123799 -0.16463728
-0.052579951 0.34556499 -0.164819
0.228118 -0.25311172 -0.15071142
-0.242799 -0.22039968 -0.15637502
0.228118 -0.13338587 -0.15880182
-0.17007941 -0.12256589 -0.15075783
0.12723546 -0.12153452 -0.15183103
-0.24279901 -0.11536584 -0.15921283
-0.2000317 -0.1140555 -0.1596134
0.016801648 -0.11571112 -0.15789063
0.16912138 -0.11917924 -0.15428184
0.028520115 -0.089420319 -0.15128726
0.071082845 -0.087025508 -0.15319785
0.084304906 -0.085237674 -0.15462422
0.21508935 -0.084965028 -0.15484174
-0.083469257 -0.079987101 -0.15881321
0.041596062 -0.079593949 -0.15912688
0.022313353 -0.00031182822 -0.15945165
-0.10310213 0.0083181579 -0.15531647
-0.0081464574 0.0084499642 -0.15525332
0.16572443 0.0193091 -0.15597181
0.2285696 0.058161344 -0.155588
0.228118 0.092813797 -0.15575561
-0.14381003 0.17644837 -0.15394211
-0.031283263 0.17444912 -0.15586726
-0.0063883215 0.17062385 -0.15955079
0.12856834 0.17826064 -0.15219697
-0.099518187 0.18019758 -0.15033183
-0.062324844 0.18820971 -0.15888599
-0.025402375 0.19227535 -0.15497881
0.072721966 0.19448461 -0.15285569
0.10578203 0.19033636 -0.15684223
-0.21647401 0.34556499 -0.15557894
0.22733937 -0.34556499 -0.14768627
0.228118 -0.3221302 -0.146247
-0.043787688 -0.1257693 -0.14742447
0.057217807 -0.1265505 -0.1466116
-0.019369975 -0.098239169 -0.14425145
0.13699183 -0.091773957 -0.14940949
0.17993563 -0.097063296 -0.14518957
-0.204403 0.068216391 -0.14066295
-0.061267342 0.18898939 -0.14186582
-0.052436426 0.18532963 -0.14538996
0.20173916 0.19062956 -0.14028643
-0.19686969 0.34556496 -0.14824072
-0.062135577 0.34556499 -0.14789763
0.075411297 0.34556499 -0.14272049
-0.242799 -0.21353824 -0.13763261
0.013150167 -0.13312592 -0.13976946
-0.18683055 -0.11182225 -0.13033357
-0.14816077 -0.10944825 -0.13355167
-0.087935314 -0.10490312 -0.13893487
-0.068899974 -0.10781641 -0.13576373
-0.20440298 0.13632308 -0.13065219
0.001896888 0.19608745 -0.13503079
0.11124418 0.19120713 -0.13973026
0.075422913 0.20049639 -0.13078526
0.22844782 0.20948511 -0.13843988
0.10204515 0.21133406 -0.13557515
-0.20027475 0.34556502 -0.13718712
-0.24279901 -0.19321816 -0.12933765
0.228118 -0.1493666 -0.12364002
-0.1137865 0.20174609 -0.12958187
0.030422725 0.20717618 -0.12228433
0.17289409 0.21794708 -0.1246289
0.228118 0.23833463 -0.12507369
-0.24279901 0.33052117 -0.12658754
-0.041687269 -0.34556499 -0.11653645
0.03376567 -0.34556499 -0.11935442
0.228118 -0.2355625 -0.11913119
-0.20440298 -0.01115348 -0.11773567
-0.24279898 0.14289784 -0.1144994
-0.24279898 0.16970536 -0.111278
-0.082790628 0.21335658 -0.11203276
0.0084667113 0.21433236 -0.11041418
0.0212049 0.21187839 -0.11448464
0.055577956 0.21291983 -0.11275718
-0.24279898 0.31195006 -0.11123772
-0.1523146 -0.34556502 -0.10581329
-0.11416332 -0.34556499 -0.10602743
0.02267744 -0.34556502 -0.10830945
0.096825615 -0.34556499 -0.10263896
0.088323623 -0.1548128 -0.10679994
0.1139427 -0.12964076 -0.10617968
-0.20440301 -0.080747627 -0.10994647
0.10401595 0.23041415 -0.10399278
0.21103276 0.23250446 -0.10053277
-0.24279901 0.29871753 -0.10356549
-0.20029843 0.34556502 -0.10294005
-0.17252912 0.34556496 -0.10450541
-0.055091895 -0.34556499 -0.09750405
0.18294892 -0.34556499 -0.09370058
0.228118 -0.28937328 -0.095709041
0.21908399 -0.21023184 -0.098545678
-0.19454592 -0.16155179 -0.094572537
-0.03338328 -0.16059753 -0.096303955
0.024831355 -0.16234756 -0.093128651
-0.026312999 -0.13492228 -0.099020317
0.2357866 -0.13708165 -0.096093155
-0.24279901 -0.020149268 -0.093855686
-0.204403 0.064965308 -0.091730617
-0.19068965 0.22217101 -0.09741202
0.017252155 0.22641936 -0.090365171
0.14219126 0.22190717 -0.097849645
0.11875546 0.23483869 -0.096669003
0.096529379 0.34556499 -0.091445699
0.1658698 0.34556499 -0.096434005
-0.19040824 -0.34556499 -0.086149767
-0.15615201 -0.34556499 -0.087092757
0.228118 -0.29193783 -0.082998604
-0.18771257 -0.1652305 -0.087897763
-0.13935921 -0.16506313 -0.088201433
-0.10877512 -0.16707473 -0.084551543
0.24279901 -0.14783952 -0.084662311
-0.24279898 -0.015245453 -0.088186495
-0.10068018 0.24187008 -0.081026055
0.228118 0.30552584 -0.082091257
-0.03219847 0.34556499 -0.085232019
0.14503367 0.34556499 -0.087300368
-0.1938795 -0.34556499 -0.077285439
-0.057944886 -0.34556499 -0.07869491
-0.242799 -0.21523783 -0.077575803
0.13489382 -0.17129771 -0.072329126
0.031143695 -0.16971913 -0.078725949
-0.073445104 -0.14720136 -0.070316143
-0.049068168 -0.14543727 -0.074813455
0.020676799 -0.14544083 -0.074804395
-0.204403 -0.11721402 -0.072976656
-0.24279901 0.011820078 -0.071659833
-0.10931613 0.23406269 -0.072093517
0.15823029 0.2328025 -0.076464526
-0.18519375 0.24352184 -0.07531818
-0.16602153 0.24342477 -0.075653568
-0.13556749 0.24322397 -0.076347508
0.21476622 0.24367294 -0.074795961
-0.24279898 -0.31363773 -0.061465345
0.228118 -0.18439238 -0.066923127
-0.003919363 -0.17419866 -0.060573757
0.22964251 -0.17192942 -0.069769308
-0.053276908 -0.15098602 -0.060667619
-0.20440301 0.15825266 -0.062793136
-0.19952214 0.23635387 -0.064146549
-0.055670291 0.23487799 -0.069265641
0.041008204 0.2479113 -0.060149673
-0.24279898 0.33922955 -0.066080384
-0.22770613 0.34556499 -0.06703411
0.18195499 0.34556499 -0.065177761
0.228118 0.34062481 -0.067644782
-0.15625173 -0.34556496 -0.055269077
0.018629797 -0.34556499 -0.055699177
0.12403262 -0.34556499 -0.054316029
0.22300184 -0.34556502 -0.052132674
0.228118 -0.25541621 -0.058736153
-0.13595456 -0.17452583 -0.059247948
-0.20440298 -0.11480663 -0.055373475
-0.20440301 -0.10205752 -0.05103001
-0.204403 0.14272599 -0.054826789
-0.18955961 0.23857929 -0.056427658
0.051904988 0.23826414 -0.057520736
-0.17803858 0.24954823 -0.05449298
0.228118 0.28862828 -0.050136536
0.0023721419 0.34556496 -0.058615945
-0.09188652 -0.34556499 -0.046225931
-0.242799 -0.20850807 -0.049520507
-0.24279898 0.11354338 -0.043719985
-0.20440298 0.15200309 -0.042582981
-0.11968952 0.25208986 -0.045709997
0.011323668 0.25220913 -0.045297891
0.228118 0.32371134 -0.045515291
0.17531949 0.34556499 -0.040115919
0.21109235 -0.34556496 -0.036342181
0.228118 -0.34205192 -0.037903063
-0.204403 -0.085085504 -0.035069887
-0.20440298 -0.077945068 -0.03320222
-0.24279901 0.048247125 -0.039744936
-0.14770913 0.24489327 -0.034527503
0.228118 0.28589436 -0.035299253
-0.22757235 0.34556499 -0.036165208
-0.016417067 0.34556499 -0.039238527
0.13843396 0.34556499 -0.03777596
-0.20337632 -0.34556499 -0.020732552
-0.14562109 -0.34556502 -0.024407618
-0.24279901 -0.2379643 -0.028561965
0.20085229 -0.18303354 -0.020941153
-0.242799 -0.00038009323 -0.022233564
-0.24279901 0.16116437 -0.025322054
-0.17551528 0.23791964 -0.024719896
-0.097503513 0.23708351 -0.023786763
0.11518025 0.24557048 -0.020539224
0.1714723 0.25589323 -0.023885511
-0.1272994 0.34556499 -0.027381293
0.228118 -0.32413366 -0.013285182
-0.15563284 -0.18298295 -0.018396011
0.23475561 -0.18293498 -0.01598222
-0.047375444 -0.15982759 -0.014144931
-0.24279898 -0.1111598 -0.0146624
-0.242799 -0.029648423 -0.018714972
-0.242799 0.0024192552 -0.011400223
-0.24279898 0.18070754 -0.014518999
-0.24279901 0.20307101 -0.013710983
0.089959361 0.23174413 -0.017828029
-0.20440298 0.24732929 -0.015119912
-0.0007464923 0.24559027 -0.019493565
0.025969867 0.24560221 -0.018861894
-0.11745005 0.25609571 -0.013697384
-0.242799 0.26281464 -0.019261906
0.052914925 -0.34556499 -0.0065834243
0.051353555 -0.18271387 -0.004854613
0.066599503 -0.16073124 -0.0061089033
0.1256589 -0.16069418 -0.0064383866
-0.242799 -0.035871118 -0.008741416
-0.204403 -0.019357625 -0.0091731064
-0.204403 0.10562146 -0.0065604765
-0.204403 0.12267594 -0.007830061
-0.14204776 0.21970136 -0.0043883258
-0.14171462 0.24593386 -0.0013182987
-0.0033306147 0.24589124 -0.0035723518
0.13181059 0.24591234 -0.0024557626
-0.041634239 0.25632578 -0.0021195565
0.09280178 0.25621447 -0.0077204797
0.10783651 0.25624073 -0.0063976739
-0.242799 0.29952642 -0.0081709623
0.228118 0.29246196 -0.0067203119
0.18526737 0.34556499 -0.0016024522
0.20494518 0.34556499 -0.0068772808
-0.24279901 -0.27655831 0.0052503198
0.065922678 -0.18258497 0.0016320571
-0.204403 -0.17561546 0.0023320615
-0.204403 -0.11945942 0.0099429246
0.055633884 0.20694228 0.0098508047
-0.091457173 0.24611358 0.0081890943
-0.15213227 0.25656351 0.0098464433
0.025382064 -0.34556499 0.015324436
0.12781858 -0.34556499 0.014682867
0.17392619 -0.34556499 0.019214384
-0.242799 -0.28651643 0.016320407
-0.1894255 -0.18231139 0.015399284
0.080965295 -0.18228626 0.016663847
0.20475605 -0.18235937 0.012984902
0.17767763 -0.16005489 0.015656807
-0.242799 0.015458579 0.017085817
-0.242799 0.090371877 0.01849518
-0.242799 0.12423397 0.01059562
0.0086844414 0.2001172 0.018842701
0.040784024 0.20268436 0.018842701
-0.12275831 0.2142818 0.018842701
-0.13352209 0.22504625 0.018842701
-0.047897078 0.22337221 0.018842701
-0.24279898 0.24081658 0.013530526
0.037189536 0.24621308 0.013450981
0.242799 0.24041164 0.018266886
-0.242799 0.33648869 0.019377222
0.228118 -0.28688315 0.020563073
-0.13712466 -0.18211547 0.025258673
-0.14539285 -0.15836462 0.026856434
-0.242799 0.12008895 0.027996056
-0.11901881 0.24514741 0.023554806
0.228118 0.26909003 0.022575503
0.228118 0.29596165 0.026283363
0.228118 0.32782307 0.020777864
-0.19028902 -0.34556499 0.039749399
-0.01797507 -0.34556499 0.039109021
0.19162266 -0.34556499 0.039642096
-0.10940256 -0.1800455 0.039886411
-0.025037481 -0.18118076 0.035963144
0.046491414 -0.18195748 0.033209022
-0.242799 -0.17678849 0.030653767
-0.20440298 -0.11784378 0.038465962
-0.24279898 -0.095359087 0.030402727
0.20616931 0.24319826 0.03142105
0.06611377 0.25490329 0.032477003
-0.24279901 0.33058608 0.03754852
-0.14378162 -0.34556499 0.048389859
0.062300526 -0.34556499 0.042558648
-0.24279901 -0.26675537 0.042170197
-0.09946055 -0.17874394 0.044384435
0.12204901 -0.17797312 0.047048315
0.16964176 -0.15557154 0.04536308
-0.204403 -0.063781701 0.046419885
-0.204403 0.069512114 0.048679139
-0.204403 0.1408128 0.049953043
0.031218752 0.2399691 0.044453099
0.22650871 0.25218523 0.043491326
0.21190596 0.34556499 0.043023176
0.18724643 -0.34556496 0.055579424
0.070797294 -0.17563397 0.055132095
0.20050775 -0.17681706 0.051043518
0.23791614 -0.15250012 0.058769539
-0.204403 -0.10356276 0.057991739
-0.242799 -0.078158997 0.059317946
-0.20440298 -0.015404487 0.052524619
-0.204403 0.042374343 0.054036312
-0.20440298 0.06133087 0.05095125
-0.204403 0.14980075 0.05592889
0.22811799 0.22789882 0.052523687
0.12682271 0.23780103 0.053202882
0.228118 0.31161633 0.057577297
-0.242799 0.33374274 0.054735117
-0.10722127 -0.34556499 0.061402999
0.228118 -0.31869677 0.062117815
-0.24279898 -0.21993071 0.062979691
-0.17468055 -0.1518418 0.060277559
-0.0059121922 -0.14950167 0.06563814
-0.204403 0.004821308 0.066874757
0.16399312 0.23609382 0.060092717
0.22797304 0.23386519 0.069086932
0.016196124 0.24601796 0.068482682
-0.17965719 -0.34556499 0.071430013
-0.070539474 -0.34556499 0.079109885
0.18701702 -0.17062879 0.072429352
-0.18274827 -0.16893575 0.078280263
0.029675089 -0.16875458 0.078906357
0.091068938 -0.1686088 0.079410136
-0.12775262 -0.14605898 0.073524371
0.014752867 -0.14707403 0.071199194
0.062437139 -0.14633335 0.072895832
0.19606212 -0.14594667 0.073781624
-0.204403 -0.080896772 0.071438164
-0.204403 0.087047994 0.07947576
-0.204403 0.14905173 0.074422494
-0.242799 0.17767446 0.079577051
-0.020450126 0.24442062 0.074955508
0.228118 0.33049178 0.079726763
0.059112869 0.34556496 0.073431894
-0.089089662 -0.34556499 0.087365299
0.19325747 -0.34556499 0.083713502
-0.242799 -0.31522307 0.082095928
-0.24279898 -0.052019566 0.082336813
-0.204403 0.097882874 0.086570717
-0.20440301 0.18248059 0.086944133
-0.036930736 0.22413054 0.08675316
0.12448979 0.22424352 0.086548656
-0.17925824 0.24313125 0.080180317
-0.12670876 0.24228284 0.081986576
0.092292055 0.24017598 0.085809126
-0.242799 0.31661138 0.086890146
-0.24279898 0.32033825 0.084398702
-0.1607981 0.34556499 0.088941708
-0.13756432 0.34556499 0.083572432
0.145089 0.34556499 0.083294645
0.1858619 -0.34556499 0.097860128
0.242799 -0.14516537 0.097714812
-0.12815271 -0.13785931 0.092307411
0.0023454092 -0.13885438 0.090027973
0.049753152 -0.13763046 0.092831634
0.077265963 -0.1355882 0.097509898
-0.204403 -0.077522799 0.099721953
-0.24279901 -0.056363568 0.099199563
-0.204403 0.19030869 0.097926542
0.011165135 0.21707684 0.099521518
0.11087319 0.22182587 0.090925008
0.09965916 0.23694079 0.091678984
0.228118 0.2929717 0.091969743
-0.23706406 0.34556499 0.094237655
-0.051650822 0.34556496 0.096925706
-0.032697357 0.34556499 0.096134342
0.095112473 0.34556496 0.096022815
-0.14141971 -0.34556499 0.1032536
-0.12137014 -0.34556499 0.10187226
-0.11228613 -0.34556499 0.10756693
-0.072921187 -0.15749064 0.10269959
0.24279901 -0.14958002 0.10123428
-0.204403 -0.12715618 0.10063352
-0.038294312 -0.12837301 0.1088824
-0.242799 0.045607034 0.1037582
-0.204403 0.078872032 0.10515821
-0.204403 0.19730256 0.10664986
0.073648274 0.21545893 0.10245018
0.1213303 0.21493302 0.10340215
-0.075608715 0.22889672 0.10627383
0.066830114 0.34556499 0.10375381
0.14954498 0.34556499 0.10051192
-0.06050992 -0.34556499 0.11496329
-0.018359944 -0.15197891 0.11182258
-0.204403 -0.13396591 0.11003799
-0.1483743 -0.12117682 0.11790219
0.17805228 -0.12747607 0.11000665
-0.15323685 -0.11996463 0.11942153
-0.24279901 -0.10647598 0.1182635
-0.204403 0.063880809 0.11445926
-0.070417434 0.20517167 0.11829228
-0.046639673 0.20688888 0.11650883
-0.24279901 0.22580677 0.11703923
-0.10398427 0.22348607 0.11609074
-0.242799 0.30789116 0.11459354
-0.17528737 0.34556502 0.116598
-0.060584541 0.34556499 0.11999727
-0.038128283 0.34556499 0.11650914
-0.16887824 -0.34556499 0.12743779
0.10254142 -0.34556502 0.1203531
0.1124485 -0.34556499 0.12274725
0.17837562 -0.34556499 0.12183307
-0.24279898 -0.29684913 0.12177408
-0.24279898 -0.13865787 0.12963787
-0.204403 0.056002017 0.12332068
-0.204403 0.13047072 0.12501524
0.14110231 0.22075695 0.12104233
0.228118 0.28315669 0.12103325
-0.15640526 0.34556499 0.12934949
0.042388532 -0.34556502 0.13420299
0.228118 -0.22356591 0.13761146
0.082483619 -0.13768864 0.1354758
0.21352345 -0.13978796 0.13200101
-0.24279901 -0.088663161 0.13433129
-0.24279898 -0.061253536 0.13682514
-0.17711532 -0.008538519 0.13857251
0.21228357 -0.0039967992 0.13539714
-0.14196201 0.00055846572 0.13221228
0.091636628 0.0089947497 0.1305124
-0.24279901 0.015601441 0.13955958
-0.204403 0.13644674 0.13468997
-0.204403 0.18626276 0.13969755
-0.073974892 0.18786573 0.13626568
-0.026147604 0.18875402 0.13534313
0.11453559 0.18997705 0.13407293
0.043541126 0.19327739 0.13064533
0.11532036 0.19003683 0.13401085
0.035475194 0.21140477 0.13513495
-0.16391635 0.34556499 0.13250342
-0.242799 -0.31417438 0.14648065
0.228118 -0.23060657 0.14466092
0.21931273 -0.19912052 0.14103097
0.228118 -0.19791678 0.14976278
0.228118 -0.14480945 0.14535189
0.23787887 -0.12558593 0.14826882
0.18144773 -0.099051371 0.14463782
-0.13012028 0.20157108 0.14536752
-0.064656109 0.20265798 0.14423652
0.17433849 0.20399255 0.14284784
0.028213754 0.34556499 0.14304431
0.228118 -0.21432254 0.15118939
0.059435107 -0.1204777 0.15317808
0.216749 -0.12267342 0.15106788
0.1965864 -0.11957254 0.154048
-0.18083057 -0.080994688 0.15795922
-0.17987214 -0.083562598 0.15606475
0.095412642 -0.087348267 0.15327185
0.20998651 -0.083035916 0.15645328
-0.24279901 -0.068610378 0.15762366
-0.24279898 -0.058623664 0.15190876
0.059368026 -0.032089245 0.15503816
0.058714144 -0.026538545 0.15115735
-0.056477539 0.0089947497 0.15835679
0.17950293 0.0089947497 0.1591005
0.20162655 0.0089947497 0.15067552
-0.204403 0.050326072 0.15236561
-0.204403 0.072209552 0.15997344
-0.14380237 0.16127224 0.15885609
-0.057979174 0.16160405 0.15865608
0.056423116 0.16471936 0.15677807
0.228118 0.30112776 0.15097673
0.017011266 0.34556499 0.15745446
-0.1563251 -0.34556499 0.16638187
-0.12593287 -0.34556502 0.16312599
0.19543125 -0.34556499 0.16837962
-0.1256128 -0.11078523 0.16249299
0.23640308 -0.11253299 0.16081332
0.0074063241 -0.10905106 0.16415963
-0.20440298 -0.070925124 0.167803
-0.15433185 -0.071857058 0.16470057
-0.022311755 -0.070418425 0.16576192
0.19657302 -0.072978295 0.16387337
0.065268695 -0.068515964 0.16716547
0.1795119 -0.052337557 0.16919494
-0.040894017 -0.049436174 0.16716638
-0.20440298 0.033751175 0.16758581
-0.204403 0.04617817 0.16217953
-0.24279898 0.13844123 0.16909026
-0.19501527 0.15161388 0.16467842
-0.14294945 0.15169637 0.16462868
-0.242799 0.17533231 0.16573687
-0.13343234 0.1818276 0.16591182
0.228118 0.29242426 0.1637481
-0.24279898 0.30619365 0.16922086
-0.035990898 0.34556499 0.16129109
0.15589754 -0.34556499 0.17138059
0.06803064 -0.10053612 0.17234288
0.076718308 -0.10153798 0.17138006
-0.12415015 -0.091729194 0.17973074
0.11647526 -0.093733214 0.17862627
-0.17020234 -0.061954867 0.17200598
0.242799 -0.06615755 0.17781904
-0.1366756 -0.059775494 0.17361382
-0.12226367 -0.052858468 0.17651474
-0.043302447 -0.059125423 0.17394069
0.12324695 -0.058231778 0.17436701
-0.20066009 -0.046212412 0.17912151
-0.15079252 -0.046436407 0.17903367
0.12158435 -0.04766354 0.17855234
0.13297427 0.0089947497 0.1798819
-0.20440298 0.02275802 0.17571117
-0.061745189 0.13794988 0.17291547
-0.044872712 0.13612299 0.17401677
-0.021599345 0.13559839 0.17433302
-0.004088968 0.13272119 0.17606747
0.24250275 0.13087961 0.17401631
0.13150406 0.1419057 0.17053081
0.23443769 0.17286223 0.17427161
-0.242799 0.26799437 0.1748753
0.1135385 -0.34556499 0.18271589
-0.24279898 -0.12981296 0.1807991
0.11928303 -0.080115281 0.18613169
0.21539009 -0.081465751 0.18538737
-0.097878091 -0.078125946 0.1872281
-0.19549656 -0.04253361 0.18056443
0.08476121 -0.040729035 0.18127225
-0.17770685 -0.031730644 0.18480167
-0.14530444 -0.037004892 0.18273294
-0.10233299 -0.03816577 0.18227763
0.1379573 -0.022371966 0.18847238
0.1960675 -0.024977893 0.18745026
-0.043180596 0.0089947497 0.18848726
0.015147761 0.0089947497 0.18234706
0.24279898 0.13356324 0.1808134
-0.031257272 0.15951216 0.18233681
0.019941494 0.15614857 0.18436883
0.17445242 0.15481752 0.18517296
0.041035853 0.34556499 0.18892796
0.082782678 0.34556499 0.1872033
-0.031457029 -0.34556499 0.19503912
-0.242799 -0.31278095 0.19692016
-0.242799 -0.27499637 0.19679891
0.228118 -0.23898815 0.19454801
-0.16179511 -0.055796836 0.19953464
0.10417213 -0.016833445 0.19064473
-0.17617065 0.01077175 0.19520199
0.11879516 0.01748693 0.19520199
-0.12310053 0.035021625 0.19520199
0.049640097 0.061753821 0.19520199
-0.11399374 0.073668122 0.19520199
-0.051436439 0.088957652 0.19520199
0.045092843 0.088168219 0.19520199
0.21799029 0.081552133 0.19520199
-0.14037786 0.094840363 0.19520199
0.16223702 0.095060334 0.19520199
0.055895276 0.11583248 0.19520199
0.16147402 0.11321533 0.19520199
-0.063843079 0.12370552 0.19520199
0.10260303 0.123862 0.19616151
-0.019617774 0.13849777 0.19503221
0.012064409 0.13757385 0.19559036
0.1132099 0.13378432 0.19787973
0.14085014 0.13544083 0.19687898
-0.242799 0.14835557 0.19503984
-0.0064245882 0.14543723 0.19083986
0.076299727 0.14670636 0.19007316
-0.24279898 0.18995652 0.19644225
-0.073542789 0.34556499 0.19714938
0.090483047 0.34556499 0.1915413
0.14716667 0.34556499 0.19966443
-0.24279898 -0.3389636 0.20467982
-0.24279898 -0.24158671 0.20354132
0.22235021 -0.083490983 0.2092727
-0.1223944 -0.047475595 0.20412083
-0.036646254 -0.048269838 0.20368311
0.18223137 -0.041144267 0.20681763
-0.242799 -0.039579153 0.20334704
-0.0059698746 -0.036842823 0.20787907
0.16395633 -0.034327667 0.2084997
0.14110589 0.0089947497 0.20712447
0.031596068 0.123862 0.20043874
0.228118 0.22989281 0.20789476
-0.242799 0.27963015 0.20734091
-0.242799 0.32151332 0.2076268
-0.21464776 0.34556496 0.2098939
-0.16374038 -0.34556496 0.21150041
-0.24279901 -0.097036451 0.21393004
0.072260492 -0.023370061 0.21120362
0.20814815 -0.023186497 0.21124889
-0.018844578 -0.013810421 0.21356258
0.045099653 -0.01573639 0.21308731
-0.11277477 0.0067531182 0.21863684
-0.044654638 0.006177594 0.21664612
-0.02241049 0.0089947497 0.21634361
-0.00071321055 0.0089947497 0.21180907
0.18125537 0.0029414343 0.21769628
0.22699872 0.0089947497 0.21678273
0.228118 0.037107248 0.21295077
0.228118 0.13164039 0.21098708
-0.24279898 0.1454803 0.21391807
-0.242799 0.23032746 0.21008238
0.075497121 0.34556499 0.21890952
-0.099544123 -0.34556499 0.22996262
-0.242799 -0.24111031 0.22197694
0.228118 0.25113183 0.22025976
-0.14988312 -0.34556496 0.23340014
-0.24279898 -0.1524303 0.23991217
0.228118 0.076551482 0.23275878
-0.24279901 0.1412771 0.23600054
0.228118 0.27611458 0.23452066
-0.15073867 0.34556499 0.23885444
-0.22568485 -0.34556499 0.24119134
-0.1597625 -0.34556499 0.24947248
-0.137758 0.34556499 0.245234
-0.10033063 -0.34556499 0.25635156
-0.060778297 -0.34556499 0.25159872
0.032024592 -0.34556499 0.25757706
-0.24279901 -0.20913146 0.25345135
0.228118 -0.15676391 0.25550297
0.22811799 -0.096965924 0.25796983
-0.24279901 -0.0734061 0.2532056
-0.24279901 -0.051157072 0.25295961
-0.24279898 -0.027106553 0.25767463
-0.16369958 0.34556499 0.252166
-0.12069844 0.34556499 0.25427622
0.040863626 0.34556499 0.25999892
-0.078656748 -0.34556499 0.26182956
0.22368956 -0.3342424 0.26764399
-0.086746417 -0.32255095 0.26764399
0.17296562 -0.32417405 0.26764399
0.22810462 -0.32902968 0.26764399
0.15772812 -0.30456111 0.26764399
-0.21116318 -0.29567543 0.26764399
0.058979675 -0.29097569 0.26764399
0.093085222 -0.29453418 0.26764399
0.18553218 -0.28710854 0.26764399
-0.035181396 -0.27580959 0.26764399
0.18156344 -0.27820596 0.26764399
-0.242799 -0.2620714 0.26036236
-0.17035484 -0.25814599 0.26764399
-0.060174532 -0.25235322 0.26764399
0.19563042 -0.25336191 0.26764399
0.048151448 -0.24914494 0.26764399
0.17211387 -0.23354298 0.26764399
0.18900156 -0.22301941 0.26764399
0.1110532 -0.21622333 0.26764399
0.16608717 -0.21431014 0.26764399
0.18724455 -0.19480518 0.26764399
-0.21130203 -0.18698359 0.26764399
-0.026642114 -0.18589918 0.26764399
0.0624981 -0.1833069 0.26764399
-0.19893889 -0.1511917 0.26764399
0.0035657659 -0.15855736 0.26764399
0.228118 -0.15752113 0.26703742
-0.032755598 -0.14764272 0.26764399
0.02358114 -0.14172308 0.26764399
0.091538481 -0.14319727 0.26764399
0.076404929 -0.13066947 0.26764399
0.1006385 -0.13893735 0.26764399
0.1561981 -0.1338408 0.26764399
0.22079478 -0.13931763 0.26764399
-0.23029533 -0.1243948 0.26764399
0.05927363 -0.12674622 0.26764399
-0.21848474 -0.11299115 0.26764399
0.017541908 -0.10071313 0.26764399
0.045393825 -0.10852316 0.26764399
0.018959418 -0.09482047 0.26764399
-0.17551871 -0.089070342 0.26764399
-0.13917014 -0.087699354 0.26764399
-0.1256987 -0.08096981 0.26764399
0.039574482 -0.081817433 0.26764399
0.14396077 -0.087552138 0.26764399
0.14951597 -0.076237321 0.26764399
-0.13626209 -0.065317251 0.26764399
-0.033035178 -0.061718784 0.26764399
0.047582626 -0.063897729 0.26764399
0.081365809 -0.067292854 0.26764399
0.20811644 -0.066902108 0.26764399
-0.13199086 -0.059335701 0.26764399
-0.17688334 -0.04476732 0.26764399
0.20597887 -0.046060219 0.26764399
-0.17916365 -0.033928365 0.26764399
0.010904633 -0.036067173 0.26764399
0.087925047 -0.035920564 0.26764399
0.20707446 -0.03995046 0.26764399
0.070172817 -0.020408798 0.26764399
-0.23335004 -0.010433525 0.26764399
0.028338533 -0.014612652 0.26764399
0.21771537 -0.00034694275 0.26764399
-0.020193294 0.032953814 0.26764399
0.12455538 0.03378538 0.26764399
0.154443 0.03205426 0.26764399
0.16436571 0.03186309 0.26764399
-0.24279901 0.046418726 0.26552278
-0.058937125 0.041789651 0.26764399
0.094563857 0.041660018 0.26764399
0.0303156 0.05465436 0.26764399
0.10783751 0.061725542 0.26764399
-0.19977319 0.076768689 0.26764399
0.15968853 0.080225661 0.26764399
0.16406006 0.087655291 0.26764399
0.20099325 0.087185204 0.26764399
-0.0035299137 0.10629141 0.26764399
0.19247612 0.10891236 0.26764399
0.0066651236 0.11708566 0.26764399
0.041737355 0.11710984 0.26764399
0.21143109 0.11611065 0.26764399
-0.22804551 0.12559232 0.26764399
-0.21419725 0.12006631 0.26764399
-0.19977629 0.12839517 0.26764399
-0.049205095 0.12936445 0.26764399
0.21479332 0.12743829 0.26764399
-0.096799642 0.1385964 0.26764399
0.0021878732 0.1356335 0.26764399
0.027182974 0.13760912 0.26764399
0.04188811 0.15445498 0.26764399
0.14064133 0.16141298 0.26764399
-0.19742157 0.1706368 0.26764399
0.04749335 0.17152858 0.26764399
0.099642769 0.17857671 0.26764399
-0.17622516 0.18064696 0.26764399
-0.0023003221 0.18560383 0.26764399
-0.0019968692 0.20216836 0.26764399
0.1751426 0.2077821 0.26764399
0.228118 0.20853558 0.26704741
0.060787223 0.21274573 0.26764399
0.13788942 0.23104829 0.26764399
0.16192129 0.23808904 0.26764399
-0.17872819 0.25283778 0.26764399
-0.16139576 0.26470542 0.26764399
-0.082777783 0.26042208 0.26764399
0.017309543 0.2602061 0.26764399
0.11434881 0.26689756 0.26764399
-0.242799 0.28077155 0.26356721
-0.1173909 0.28181171 0.26764399
-0.20740737 0.30247915 0.26764399
-0.21467243 0.31284687 0.26764399
-0.091426246 0.31590092 0.26764399
-0.031149054 0.31939697 0.26764399
-0.14597476 0.33943462 0.26764399
0.16868439 0.33690649 0.26764399
0.053030543 0.34160376 0.26764399
0.097248524 0.34325439 0.26764399
