# .PCD v0.7 - Point Cloud Data file format
VERSION 0.7
FIELDS x y z
SIZE 4 4 4
TYPE F F F
COUNT 1 1 1
WIDTH 967
HEIGHT 1
VIEWPOINT 0 0 0 1 0 0 0
POINTS 967
DATA ascii
0.22927721 -0.330154 -0.2965112
-0.21601768 -0.32568666 -0.29725397
-0.056851096 -0.32731849 -0.297254
-0.091891944 -0.31499952 -0.297254
0.11438861 -0.30977049 -0.297254
0.13848327 -0.30244952 -0.29725403
0.053457521 -0.28990477 -0.297254
0.14242798 -0.28152254 -0.297254
-0.21343338 -0.27626851 -0.297254
-0.12147853 -0.27155894 -0.29725397
-0.010460936 -0.27115917 -0.29725403
-0.22040892 -0.26461104 -0.297254
-0.21452746 -0.26542541 -0.297254
-0.14095251 -0.26158708 -0.29725397
0.16489539 -0.26672214 -0.29725403
-0.22151384 -0.25576675 -0.29725397
-0.009158954 -0.25961643 -0.297254
0.046563402 -0.25014541 -0.297254
-0.17749396 -0.24287111 -0.29725397
-0.044836849 -0.24805152 -0.297254
0.087479301 -0.24008682 -0.29725397
0.1038067 -0.24584645 -0.297254
0.15539333 -0.24367587 -0.297254
-0.059594132 -0.23217282 -0.297254
0.038956821 -0.22042243 -0.297254
0.15213346 -0.22180669 -0.297254
0.20024303 -0.2250663 -0.297254
-0.20912251 -0.21924278 -0.297254
-0.074139953 -0.21675034 -0.297254
-0.068810903 -0.21629386 -0.297254
-0.075027511 -0.20492789 -0.297254
-0.036194436 -0.20082623 -0.297254
0.099693455 -0.20414791 -0.297254
-0.17143613 -0.19954419 -0.297254
-0.044886671 -0.19158423 -0.297254
-0.20900771 -0.187666 -0.297254
-0.1261802 -0.18199812 -0.297254
-0.21154182 -0.17329943 -0.297254
0.0021031946 -0.17614171 -0.297254
0.01472513 -0.17684978 -0.297254
0.089337908 -0.17628869 -0.297254
0.18422821 -0.17294618 -0.297254
-0.07564982 -0.16485713 -0.297254
-0.21189125 -0.15894768 -0.297254
0.0077122599 -0.1536648 -0.297254
-0.13762778 -0.14564371 -0.297254
0.11111538 -0.14652632 -0.297254
0.21888366 -0.1440434 -0.297254
-0.012233999 -0.1373359 -0.297254
0.2053653 -0.13768497 -0.297254
-0.0065021217 -0.1209281 -0.297254
0.026998134 -0.12357354 -0.297254
0.12146226 -0.12972462 -0.297254
-0.070422284 -0.118695 -0.297254
-0.0082623139 -0.116737 -0.297254
-0.024434716 -0.10429164 -0.297254
-0.20415661 -0.099742435 -0.297254
-0.17968297 -0.0981628 -0.29725403
0.1571525 -0.097214252 -0.297254
-0.14980291 -0.084619798 -0.297254
-0.058104753 -0.083109483 -0.297254
0.064571172 -0.087940745 -0.297254
0.12065645 -0.083893597 -0.297254
-0.21344063 -0.063080899 -0.297254
0.035133086 -0.069728114 -0.297254
0.12171862 -0.069249287 -0.297254
0.19341302 -0.065781981 -0.29725403
-0.026102919 -0.053038385 -0.297254
0.18997303 -0.050967738 -0.297254
-0.089886315 -0.040172864 -0.297254
-0.031128319 -0.04316986 -0.297254
-0.0066932216 -0.044502914 -0.29725397
0.16583127 -0.044649489 -0.297254
0.17070261 -0.042027015 -0.297254
0.01753433 -0.036055923 -0.297254
0.099644631 -0.022194438 -0.297254
0.078700125 -0.011511192 -0.297254
0.099963382 -0.019806534 -0.297254
0.093111202 -0.0019734427 -0.297254
0.12947392 -0.00081498921 -0.297254
-0.1501919 0.00048095733 -0.297254
-0.21627212 0.016566485 -0.297254
-0.17087072 0.012014717 -0.297254
-0.1218029 0.016296379 -0.297254
-0.11047909 0.01272694 -0.297254
-0.17103165 0.025434721 -0.297254
-0.21615994 0.035554755 -0.297254
-0.084852308 0.034145441 -0.297254
0.039529048 0.052925944 -0.297254
0.19051573 0.069066815 -0.297254
-0.21533771 0.075746104 -0.297254
0.011770695 0.076832294 -0.297254
0.229431 0.074879423 -0.29653925
-0.22521058 0.091704115 -0.297254
0.070977122 0.10549712 -0.297254
0.229431 0.10491807 -0.29554671
-0.16548693 0.11615284 -0.297254
0.063080624 0.11730145 -0.297254
0.15262154 0.11392346 -0.297254
0.19529542 0.11840628 -0.297254
0.22671933 0.11522675 -0.29493523
-0.12388548 0.12636846 -0.297254
-0.12957734 0.13716571 -0.297254
-0.021368273 0.13726772 -0.297254
-0.036405116 0.14124148 -0.297254
-0.0065614581 0.14311612 -0.297254
0.061649628 0.14947966 -0.297254
0.18723559 0.16319573 -0.297254
-0.02746864 0.1759976 -0.297254
0.019304048 0.17479396 -0.297254
0.088249438 0.17956811 -0.297254
0.16806188 0.17379285 -0.297254
0.18292913 0.17180562 -0.29725403
-0.13863298 0.18259656 -0.297254
0.16592878 0.18189466 -0.297254
0.19347748 0.18416372 -0.297254
-0.0089854598 0.19369459 -0.297254
0.078888237 0.19021001 -0.297254
-0.16588002 0.20901489 -0.297254
-0.13823745 0.20095991 -0.297254
-0.052117053 0.20705441 -0.297254
0.0017919242 0.20550838 -0.297254
-0.16380209 0.21954671 -0.297254
-0.128445 0.21517441 -0.297254
0.01245214 0.21373284 -0.297254
0.10319507 0.21079874 -0.297254
-0.13663736 0.2271875 -0.297254
0.0054082349 0.22447607 -0.297254
0.06205222 0.22033067 -0.29725397
-0.229431 0.23260835 -0.29529482
-0.1462215 0.23314773 -0.297254
0.2213214 0.23251511 -0.29725403
0.010718562 0.24457528 -0.297254
-0.17452237 0.25694233 -0.297254
-0.074785255 0.25346681 -0.297254
0.16284519 0.25758013 -0.297254
0.17437805 0.25612125 -0.29725397
-0.14146772 0.26237932 -0.297254
0.048528746 0.26241249 -0.297254
0.097836867 0.26575306 -0.29725397
0.13523033 0.26322824 -0.297254
-0.055096552 0.27751634 -0.29725397
0.16217306 0.27705339 -0.297254
-0.22030516 0.28584182 -0.297254
-0.1484967 0.28017783 -0.297254
-0.12379132 0.29368562 -0.297254
0.053811379 0.29415879 -0.297254
0.073995203 0.29145065 -0.29725403
0.11660755 0.29324177 -0.29725397
0.17748757 0.29302198 -0.29725397
0.021308385 0.30880356 -0.297254
0.047855139 0.30899119 -0.297254
0.065291993 0.30742186 -0.297254
0.19859287 0.30084237 -0.297254
-0.12857816 0.31202912 -0.297254
0.0083872899 0.31882572 -0.29725403
0.17052576 0.31863484 -0.297254
0.0057482049 0.3242805 -0.297254
-0.14239834 0.330154 -0.29695281
0.008662425 0.330154 -0.29072177
0.030095391 0.330154 -0.29224059
0.11015271 0.330154 -0.29698431
-0.15528706 -0.330154 -0.28158957
-0.10830229 -0.330154 -0.28724664
-0.011914842 -0.330154 -0.28343186
0.229431 -0.14860156 -0.28136435
0.229431 -0.13399647 -0.28270546
-0.229431 -0.11922283 -0.28427038
-0.229431 0.042296588 -0.28765303
0.229431 0.14765859 -0.2867966
-0.10408828 0.330154 -0.28405502
-0.02614852 0.330154 -0.28601325
0.091457039 0.330154 -0.2824879
0.18116681 0.330154 -0.28726822
0.22943099 -0.32446563 -0.27057782
0.229431 -0.23820023 -0.27428043
-0.229431 -0.19435114 -0.2746743
0.229431 -0.051377386 -0.27129722
0.229431 -0.039717749 -0.27429327
0.22943102 0.054636359 -0.27024183
0.229431 0.062474906 -0.27246925
0.229431 0.22945774 -0.27601421
0.22943102 0.23475373 -0.27954707
-0.005389506 0.330154 -0.27876097
0.049163543 0.330154 -0.27616411
-0.069757894 -0.330154 -0.26157239
0.040495127 -0.330154 -0.26481202
-0.229431 -0.1301111 -0.26636472
-0.229431 -0.10890609 -0.26486591
0.229431 -0.072436094 -0.26084
-0.22943099 -0.061338514 -0.26187021
-0.229431 0.075134791 -0.26976159
0.229431 0.14837539 -0.26706728
0.229431 0.25826108 -0.26572138
-0.092731729 -0.330154 -0.25050262
0.07267943 -0.330154 -0.25612417
0.13884681 -0.330154 -0.25428966
0.229431 -0.28708738 -0.25959387
0.229431 -0.16257638 -0.25171277
0.229431 -0.039779574 -0.25269264
0.229431 0.014112636 -0.25769001
-0.229431 0.098845407 -0.25378516
-0.229431 0.13631202 -0.25584131
-0.229431 0.22687532 -0.2555002
-0.082381725 0.330154 -0.25449818
-0.078887835 0.330154 -0.25187212
0.044168562 0.330154 -0.25457215
0.22801195 0.330154 -0.25588787
0.038489103 -0.330154 -0.24108741
-0.229431 -0.28394702 -0.24289347
-0.229431 -0.21565354 -0.24441588
0.229431 -0.13287869 -0.24254487
0.229431 0.082135804 -0.2417998
0.229431 0.18608057 -0.24551356
-0.22829671 0.330154 -0.24240093
0.099064484 0.330154 -0.24258845
0.15966971 0.330154 -0.24053296
0.19800209 0.330154 -0.24909122
-0.03904612 -0.330154 -0.23935163
0.21078837 -0.330154 -0.23360072
-0.229431 -0.30765805 -0.23303565
-0.229431 -0.23772892 -0.23271328
0.229431 -0.16743071 -0.23781298
-0.229431 -0.087079562 -0.23281544
-0.229431 -0.031644002 -0.23827033
0.229431 0.11287717 -0.23671123
-0.229431 0.22838894 -0.23296162
0.229431 0.27163604 -0.23128715
-0.0047824085 -0.330154 -0.22487231
0.229431 -0.32155395 -0.22267587
-0.229431 -0.24196336 -0.22543344
0.229431 -0.078992844 -0.22463682
0.229431 -0.055832803 -0.22296004
-0.229431 -0.0063564181 -0.22069222
0.229431 0.036994338 -0.22187115
-0.229431 0.093524136 -0.22377929
-0.229431 0.18688862 -0.2275458
-0.229431 0.19810203 -0.22494279
0.229431 0.23079127 -0.22824882
0.028218478 0.330154 -0.22418183
0.033642102 0.330154 -0.22063431
0.0057231896 -0.330154 -0.2192146
0.16140085 -0.330154 -0.21450318
-0.229431 -0.29968986 -0.21288307
-0.229431 -0.27013263 -0.21773024
-0.229431 -0.21378356 -0.21654621
0.229431 -0.19133727 -0.21593535
-0.229431 -0.14265954 -0.21283184
-0.229431 -0.10987269 -0.21837476
0.229431 -0.028103441 -0.217539
0.229431 0.070090234 -0.21635982
-0.229431 0.090550072 -0.21321338
0.229431 0.18320018 -0.21668307
-0.22045773 -0.330154 -0.20303583
-0.18867163 -0.330154 -0.207578
-0.02366627 -0.330154 -0.209714
0.10504584 -0.330154 -0.20165853
0.1361386 -0.330154 -0.20688328
-0.229431 -0.25842333 -0.20334345
-0.229431 -0.18251997 -0.20331499
-0.229431 -0.17727765 -0.20791319
-0.229431 -0.16742252 -0.20655811
0.229431 0.014694691 -0.20004745
0.229431 0.073669687 -0.20036277
-0.229431 0.09540531 -0.209335
0.229431 0.10716515 -0.20500532
0.229431 0.19672519 -0.20493874
-0.229431 0.25330138 -0.20050098
-0.229431 0.2726483 -0.20898192
0.15746067 0.330154 -0.20477416
0.17211804 0.330154 -0.20339292
-0.17802534 -0.330154 -0.19954094
-0.14425553 -0.330154 -0.19428654
0.089308351 -0.330154 -0.19164142
0.13825925 -0.330154 -0.1921238
0.229431 -0.25160885 -0.1964677
0.229431 -0.12827924 -0.19754261
0.229431 -0.029512018 -0.19866009
-0.229431 0.12455672 -0.1909315
-0.2286723 0.330154 -0.19442308
-0.17838141 0.330154 -0.19272208
-0.10135262 0.330154 -0.19762081
0.21365032 -0.330154 -0.18947375
0.229431 -0.19809842 -0.18592018
0.229431 0.10661616 -0.18142262
-0.229431 0.17099537 -0.18639694
-0.229431 0.24387044 -0.18897261
0.229431 0.30617279 -0.18580484
-0.0030384921 0.330154 -0.18503116
-0.22380029 -0.330154 -0.17318112
-0.055085756 -0.330154 -0.17214635
-0.022090331 -0.330154 -0.1777378
0.054343812 -0.330154 -0.17899513
0.069101162 -0.330154 -0.17468615
0.10893129 -0.330154 -0.17790461
-0.229431 -0.30646309 -0.17636588
-0.229431 -0.046707869 -0.17206733
-0.229431 0.018462226 -0.17675035
0.229431 0.070293903 -0.17570457
-0.229431 0.31767952 -0.17025657
-0.22429509 0.330154 -0.1763301
-0.040053889 0.330154 -0.17013626
0.13288191 -0.330154 -0.16846171
-0.229431 -0.30100328 -0.1660551
0.229431 -0.30441827 -0.16378646
-0.229431 -0.23748931 -0.16815165
0.229431 -0.21442693 -0.16802958
0.229431 -0.18642044 -0.16097157
0.229431 -0.10436416 -0.16823502
0.229431 -0.065026626 -0.16954148
-0.229431 0.11188251 -0.16308701
-0.229431 0.120345 -0.16560471
0.229431 0.167606 -0.16017279
0.229431 0.20175116 -0.16409475
0.229431 0.23484315 -0.16979948
0.229431 0.27248308 -0.16612461
-0.029249508 0.330154 -0.16066822
0.033467513 0.330154 -0.16772063
0.16444765 0.330154 -0.16628182
-0.087823346 -0.330154 -0.15161636
-0.062661618 -0.330154 -0.15846966
0.12196672 -0.330154 -0.15168254
0.229431 -0.26351082 -0.15413202
-0.229431 -0.13572124 -0.15691665
0.229431 -0.056297868 -0.15776449
0.229431 0.053758882 -0.15888239
-0.229431 0.29597485 -0.15143757
-0.15013948 0.330154 -0.15793723
-0.10149956 0.330154 -0.15580733
0.18799533 0.330154 -0.15835181
0.13827123 -0.330154 -0.14186859
-0.229431 -0.31063443 -0.14017129
-0.229431 -0.22037503 -0.14931647
0.229431 -0.14018986 -0.14113919
0.229431 -0.080206148 -0.14739554
-0.229431 -0.022285298 -0.14009458
0.229431 0.11713232 -0.14153098
-0.14974239 0.330154 -0.14023381
0.095355704 0.330154 -0.14086041
0.18585776 0.330154 -0.14735255
-0.16917038 -0.330154 -0.1393977
0.011395905 -0.330154 -0.13065487
-0.229431 -0.17141677 -0.13511266
-0.229431 0.018231533 -0.13420635
0.229431 0.087779492 -0.13862981
-0.229431 0.22846252 -0.13257486
-0.19875616 0.330154 -0.13135386
-0.14348462 0.330154 -0.13230637
-0.10667143 0.330154 -0.13415579
-0.06158115 0.330154 -0.13563758
0.049308967 0.330154 -0.13528186
0.20527579 0.330154 -0.13128202
-0.21715459 -0.330154 -0.12220012
0.066892713 -0.330154 -0.12625477
0.071640313 -0.330154 -0.12096888
0.22425288 -0.330154 -0.12531646
0.229431 -0.22985132 -0.12542866
0.229431 -0.21679737 -0.12371548
-0.229431 -0.17420895 -0.12687397
-0.229431 -0.086149201 -0.12125278
0.229431 -0.010306936 -0.12538315
0.229431 0.020330299 -0.12997454
0.229431 0.031619757 -0.12518042
-0.229431 0.042561103 -0.12511468
0.229431 0.072866812 -0.12685667
0.229431 0.089051105 -0.12979017
0.229431 0.15201457 -0.12325319
-0.229431 0.18907744 -0.12189613
0.229431 0.19987278 -0.12368567
0.229431 0.2776114 -0.12026288
0.229431 0.32435477 -0.12051222
0.01991567 0.330154 -0.12997979
0.056645729 0.330154 -0.12026206
0.089298986 -0.330154 -0.116726
-0.229431 -0.32100636 -0.1147429
0.229431 -0.18137231 -0.1195821
-0.229431 -0.11559882 -0.11260915
0.229431 -0.11163602 -0.11033243
0.229431 -0.085004322 -0.11639203
-0.229431 -0.077602804 -0.11099862
-0.229431 -0.048933804 -0.11368487
0.229431 0.020634621 -0.11544846
-0.229431 0.13165714 -0.11496057
-0.229431 0.2658014 -0.11479273
0.229431 0.26896793 -0.11085507
-0.229431 0.29149127 -0.11883706
0.229431 0.30525917 -0.11027277
-0.22444582 0.330154 -0.11251201
-0.12801009 0.330154 -0.11438364
-0.064756446 0.330154 -0.11397512
-0.025305485 0.330154 -0.11556931
0.038357385 0.330154 -0.11480961
0.16095996 0.330154 -0.11267322
-0.10999987 -0.330154 -0.10121473
-0.0074705305 -0.330154 -0.10396452
0.027346954 -0.330154 -0.10495186
0.229431 -0.32929701 -0.10456573
-0.229431 -0.31869477 -0.10330889
0.229431 -0.31284839 -0.10000239
0.229431 -0.30958208 -0.10814225
0.229431 -0.29828173 -0.10696452
-0.229431 -0.03761901 -0.1071258
0.229431 -0.017863495 -0.10209778
-0.229431 0.041605435 -0.10246668
0.229431 0.19075635 -0.10006739
-0.0836467 0.330154 -0.10944584
-0.023499176 0.330154 -0.10656208
0.033157963 0.330154 -0.10307882
0.10914034 0.330154 -0.10801929
-0.050543234 -0.330154 -0.09717977
0.065116458 -0.330154 -0.099381983
0.229431 -0.13529861 -0.096743971
0.229431 -0.11955243 -0.097137354
-0.229431 -0.025790878 -0.09240751
0.229431 -0.022626882 -0.099880293
-0.229431 0.050987937 -0.090535447
0.229431 0.083965003 -0.099883154
0.229431 0.091998667 -0.097402602
-0.229431 0.15136923 -0.092044175
0.229431 0.23391257 -0.093154617
0.229431 0.27490774 -0.099368259
0.229431 0.31060952 -0.092306569
-0.2128412 0.330154 -0.098975971
-0.16856271 -0.330154 -0.084911428
-0.075656801 -0.330154 -0.083886631
-0.045616794 -0.330154 -0.087218031
0.090497628 -0.330154 -0.083028212
-0.229431 -0.15381861 -0.089032575
0.229431 -0.094598003 -0.08456023
0.229431 -0.06733045 -0.086109519
-0.229431 0.064587086 -0.085133545
0.229431 0.23697409 -0.086496055
-0.21781233 0.330154 -0.08529181
-0.17826521 0.330154 -0.084914155
-0.070107527 0.330154 -0.084222466
0.044081379 0.330154 -0.088015527
-0.1898973 -0.330154 -0.074600831
-0.078079969 -0.330154 -0.074155413
0.020540364 -0.330154 -0.071903199
0.10976386 -0.330154 -0.077477723
0.229431 -0.15484597 -0.07791391
-0.229431 -0.12498677 -0.076095641
0.229431 -0.080294162 -0.071419805
-0.229431 -0.034258541 -0.073029347
-0.229431 -0.0072230101 -0.078728594
-0.229431 0.30227742 -0.075298861
-0.13064691 0.330154 -0.078095078
-0.058712956 0.330154 -0.073465981
-0.040823065 0.330154 -0.07653521
0.19113836 0.330154 -0.070524164
-0.19272733 -0.330154 -0.061659753
-0.15618896 -0.330154 -0.065481879
-0.11857177 -0.330154 -0.067603
-0.070124671 -0.330154 -0.062581338
0.11613981 -0.330154 -0.06440828
-0.229431 -0.29453099 -0.060818151
-0.229431 -0.24766809 -0.067443028
0.229431 -0.23553354 -0.065366767
0.229431 -0.14999662 -0.063219644
-0.229431 -0.11091767 -0.063321784
0.229431 -0.093013048 -0.062577248
-0.229431 0.27458662 -0.062041923
-0.16790557 0.330154 -0.068116382
-0.037487403 0.330154 -0.066480003
0.11309661 0.330154 -0.065912001
0.16621187 0.330154 -0.060096689
-0.17782947 -0.330154 -0.053153768
-0.021556132 -0.330154 -0.057777897
0.05558259 -0.330154 -0.055165499
0.21368363 -0.330154 -0.054219678
-0.229431 -0.32504597 -0.05317609
-0.229431 -0.20259312 -0.055376437
0.229431 -0.20359826 -0.057905819
-0.229431 -0.17167199 -0.059541222
-0.229431 -0.064639933 -0.058049921
-0.229431 0.12612568 -0.058358483
0.229431 0.14535412 -0.054486185
0.229431 0.16392113 -0.052769922
0.229431 0.27428406 -0.053832222
-0.200892 0.330154 -0.051607743
-0.13169914 0.330154 -0.055235974
-0.031884901 0.330154 -0.054685988
0.11934762 0.330154 -0.054539695
-0.085441828 -0.330154 -0.048278928
-0.060094841 -0.330154 -0.04038683
-0.012637551 -0.330154 -0.047925062
0.064636104 -0.330154 -0.040305212
0.16682705 -0.330154 -0.044644475
0.18313754 -0.330154 -0.048465446
0.229431 -0.25681525 -0.048126593
0.229431 -0.17393142 -0.04188364
0.229431 -0.1681439 -0.042712674
-0.229431 -0.063686714 -0.04791218
0.229431 -0.051342517 -0.047361717
-0.229431 -0.015753455 -0.048946485
-0.229431 0.086683653 -0.040414561
0.229431 0.1596262 -0.046881787
0.229431 0.21053267 -0.048012517
-0.016610622 0.330154 -0.045185819
0.071860649 0.330154 -0.046854381
-0.11857241 -0.330154 -0.031381033
0.033613183 -0.330154 -0.036128193
0.12855324 -0.330154 -0.038008913
0.17984875 -0.330154 -0.031480122
0.21751 -0.330154 -0.03408464
-0.229431 -0.27012426 -0.030719101
-0.229431 -0.15062386 -0.030344576
-0.229431 -0.10009992 -0.033752076
0.229431 -0.043992002 -0.030221527
0.229431 0.011140242 -0.031467475
0.229431 0.13877736 -0.038936064
0.229431 0.2428872 -0.039559051
-0.15740255 0.330154 -0.030608088
-0.086807385 0.330154 -0.032849453
-0.079246461 0.330154 -0.038020156
-0.067858294 0.330154 -0.0313401
0.17758861 0.330154 -0.03118778
0.229431 -0.29523644 -0.022940211
0.229431 -0.28322637 -0.023680167
-0.229431 -0.19697002 -0.02105071
0.229431 -0.19377692 -0.027618881
0.229431 -0.015086574 -0.022542426
-0.229431 0.023857504 -0.021826014
0.229431 0.079789385 -0.025858875
-0.1896057 0.330154 -0.020178355
-0.062289879 0.330154 -0.027490623
0.22728075 0.330154 -0.023135804
0.0057514124 -0.330154 -0.0105916
0.11949172 -0.330154 -0.014122635
0.15200916 -0.330154 -0.016853109
-0.229431 -0.21041659 -0.0169736
-0.229431 -0.13969825 -0.010780126
0.229431 -0.12804601 -0.014157792
-0.229431 0.1644994 -0.014436744
0.229431 0.21457633 -0.012456529
-0.229431 0.25105 -0.0144924
0.229431 0.27543601 -0.013834648
-0.055303141 0.330154 -0.012801334
-0.029207125 0.330154 -0.010924302
0.11688808 0.330154 -0.017766979
-0.052140221 -0.330154 -0.0037407652
0.11724415 -0.330154 -0.00038575381
0.229431 -0.24398845 -0.00030465424
0.229431 -0.17003164 -0.0023120232
0.229431 -0.081615776 -0.0074072587
-0.229431 0.11663602 -0.0033147745
0.229431 0.16806966 -0.006091807
0.229431 0.22280097 -0.0063612536
-0.20487358 0.330154 -0.0079442337
-0.056876875 0.330154 -0.0028689653
-0.03061536 0.330154 -0.0063381195
0.021039158 0.330154 -0.0090788379
-0.11573288 -0.330154 0.0078285262
-0.033842195 -0.330154 0.00054447353
0.0099258646 -0.330154 0.001330046
0.12495623 -0.330154 0.0060171485
0.19267398 -0.330154 0.0055592954
0.229431 -0.25873816 0.0015695691
-0.229431 -0.050971597 0.0077732857
0.229431 0.010351699 0.0077832397
-0.229431 0.070161313 0.005683817
0.229431 0.14986405 0.0034427494
-0.19546287 0.330154 0.0039389059
-0.22713996 -0.330154 0.016986065
-0.20970187 -0.330154 0.010011144
-0.15433303 -0.330154 0.018316135
-0.229431 -0.31757015 0.011551945
0.229431 -0.29818448 0.010532185
-0.229431 -0.047177203 0.012633073
0.229431 0.095249489 0.019022178
-0.229431 0.15343127 0.017805424
-0.229431 0.19916871 0.014110908
-0.229431 0.2439698 0.011647232
0.229431 0.27762383 0.017213983
-0.18825662 0.330154 0.016065769
-0.11204037 0.330154 0.01481412
-0.09060967 0.330154 0.013107203
-0.051095597 0.330154 0.012095317
0.011753388 0.330154 0.015030341
0.22384286 0.330154 0.016611382
-0.229431 -0.29390508 0.020956583
0.229431 -0.18265837 0.022136696
0.229431 -0.11646651 0.024491953
0.229431 -0.024716046 0.029422184
0.229431 -0.0089913234 0.021772888
0.229431 0.21019527 0.022175752
-0.074484378 0.330154 0.025885232
-0.022613257 0.330154 0.028840855
-0.15373039 -0.330154 0.039702598
0.020854171 -0.330154 0.038826093
0.041411735 -0.330154 0.03052333
0.17269216 -0.330154 0.036113046
0.229431 0.048924841 0.037227742
-0.229431 0.099480152 0.031324923
-0.229431 0.2271432 0.033453688
0.229431 0.22398199 0.037977874
-0.229431 0.29280549 0.039667703
-0.18096197 0.330154 0.03661602
-0.1523962 0.330154 0.036446288
0.021706685 0.330154 0.032900136
-0.18554206 -0.330154 0.047462247
-0.16574682 -0.330154 0.048931696
0.069570154 -0.330154 0.040217288
0.20674783 -0.330154 0.045838945
0.229431 -0.25306174 0.043752573
0.22943102 -0.088013306 0.040242106
-0.229431 -0.051804721 0.046849549
0.229431 0.055304948 0.0456459
0.229431 0.094544306 0.044534821
0.229431 0.23296206 0.048167236
0.229431 0.27851203 0.049467627
-0.17722592 0.330154 0.04181717
-0.15436567 0.330154 0.043810837
-0.13889369 0.330154 0.041716762
-0.09261357 0.330154 0.041606039
-0.20352644 -0.330154 0.052063674
0.096552722 -0.330154 0.056696028
0.229431 -0.32873183 0.055849437
-0.229431 -0.15139991 0.054035705
-0.229431 -0.071253419 0.05576868
0.229431 -0.075586781 0.05007695
-0.229431 -0.052323766 0.058657713
-0.229431 0.19030698 0.05925674
-0.229431 0.22768635 0.051630508
-0.039933141 0.330154 0.051373184
-0.19115892 -0.330154 0.064471357
-0.13836168 -0.330154 0.069026224
0.229431 -0.32647628 0.065683514
0.229431 -0.28502518 0.062707156
-0.229431 -0.25343946 0.061514378
0.229431 -0.14687899 0.063982211
0.229431 -0.10391665 0.069066823
0.229431 -0.035918787 0.069297545
-0.229431 0.026498016 0.068658948
-0.229431 0.21724603 0.066826224
0.229431 0.28230286 0.064847179
-0.09912993 0.330154 0.065553337
0.229431 -0.31682953 0.078530312
-0.229431 -0.25716707 0.073308922
0.229431 -0.22880489 0.079182923
-0.22943102 -0.19789894 0.079756796
0.229431 -0.12257478 0.075982228
-0.229431 -0.11809754 0.074171871
0.229431 -0.074293233 0.072175175
0.229431 0.0074792951 0.07940916
0.229431 0.02472949 0.073122948
-0.229431 0.13028646 0.074220598
-0.229431 0.17480125 0.071905129
0.229431 0.17191646 0.07699547
0.229431 0.21831822 0.075679339
-0.19758099 0.330154 0.076516964
-0.15905932 0.330154 0.079089463
-0.22768924 -0.33015403 0.080393814
-0.12708321 -0.330154 0.083982751
-0.10266113 -0.330154 0.085477553
-0.018502347 -0.330154 0.085088529
0.085020602 -0.330154 0.089488216
-0.229431 -0.31268829 0.080737993
-0.229431 -0.30156428 0.084651947
-0.229431 -0.24211524 0.084226534
-0.229431 0.0079762042 0.080661438
0.229431 0.0080805048 0.083351359
0.229431 0.18109436 0.087911531
0.229431 0.21425796 0.086992718
0.229431 0.26417384 0.087163262
-0.20219663 0.330154 0.081156343
-0.0090828091 0.330154 0.088208988
0.1632926 0.330154 0.083763584
0.17052177 0.330154 0.088826314
-0.19433747 -0.330154 0.094675504
-0.17249872 -0.330154 0.092541575
-0.14747052 -0.330154 0.093539663
-0.10783491 -0.330154 0.090566665
0.026400933 -0.330154 0.099185944
0.229431 -0.31917101 0.090233199
0.229431 -0.29117435 0.099340335
-0.229431 -0.27411246 0.091671214
0.22943099 -0.23670876 0.097039811
-0.229431 -0.064648487 0.096124314
-0.229431 -0.031124428 0.094768614
-0.229431 -0.015208967 0.096965447
0.229431 -0.0056317598 0.093545906
-0.041897271 0.330154 0.098301619
-0.01159871 0.330154 0.092063218
0.061428577 0.330154 0.092332549
0.084386572 0.330154 0.093603402
-0.22347312 -0.330154 0.10264219
0.229431 -0.27023691 0.10394078
0.229431 -0.24201587 0.10189404
0.229431 -0.051423922 0.1060838
0.229431 -0.0098224282 0.10672387
0.229431 0.0047354549 0.10847514
0.229431 0.18009092 0.10526195
-0.229431 0.23820731 0.10854124
-0.229431 0.26449311 0.10591207
-0.229431 0.31583595 0.101469
0.229431 0.31858775 0.100573
0.22943099 0.32895494 0.10763444
-0.14847355 0.330154 0.1042371
-0.023998909 0.330154 0.10587712
0.016511783 0.330154 0.10666842
-0.2273619 -0.330154 0.11714381
-0.20677437 -0.330154 0.11292772
-0.1046956 -0.330154 0.11293191
-0.229431 -0.22900963 0.11555374
-0.229431 -0.21994162 0.11652825
-0.229431 -0.18595189 0.1188676
0.229431 -0.16183542 0.11324047
-0.229431 -0.14600685 0.11886453
-0.229431 0.076901115 0.11861392
-0.229431 0.091969371 0.11176059
0.229431 0.15498902 0.11197608
0.229431 0.26235747 0.11556397
-0.015854515 0.330154 0.11746281
0.18681879 -0.330154 0.12918526
-0.229431 -0.23603435 0.12285222
0.229431 -0.072425723 0.12953329
-0.229431 0.0067408755 0.12593065
-0.229431 0.2248137 0.12962705
0.229431 0.31118101 0.12246199
-0.21275498 0.330154 0.12225701
-0.1057253 0.330154 0.12021758
-0.018401476 0.330154 0.1285084
0.16338089 0.330154 0.12664483
-0.19161578 -0.330154 0.13018033
-0.16083618 -0.330154 0.13532342
-0.04181277 -0.330154 0.13272834
0.055414267 -0.330154 0.13263869
0.20430027 -0.330154 0.13710876
-0.22943099 -0.3204211 0.13366634
-0.229431 -0.28627264 0.13730147
0.229431 -0.28962582 0.13268271
-0.229431 -0.21994856 0.13024631
-0.229431 -0.20369619 0.1344834
-0.229431 -0.17435768 0.13289437
-0.229431 -0.025453158 0.13379295
-0.229431 0.064462759 0.13031797
-0.21510021 0.330154 0.13140236
-0.11891213 0.330154 0.13984995
-0.013953512 0.330154 0.13869445
0.026670881 0.330154 0.13614553
0.16577926 0.330154 0.13050342
0.20200039 0.330154 0.13002528
-0.029517442 -0.330154 0.14749412
0.014272101 -0.330154 0.14061441
0.14507776 -0.330154 0.14469442
0.229431 -0.22030883 0.14526279
0.229431 -0.21136041 0.14519194
0.229431 -0.18916371 0.14012307
-0.229431 -0.10731524 0.14660402
-0.229431 -0.048488725 0.14432557
-0.229431 0.026029997 0.14806953
-0.229431 0.18593384 0.14744496
0.229431 0.30537239 0.1494427
-0.17798281 0.330154 0.14564034
0.19427086 0.330154 0.14982793
-0.1382257 -0.330154 0.15652227
0.052216791 -0.330154 0.15626645
0.17676766 -0.330154 0.15866226
0.1811298 -0.330154 0.15960711
0.229431 -0.12234479 0.15271924
-0.229431 -0.059929982 0.15222183
-0.229431 0.16239628 0.15419388
0.229431 0.26480043 0.153063
0.10851394 0.330154 0.15162088
0.019691668 -0.32841009 0.16160899
0.16869894 -0.32052627 0.16160899
-0.10297641 -0.31582582 0.16160899
-0.032187596 -0.3164272 0.16160899
0.037119359 -0.31792554 0.16160899
0.17958629 -0.31642312 0.16160899
-0.21809497 -0.30843496 0.16160899
-0.15228899 -0.30763018 0.16160899
-0.12055574 -0.30340427 0.16160899
0.17897865 -0.30475849 0.16160899
-0.055625305 -0.29998332 0.16160899
-0.00086075813 -0.29324412 0.16160899
0.034924787 -0.28500456 0.16160899
0.060094185 -0.28184903 0.16160899
-0.13266231 -0.27153572 0.16160899
-0.10915573 -0.27052385 0.16160899
-0.0032571852 -0.27152058 0.16160899
0.229431 -0.27616295 0.16042154
-0.21036312 -0.26496291 0.16160899
-0.02152165 -0.26805812 0.16160899
-0.2139523 -0.25260749 0.16160899
-0.21783882 -0.24836111 0.16160899
0.064115733 -0.24322666 0.16160899
0.12360302 -0.24628542 0.16160899
0.068709217 -0.23075867 0.16160899
0.008713956 -0.22092929 0.16160899
0.13539889 -0.22424015 0.16160899
0.22266465 -0.22926924 0.16160899
-0.025991617 -0.21473293 0.16160899
0.229431 -0.21532542 0.16031671
-0.22749653 -0.20584099 0.16160899
-0.04665006 -0.20040473 0.16160899
0.10139257 -0.20305605 0.16160899
-0.017599078 -0.19986232 0.16160899
0.18808524 -0.19188406 0.16160899
-0.19588874 -0.18023431 0.16160899
0.035225689 -0.18619797 0.16160899
0.054941408 -0.18359569 0.16160899
0.15151832 -0.18547294 0.16160899
-0.21200573 -0.17819953 0.16160899
-0.042999115 -0.17725216 0.16160899
-0.022490107 -0.17385527 0.16160899
0.075382657 -0.17942084 0.16160899
0.15669839 -0.17592037 0.16160899
0.18809482 -0.17235094 0.16160899
-0.064207979 -0.1678824 0.16160899
-0.19267875 -0.15047255 0.16160899
-0.229431 -0.14785689 0.16131727
-0.029785756 -0.14068136 0.16160899
0.011921276 -0.14649259 0.16160899
0.15580533 -0.134506 0.16160899
-0.1868549 -0.12760937 0.16160899
-0.16758934 -0.11849858 0.16160899
0.16405754 -0.11566225 0.16160899
-0.21510121 -0.096166864 0.16160899
-0.16761315 -0.098782092 0.16160899
-0.13931344 -0.090271816 0.16160899
-0.084015526 -0.095529169 0.16160899
0.22495732 -0.097566031 0.16160899
-0.093728565 -0.084756717 0.16160899
0.065994866 -0.089746743 0.16160899
0.11452319 -0.089420259 0.16160899
-0.10401652 -0.073926263 0.16160899
-0.0075039216 -0.076687247 0.16160899
0.10748959 -0.060848709 0.16160899
0.19225088 -0.061035395 0.16160899
-0.15700077 -0.05342409 0.16160899
0.16682798 -0.055453844 0.16160899
-0.023512442 -0.041893516 0.16160899
0.024138449 -0.041856319 0.16160899
0.1967701 -0.047388941 0.16160899
-0.16256343 -0.036764603 0.16160899
0.10849163 -0.022965929 0.16160899
0.12681492 -0.021887779 0.16160899
0.20630883 -0.013741694 0.16160899
-0.21662417 -0.007437557 0.16160899
-0.071154185 -0.0030556507 0.16160899
0.067444116 -0.0037726779 0.16160899
-0.14825004 0.0072655273 0.16160899
-0.027971856 0.0060157748 0.16160899
0.12728406 0.0098862899 0.16160899
0.18914522 0.0090460442 0.16160899
0.19965409 0.00064571202 0.16160899
-0.094610676 0.016632473 0.16160899
-0.034322143 0.01361604 0.16160899
-0.18046767 0.02472502 0.16160899
-0.1781802 0.020708397 0.16160899
-0.11065812 0.036598593 0.16160899
0.053805847 0.038194232 0.16160899
0.066702589 0.048035212 0.16160899
-0.14279062 0.059542537 0.16160899
-0.056378379 0.05546587 0.16160899
0.099983342 0.051508613 0.16160899
0.11816779 0.058714002 0.16160899
-0.19991571 0.06026667 0.16160899
-0.14417964 0.078454792 0.16160899
0.17995898 0.086512111 0.16160899
0.22244391 0.080897331 0.16160899
-0.20997319 0.098659791 0.16160899
-0.15534484 0.096570142 0.16160899
-0.14843544 0.093937583 0.16160899
0.1525448 0.09628734 0.16160899
0.19001377 0.096741892 0.16160899
-0.22707002 0.11884649 0.16160899
-0.14888562 0.11757158 0.16160899
-0.041474268 0.12888373 0.16160899
-0.036018632 0.12753712 0.16160899
-0.013899899 0.12018104 0.16160899
0.043995116 0.12569381 0.16160899
0.089985676 0.1249254 0.16160899
0.098877616 0.12008657 0.16160899
-0.039251588 0.13292509 0.16160899
-0.013346467 0.13894954 0.16160899
0.019235067 0.1330259 0.16160899
0.094212763 0.13926613 0.16160899
0.062287163 0.14206651 0.16160899
0.063224159 0.15724869 0.16160899
0.13899697 0.15544468 0.16160899
-0.17136751 0.16979784 0.16160899
0.04910598 0.16732027 0.16160899
0.13942817 0.16071583 0.16160899
-0.014110327 0.17990759 0.16160899
0.019114062 0.1739646 0.16160899
0.18038395 0.17975795 0.16160899
-0.14786403 0.1883153 0.16160899
-0.016815148 0.18256551 0.16160899
0.20731363 0.18436959 0.16160899
-0.22441767 0.19966659 0.16160899
-0.18718822 0.19291891 0.16160899
0.12400576 0.19401418 0.16160899
0.14235979 0.19289885 0.16160899
-0.17188887 0.20341349 0.16160899
-0.14466226 0.2097577 0.16160899
-0.044556223 0.20222962 0.16160899
0.10513936 0.20869844 0.16160899
0.14171973 0.21980506 0.16160899
0.16413593 0.21868691 0.16160899
-0.18224774 0.2212296 0.16160899
-0.17628266 0.22446661 0.16160899
-0.0074754879 0.22007662 0.16160899
0.14760947 0.23172525 0.16160899
0.036472358 0.24913967 0.16160899
-0.19351293 0.25440043 0.16160899
0.21410526 0.25089216 0.16160899
-0.22410215 0.2634708 0.16160899
-0.21799321 0.26723343 0.16160899
0.015851451 0.27757043 0.16160899
-0.17919183 0.30010003 0.16280285
-0.14686543 0.30260429 0.16160899
-0.040471651 0.3001 0.16535835
-0.0096343355 0.30950877 0.16160899
0.011371097 0.30725724 0.16160899
0.020114888 0.30268866 0.16160899
-0.14480042 0.31430376 0.16160899
-0.043649502 0.31683397 0.16160899
0.12115555 0.31652713 0.16160899
0.15769199 0.32692218 0.16160899
-0.033988521 0.231874 0.17655429
0.11607958 0.24925801 0.17898221
0.17776595 0.25670472 0.17003
0.11919504 0.28187227 0.17323574
-0.12147933 0.30009997 0.17199147
-0.11696018 0.3001 0.17852895
-0.032464597 0.23187402 0.18240352
0.06939999 0.27517274 0.185763
0.079125538 0.28063661 0.185763
0.057644553 0.2917982 0.18074563
-0.10087292 0.3001 0.1896513
-0.0012996055 0.3001 0.18881139
-0.036646672 0.231874 0.19525492
-0.017482152 0.231874 0.19575593
-0.185067 0.24228372 0.19588837
0.0019449 0.28927535 0.19461298
-0.037775807 0.3001 0.19439591
-0.07044626 0.23187399 0.20605651
-0.05909659 0.23187399 0.20729263
-0.15858763 0.3001 0.20013598
-0.17057386 0.23187402 0.21938597
-0.051896114 0.23187399 0.21387163
-0.037377164 0.231874 0.21716923
-0.013710745 0.231874 0.21282229
-0.185067 0.2415248 0.21756834
-0.046277273 0.231874 0.22026961
-0.0633725 0.30010003 0.22044569
-0.055863392 0.3001 0.22565219
-0.044465315 0.231874 0.23710592
0.0019449 0.26029006 0.24482395
-0.16712931 0.23187402 0.25317577
-0.072597884 0.23187399 0.25413957
0.0019449 0.27969712 0.25966048
-0.185067 0.2877441 0.26905781
-0.18506701 0.28084862 0.27190238
0.0019449 0.29778394 0.27333581
-0.12310421 0.23187402 0.2880322
-0.14449386 0.3001 0.28018838
-0.16982307 0.24284476 0.297254
-0.0035078805 0.26302782 0.297254
-0.10484307 0.27101707 0.297254
-0.17925641 0.28857094 0.297254
-0.098273918 0.29224873 0.297254
-0.063239738 0.3001 0.2957806
-0.045957267 0.3001 0.29497778
