# .PCD v0.7 - Point Cloud Data file format
VERSION 0.7
FIELDS x y z
SIZE 4 4 4
TYPE F F F
COUNT 1 1 1
WIDTH 930
HEIGHT 1
VIEWPOINT 0 0 0 1 0 0 0
POINTS 930
DATA ascii
0.21647894 -0.30676928 -0.23259087
0.2552093 -0.25290236 -0.23259006
0.24573301 -0.23037964 -0.23259018
0.23816839 -0.19922544 -0.23259032
0.24428807 -0.17711434 -0.23259024
0.2557987 -0.15896183 -0.232591
0.26435786 -0.1262372 -0.23148055
0.23669145 -0.1174682 -0.23259041
0.23002361 -0.1087182 -0.23259053
0.25130874 -0.10151002 -0.232591
0.23723963 -0.096872441 -0.23259041
0.26157594 -0.099233486 -0.232591
0.24874827 -0.085159928 -0.232591
0.26148546 -0.035251759 -0.23258226
0.26485166 -0.026243761 -0.23003946
0.2157483 0.00014583766 -0.23259088
0.2433567 0.0076289363 -0.232591
0.22583449 0.012102544 -0.23259066
0.23188628 0.025554508 -0.23259102
0.26463652 0.03849439 -0.23102808
0.24458583 0.056982063 -0.23258603
0.2434981 0.10009378 -0.23258777
0.23843277 0.11690295 -0.23258846
0.22791091 0.14380841 -0.23258956
0.22266918 0.16005509 -0.23259023
0.22410554 0.18527871 -0.232591
0.24875489 0.18022786 -0.2318446
0.25044936 0.18754765 -0.232591
0.24683754 0.22599946 -0.232591
0.23772857 0.24839391 -0.232591
0.25568429 0.28344604 -0.23245773
0.23528695 0.29502183 -0.23228964
0.26201764 -0.27439076 -0.22947545
0.26494101 0.17212367 -0.22922015
0.23509678 0.339008 -0.22825646
0.26160681 -0.27821854 -0.2110156
0.26494101 0.024568049 -0.21886274
0.26289538 0.181821 -0.2163326
0.25573081 -0.32313651 -0.20521362
0.26323462 -0.25855893 -0.20638007
0.26454997 -0.23353095 -0.20299469
0.26494101 -0.1754282 -0.20036073
0.26494101 0.044515923 -0.20108396
0.26494101 0.07354857 -0.20465565
0.26494101 0.097491786 -0.20420974
0.26266894 0.28762925 -0.20515105
0.23296362 0.33900803 -0.20609976
0.24594915 0.339008 -0.207462
0.25462526 0.33101493 -0.20072493
0.22114566 -0.337883 -0.19962828
0.26494101 -0.10094138 -0.19178286
0.26494101 -0.088302627 -0.19349922
0.26494101 0.1155744 -0.19185635
0.26424271 0.1842867 -0.19353282
0.26403785 0.2437399 -0.19926378
0.26091328 0.28484455 -0.1979337
0.25047037 0.33893719 -0.19840729
0.25545919 -0.32474309 -0.18497232
0.26494101 -0.1835784 -0.18605991
0.26494101 -0.084666371 -0.18090467
0.26494101 -0.023682203 -0.18525416
0.26494101 -0.0020218578 -0.18167962
0.26141652 0.28011638 -0.1882655
0.26494101 -0.071716256 -0.1740604
0.22572722 -0.016870705 -0.1733045
0.25366291 -0.016497441 -0.17151266
0.2647495 -0.012052272 -0.17575623
0.25778979 -0.0031617354 -0.17249867
0.21971077 0.0052185184 -0.17582463
0.26097676 0.012880374 -0.17345014
0.25758052 0.031411085 -0.17290068
0.28000939 0.04408567 -0.17132184
0.2506513 0.063343152 -0.17022303
0.26494101 0.097972929 -0.17162764
0.26376909 0.24935663 -0.17633934
0.23656937 -0.337883 -0.1653772
0.25279701 -0.33678579 -0.16385171
0.26230824 -0.2706103 -0.16170543
0.26494101 -0.15623227 -0.16825551
0.24580178 -0.05839131 -0.1607112
0.27598816 -0.044307567 -0.16316837
0.24657902 -0.012540942 -0.16712308
0.21559501 0.05832883 -0.16108388
0.26625186 0.061449371 -0.16783024
0.27744368 0.063849628 -0.16725151
0.25681183 0.071972281 -0.16790853
0.22258762 0.086978912 -0.16261271
0.26494101 0.090983048 -0.16113643
0.26494101 0.15423173 -0.16642335
0.26670587 0.22909212 -0.16168696
0.2629464 0.2619532 -0.16688953
0.21359964 -0.337883 -0.15362772
0.22977789 -0.337883 -0.15988749
0.26494101 -0.20292003 -0.15705314
0.26494101 -0.10535769 -0.15822247
0.2491167 -0.07357017 -0.1532512
0.28210253 -0.059749022 -0.15659508
0.21559501 -0.03791073 -0.15263112
0.284547 -0.029636843 -0.15702701
0.24657902 0.033497728 -0.15630077
0.24481124 0.10297421 -0.15517002
0.26363623 0.10278091 -0.15199101
0.26494101 0.14389358 -0.15217447
0.26494101 0.16242027 -0.15803915
0.25787604 0.309838 -0.15173124
0.25019795 -0.33784896 -0.14727673
0.26468354 -0.22767201 -0.1484381
0.26481259 -0.21929716 -0.14886191
0.26494101 -0.1113567 -0.14059576
0.23536238 -0.092692479 -0.14103751
0.24472144 -0.084180877 -0.14704171
0.284547 -0.071606278 -0.14449209
0.2401806 -0.011352353 -0.14142053
0.26591969 -0.015946407 -0.14042255
0.2807225 -0.017381897 -0.14007631
0.21559501 -0.0092636272 -0.14431712
0.2391353 0.0039223116 -0.14340515
0.25671214 0.0019235021 -0.14331071
0.21559501 0.016949277 -0.14382818
0.25270024 0.014957195 -0.14392757
0.27643034 0.016792091 -0.14397162
0.27821901 0.021831619 -0.14041135
0.24405971 0.032452166 -0.14307448
0.284547 0.036588103 -0.14874274
0.21548492 0.046615843 -0.14090824
0.2254601 0.043968089 -0.14143017
0.21559501 0.089397199 -0.14608733
0.26711679 0.10945343 -0.14814056
0.24978079 0.11752634 -0.14320235
0.27892315 0.11859603 -0.14243853
0.23716156 0.1252944 -0.1410969
0.26394686 0.12571035 -0.14079736
0.26494101 0.16983244 -0.14557898
0.26494101 0.19132836 -0.14435467
0.26116943 0.28242907 -0.14780012
0.26316777 -0.25942841 -0.13918675
0.22843862 -0.10259082 -0.13336682
0.23662862 -0.10123542 -0.13455281
0.23896363 -0.095138326 -0.13927603
0.24657902 -0.08293803 -0.13951269
0.284547 -0.045000486 -0.13447101
0.24657901 -0.037725296 -0.13994828
0.2835145 -0.030059244 -0.13741782
0.21559501 -0.026420742 -0.13411184
0.27821901 -0.0205901 -0.13399294
0.21559501 -0.01511091 -0.13519439
0.25654912 -0.017714022 -0.13999623
0.21559501 0.11484826 -0.13100272
0.2173605 0.13100983 -0.13698044
0.22130901 0.13843694 -0.13059899
0.26292974 0.13493317 -0.13366529
0.26253086 -0.26771435 -0.12233311
0.26488376 -0.21468022 -0.12764631
0.26494101 -0.18407334 -0.12268842
0.21559502 -0.10981647 -0.1261657
0.21559501 -0.061780095 -0.12086508
0.21559501 -0.059685726 -0.12720975
0.21559501 -0.021222821 -0.12457931
0.221266 -0.012060149 -0.12141347
0.26059249 0.00098114286 -0.12723047
0.18423425 0.017747911 -0.12791538
0.25731948 0.013684735 -0.1280684
0.27513301 0.024324909 -0.12631394
0.23413041 0.034984767 -0.12676135
0.21941683 0.053574905 -0.12296387
0.21559501 0.078237534 -0.12898906
0.21559501 0.092693515 -0.12487723
0.21559501 0.10859837 -0.12445846
0.21559501 0.11068352 -0.12509942
0.24938294 0.14315003 -0.12263221
0.2643058 0.2268552 -0.12974332
0.26201081 0.26205292 -0.12656662
0.25096491 0.3388468 -0.12897012
0.24742125 -0.337883 -0.11855709
0.2402444 -0.12434675 -0.11190841
0.24662636 -0.072391979 -0.11525819
0.21559501 -0.058318701 -0.11301814
0.23906311 -0.047936983 -0.11188892
0.26062727 -0.040881038 -0.11539324
0.2228485 -0.014310518 -0.11454447
0.27513301 -0.0024731606 -0.11420818
0.22443099 0.014767233 -0.11848956
0.221266 0.032972895 -0.1117696
0.22443099 0.047311895 -0.11572007
0.27513301 0.043892771 -0.1154388
0.27513301 0.057659648 -0.11943783
0.22443099 0.062716074 -0.11391228
0.20186587 0.073034614 -0.1154343
0.21559501 0.13456798 -0.11092126
0.28454697 0.13111106 -0.11658806
0.24403349 0.14978275 -0.11972847
0.21559501 0.15120891 -0.1164794
0.24412185 0.15817305 -0.1104371
0.25521213 0.32744899 -0.11396609
0.24966206 -0.337883 -0.10203077
0.26381171 -0.24956468 -0.10060735
0.26494101 -0.14611259 -0.10812528
0.22057487 -0.12722962 -0.10819743
0.23402876 -0.1299437 -0.10470453
0.25759417 -0.12538625 -0.10589182
0.273314 -0.12465326 -0.10684322
0.21559501 -0.1150102 -0.1054116
0.25326276 -0.079834037 -0.10955051
0.21722381 -0.063106783 -0.10224315
0.25214309 -0.063730367 -0.10179739
0.2499595 -0.055507489 -0.10752106
0.27513301 -0.044437312 -0.10157813
0.19906084 -0.022688024 -0.10114568
0.221266 0.0088334102 -0.10865638
0.27513301 0.065312073 -0.10255513
0.22443101 0.072951563 -0.10048871
0.23567128 0.086372122 -0.10857089
0.27821904 0.087803885 -0.10831544
0.2537984 0.11451613 -0.1078063
0.28328985 0.11615427 -0.10855771
0.25256404 0.12001102 -0.10301204
0.284547 0.14264116 -0.10623257
0.25148094 0.15656359 -0.10784711
0.26474065 0.22212312 -0.10623857
0.25252688 0.33818528 -0.10929249
0.26026332 -0.29070443 -0.090913318
0.26367897 -0.25244755 -0.096370891
0.26475021 -0.22334599 -0.090358675
0.2613067 -0.13655709 -0.095482126
0.25652346 -0.090563565 -0.099718526
0.27205947 -0.073128536 -0.09410613
0.22443099 -0.065923788 -0.099495173
0.221266 -0.034846313 -0.09553428
0.22443099 -0.028233495 -0.092362374
0.22443099 0.04903435 -0.098684534
0.27513301 0.059522383 -0.098024644
0.27513301 0.066357091 -0.092848182
0.221266 0.085767232 -0.091479063
0.21559501 0.10585403 -0.094924778
0.24705026 0.13059051 -0.091897495
0.284547 0.14746788 -0.099306643
0.26208502 0.16342604 -0.098939151
0.26450226 0.21803717 -0.09716022
0.2666108 0.22020677 -0.094344437
0.21821867 0.33900803 -0.093187943
0.25145447 -0.33762005 -0.080905989
0.26494101 -0.18623881 -0.084350102
0.27282962 -0.10429616 -0.08360403
0.27754286 -0.08215297 -0.08415477
0.214939 -0.074178576 -0.085187942
0.27513301 -0.068669215 -0.085094362
0.221266 -0.056031078 -0.087376803
0.21559501 -0.035208102 -0.083784312
0.27513301 -0.031458177 -0.08491651
0.22443099 -0.016265891 -0.088876568
0.22443099 0.010656661 -0.087451853
0.22443099 0.037548009 -0.089215547
0.27513301 0.046432637 -0.084582306
0.27829799 0.06117142 -0.089118309
0.27513301 0.093651049 -0.080742598
0.21559501 0.1240622 -0.08655604
0.27821901 0.12644012 -0.081830174
0.2264581 0.13376269 -0.087780237
0.24657902 0.16103546 -0.081597656
0.28454703 0.16358255 -0.0841548
0.22469433 0.17677994 -0.083194651
0.255674 0.32464236 -0.084139183
0.26436913 -0.23745866 -0.074531302
0.26494101 -0.19260395 -0.078745574
0.25471142 -0.14695916 -0.074117132
0.27189004 -0.14687194 -0.07092607
0.21633933 -0.11281833 -0.070580393
0.27829799 -0.091639645 -0.072464913
0.22443099 -0.082387105 -0.073796935
0.27829799 -0.075947724 -0.075285561
0.221266 -0.065360181 -0.077257343
0.27513301 -0.048814394 -0.078652844
0.27829799 -0.037969396 -0.075619981
0.27829799 0.0031416006 -0.075167373
0.22443099 0.03877116 -0.07607393
0.27513301 0.057343304 -0.072845824
0.27829799 0.10450932 -0.076700151
0.26296943 0.14515951 -0.071130857
0.28405899 0.14369781 -0.077017516
0.21559501 0.15835214 -0.071536236
0.24657902 0.16531023 -0.070883855
0.284547 0.16705798 -0.075704135
0.21559501 0.17970961 -0.077280119
0.26300913 0.24837345 -0.073885038
0.25705302 0.31591886 -0.072988674
0.23860593 0.339008 -0.079222515
0.25430197 -0.33158737 -0.066996261
0.25783175 -0.3093698 -0.063299328
0.25992313 -0.29386595 -0.065092333
0.2606118 -0.2874656 -0.06955038
0.26494101 -0.19712538 -0.061295561
0.26494101 -0.17698637 -0.062861137
0.26494101 -0.15909861 -0.065525696
0.21559501 -0.12343369 -0.062861964
0.25514418 -0.094647899 -0.069074683
0.27513301 -0.038563602 -0.069010377
0.19781515 -0.025040399 -0.067862302
0.221266 -0.0077956463 -0.067943081
0.27513301 0.029719399 -0.068378597
0.27829799 0.077869877 -0.062172152
0.221266 0.087772071 -0.060516685
0.27829799 0.087488651 -0.060308117
0.27513301 0.10750807 -0.062538825
0.22443099 0.12263966 -0.061792769
0.21559501 0.13732591 -0.062518433
0.284547 0.1793956 -0.061405607
0.21559501 0.18181479 -0.066990346
0.26484105 0.2169787 -0.06708017
0.23992966 -0.337883 -0.054729771
0.24295652 -0.337883 -0.058374137
0.25712493 -0.15170497 -0.059006564
0.26953453 -0.15465896 -0.050791346
0.24657901 -0.14439793 -0.059416272
0.284547 -0.14831397 -0.057289902
0.2411152 -0.12132072 -0.052941788
0.25160667 -0.12008832 -0.056249045
0.28431389 -0.12375403 -0.053567346
0.22909686 -0.10242781 -0.05529207
0.22443099 -0.077885993 -0.059105992
0.21515767 -0.045183748 -0.057245415
0.221266 -0.038030844 -0.050042953
0.21431977 -0.025040399 -0.056567319
0.27829799 -0.018327402 -0.056563642
0.22443099 -0.0093072103 -0.059129123
0.22443099 0.10793037 -0.058581039
0.22443101 0.12503283 -0.055794179
0.24996029 0.13441736 -0.056705032
0.28301513 0.1529143 -0.057336759
0.284547 0.16998678 -0.055433542
0.25027201 0.18545103 -0.056149095
0.26467985 0.22555484 -0.059096292
0.25492054 -0.32792878 -0.048304617
0.25989994 -0.29408154 -0.040989168
0.26494101 -0.19541627 -0.049162932
0.2596696 -0.15916814 -0.045501649
0.27426317 -0.10714155 -0.044255242
0.221266 -0.094973043 -0.044322092
0.27513301 -0.068636209 -0.045250207
0.214939 -0.045598261 -0.046180703
0.221266 -0.04773096 -0.049215127
0.19436792 -0.025040399 -0.043402709
0.27513301 -0.019573897 -0.044780441
0.22443098 -0.0067630988 -0.045151785
0.22443101 0.007773343 -0.043679319
0.27513301 0.032900095 -0.04411792
0.22443098 0.090501063 -0.040220276
0.27829799 0.1010206 -0.048512511
0.27513301 0.13351984 -0.042943001
0.22276393 0.15619305 -0.04705213
0.24709031 0.15751465 -0.043496758
0.28423101 0.15837847 -0.047769926
0.24657901 0.16035426 -0.045074083
0.24657901 0.18525484 -0.049402289
0.26339388 0.1923593 -0.04360424
0.26494038 0.20815066 -0.044302292
0.24093062 0.33900803 -0.046513394
0.25441605 0.33228618 -0.045193821
0.26374009 -0.2511197 -0.034778982
0.26476684 -0.22226736 -0.032565415
0.24360476 -0.16087547 -0.039117429
0.26494101 -0.16784304 -0.036803752
0.24657901 -0.14824907 -0.035633918
0.21522045 -0.12682046 -0.036026433
0.25188795 -0.11092136 -0.032195691
0.22443098 -0.081672087 -0.03698314
0.214939 -0.076789819 -0.034582153
0.27829799 -0.067414716 -0.038024463
0.27829799 -0.048269637 -0.032851122
0.221266 -0.033904854 -0.039787672
0.27829799 -0.0081773624 -0.031514406
0.27513301 0.027509879 -0.031386644
0.27513301 0.049115762 -0.037766926
0.22443099 0.07305108 -0.034514092
0.2228485 0.092756547 -0.030194331
0.27829799 0.10774121 -0.039890975
0.221266 0.11930805 -0.038992099
0.27829799 0.11996546 -0.037378274
0.221266 0.12481807 -0.032725073
0.27829802 0.12693498 -0.039591096
0.26067233 0.14354056 -0.032442573
0.26473731 0.19453827 -0.034540217
0.22891304 0.33900797 -0.032160833
0.25871599 -0.30297533 -0.021740027
0.26281357 -0.26403663 -0.021065682
0.26421359 -0.2408368 -0.02654054
0.26481876 -0.21889839 -0.02246128
0.26494101 -0.17753741 -0.026463971
0.21559501 -0.16047275 -0.020544078
0.25294942 -0.1602589 -0.025094876
0.21559501 -0.14762163 -0.027484657
0.22637774 -0.11334375 -0.020416992
0.26486254 -0.11202335 -0.02796074
0.22443099 -0.10500182 -0.022558935
0.21559501 -0.088722929 -0.025438551
0.21559501 -0.064956635 -0.026278064
0.221266 -0.062127214 -0.024504511
0.21559501 -0.048532162 -0.028997554
0.27513301 0.011238832 -0.027879216
0.221266 0.036675051 -0.025350422
0.22443101 0.044151366 -0.025310414
0.27513301 0.06511315 -0.028299518
0.22443098 0.12433587 -0.029258013
0.22443099 0.13291921 -0.026401268
0.2180406 0.16113281 -0.029768329
0.26073554 0.27691785 -0.02076989
0.23851077 -0.337883 -0.014442414
0.25843096 -0.30503651 -0.017953828
0.26178539 -0.276559 -0.019884177
0.26425993 -0.23983037 -0.014663417
0.26487195 -0.2154471 -0.010631301
0.26494101 -0.20341994 -0.017056212
0.22193627 -0.16426219 -0.019222882
0.235062 -0.16453461 -0.01403753
0.24657899 -0.15320444 -0.010566773
0.24657901 -0.13784991 -0.01240682
0.28354862 -0.13099404 -0.018359771
0.21559501 -0.12027062 -0.018138211
0.2708506 -0.11448953 -0.010525525
0.221266 -0.10976556 -0.012564782
0.22443098 -0.062474348 -0.01427117
0.221266 -0.059414022 -0.016237792
0.221266 0.0023103566 -0.016287802
0.27829799 0.0019404441 -0.017198194
0.27513301 0.020248074 -0.013284558
0.27513301 0.040928759 -0.011595789
0.27829799 0.12425119 -0.016748883
0.2231411 0.16359317 -0.010316861
0.26259077 0.25030702 -0.018700067
0.26097828 0.2740922 -0.013486793
0.26153612 -0.27887559 -0.0046409741
0.21573655 -0.16511294 -0.0030292934
0.24343839 -0.13133 -0.0020854059
0.24178784 -0.11491206 -0.0022415048
0.27324808 -0.1146729 -0.0069305347
0.27829799 -0.081081294 -0.0039263796
0.221266 -0.075764462 -0.002806542
0.2228485 -0.056305885 -0.004162557
0.27829799 -0.057473138 -0.0036305254
0.22443098 -0.036290869 -0.0052230195
0.27513301 -0.038980633 -0.0021826737
0.22443101 -0.023254018 -0.0046102833
0.27829799 -0.016805507 -0.00071170926
0.27829799 0.0050750636 -0.0045956522
0.221266 0.028860098 -0.0064592334
0.27513301 0.095554598 -0.001295465
0.221266 0.12738876 -0.0083180126
0.22443099 0.13709398 -0.0031265181
0.27513301 0.13191733 -0.0099204127
0.18903892 0.14753531 -0.0031458158
0.21881786 0.14735936 -0.0068611484
0.23997238 0.14728101 -0.0083993813
0.214939 0.15503404 -0.0021029853
0.21559501 0.18706135 -0.0085730869
0.22806247 0.19782713 -0.00076466682
0.23092875 0.19761074 -0.0065544597
0.2648387 0.19746648 -0.0093002804
0.25564575 0.32481399 -0.0093283476
0.22838053 -0.337883 0.0081065362
0.25946093 -0.29758823 0.0021666586
0.26494101 -0.19609545 0.006379284
0.21559501 -0.13727222 0.0053421073
0.22585732 -0.13075428 0.0097314036
0.26631799 -0.13079733 0.008886748
0.214939 -0.075920373 0.0079417713
0.27829799 -0.038560875 0.0064783264
0.221266 0.01491262 0.0028038784
0.27513301 0.023273414 0.0079899319
0.27513301 0.049093526 0.00097999908
0.22443099 0.053625513 0.0014531494
0.27513301 0.066465914 0.0052231345
0.221266 0.10883988 0.0064150332
0.27513301 0.10640962 0.0030990504
0.19360144 0.14706996 0.0087973559
0.24142906 0.14726585 0.0050798878
0.25067955 0.16373056 0.0040109232
0.24657901 0.1886026 0.0021455716
0.26126468 0.27195889 0.0079501932
0.25614953 0.32175285 0.00031667948
0.24996495 -0.337883 0.014140792
0.21559501 -0.12928963 0.019219907
0.221266 -0.10170735 0.016223343
0.27829799 -0.093089052 0.013283232
0.21559501 -0.075591639 0.018298902
0.27513301 -0.076836996 0.01360188
0.27829799 -0.041150302 0.011600387
0.22443098 -0.0032188445 0.017752942
0.27829799 0.0026581176 0.015202193
0.22443099 0.051622905 0.010795012
0.221266 0.062684245 0.010554679
0.221266 0.075302079 0.019166566
0.19977495 0.14678027 0.012310635
0.215267 0.15567829 0.014211423
0.27821901 0.1573668 0.015592692
0.28423324 0.1661066 0.016007913
0.22165456 0.19639012 0.019678775
0.25019935 0.19715311 0.012079053
0.26491249 0.21329859 0.017357999
0.26474458 0.22231114 0.011737497
0.27726689 0.26159483 0.01158729
0.27638537 0.27197805 0.01053847
0.25440219 0.3323704 0.0176115
0.26494101 -0.20390514 0.022444343
0.24657899 -0.1518864 0.025719207
0.21559501 -0.13494021 0.027421713
0.214939 -0.11006815 0.022841236
0.21559501 -0.10061437 0.029910848
0.221266 -0.087712876 0.027998563
0.27513301 -0.089804143 0.02534597
0.221266 -0.077398703 0.028900389
0.27829799 -0.070145346 0.02429102
0.19032866 -0.025040589 0.020209922
0.20023443 -0.025040794 0.025546685
0.27829799 -0.028932817 0.022740347
0.27829799 -0.01231074 0.026864104
0.221266 0.020061443 0.028652133
0.27671552 0.07472606 0.024050059
0.27829799 0.094436936 0.028285149
0.27513301 0.12107547 0.024468215
0.24840349 0.1962516 0.020550976
0.25822806 0.19539855 0.025922617
0.26494101 0.2044815 0.029237796
0.26494101 -0.17217526 0.038543586
0.21559501 -0.14226311 0.034423642
0.27829799 -0.097639412 0.034184203
0.21559501 -0.089409813 0.034650102
0.21559501 -0.060085617 0.035099611
0.27513301 -0.057897482 0.030651171
0.27829799 -0.033790831 0.035691082
0.2168504 -0.025040554 0.037155278
0.221266 -0.023609338 0.036427848
0.27724302 -0.018623086 0.035525624
0.27671552 0.0045865569 0.033727303
0.221266 0.013291311 0.034549855
0.27513301 0.014727123 0.031056145
0.221266 0.030333649 0.039436568
0.22443099 0.047711179 0.03610478
0.221266 0.056850288 0.038220227
0.27829799 0.076165602 0.036403067
0.19879165 0.14100292 0.037815809
0.26782894 0.1400944 0.039907709
0.26038885 0.15982813 0.031159999
0.21559501 0.17447993 0.038750954
0.24657901 0.17051099 0.032687493
0.26493052 0.21233214 0.03596573
0.26434392 -0.23800638 0.044559751
0.26491511 -0.21264465 0.049944341
0.26494101 -0.19954649 0.046419524
0.26284376 -0.15796745 0.046790011
0.24106848 -0.12461673 0.040450491
0.25550419 -0.1215781 0.048627716
0.214939 -0.10395188 0.042116348
0.214939 -0.097638652 0.047487617
0.27513301 -0.099294543 0.041063868
0.221266 -0.039875805 0.041638918
0.22443098 -0.0073407646 0.048155095
0.221266 0.036636494 0.047572713
0.27513301 0.10485911 0.046516545
0.18523411 0.13697335 0.048202977
0.22605599 0.13985363 0.040556032
0.23325974 0.13985915 0.04054115
0.26096532 0.13791768 0.045766093
0.22100435 0.15375414 0.049992129
0.26462737 0.22860023 0.048860546
0.26433915 0.23744327 0.046967201
0.26406342 0.24320938 0.045174647
0.2582894 0.30678171 0.043374091
0.23190799 0.339008 0.049231656
0.24802482 0.339008 0.045319296
0.2573759 -0.31266659 0.05742735
0.26284078 -0.26368266 0.055153172
0.26393914 -0.24679744 0.053023003
0.22432888 -0.15699582 0.050397433
0.24657901 -0.14545387 0.057272766
0.23906299 -0.12029234 0.052087713
0.2438824 -0.10187748 0.052790262
0.21559501 -0.096008703 0.057858475
0.221266 -0.094567955 0.053518385
0.27513301 -0.097629711 0.05993266
0.27513301 -0.088597037 0.059279781
0.22443101 0.0088551054 0.051199771
0.27513301 0.018127132 0.051572204
0.22443098 0.041985787 0.053037431
0.221266 0.078050949 0.053817607
0.22443099 0.1121862 0.059078217
0.27671552 0.11506774 0.05602818
0.21559501 0.14722513 0.054694526
0.21559501 0.15982333 0.055177629
0.22411858 0.1504329 0.057388261
0.27435085 0.15274993 0.052671339
0.21559501 0.16433677 0.059228461
0.24657901 0.16454652 0.059832841
0.26450479 0.23364942 0.0559806
0.26364368 0.25199455 0.050786741
0.26060039 0.28778398 0.054272842
0.22060856 0.33900803 0.057787154
0.22798905 -0.337883 0.067609772
0.24752219 -0.337883 0.060558893
0.25628442 -0.31986225 0.060808375
0.21559501 -0.14681527 0.06780643
0.24657899 -0.14042091 0.063139752
0.25633311 -0.14811349 0.064777263
0.24477659 -0.11369547 0.065550119
0.26786429 -0.097019538 0.061643161
0.27671552 -0.086086892 0.065480962
0.2182069 -0.025040723 0.066597074
0.221266 -0.012909539 0.063042156
0.221266 0.00095712394 0.066750184
0.22443098 0.018146181 0.06284976
0.27829799 0.018910982 0.063757144
0.221266 0.038421217 0.066720352
0.22443101 0.059209049 0.067019731
0.27513301 0.051080406 0.068397343
0.27829799 0.10333683 0.063205801
0.22161601 0.12869515 0.063260779
0.26118454 0.12528512 0.068674132
0.24573216 0.14559633 0.066807739
0.22981036 0.18490943 0.062929995
0.23401946 0.18326408 0.067045301
0.24521407 0.18372148 0.065986454
0.26468518 0.2254988 0.06999597
0.2584134 0.30586606 0.067888282
0.25688946 0.31712753 0.060581591
0.22718902 -0.337883 0.072705746
0.25616309 -0.32057977 0.078892007
0.26340938 -0.25628513 0.072898194
0.24657901 -0.12194821 0.079795972
0.21559501 -0.11802893 0.072647959
0.21560794 -0.10715745 0.075897187
0.27470604 -0.085925862 0.072493464
0.214939 -0.052338067 0.07985346
0.18659948 -0.025040513 0.071058922
0.221266 0.0070723649 0.071034357
0.27795357 0.031633835 0.071698591
0.22443099 0.068391308 0.074332684
0.22443101 0.084341295 0.074877523
0.27729708 0.085207045 0.077973731
0.26547411 0.117253 0.078968659
0.27771366 0.11138572 0.073993139
0.214939 0.12996596 0.076465249
0.23179823 0.12403648 0.070295818
0.24657899 0.14543796 0.075175777
0.28353304 0.14026588 0.076776892
0.21559501 0.17640716 0.078686297
0.25335559 0.17650738 0.073509231
0.26109129 0.2831648 0.078524373
0.239153 0.339008 0.078501999
0.2649377 -0.21117979 0.083231121
0.26494101 -0.19903812 0.08267799
0.21559501 -0.10200544 0.088091433
0.221266 -0.070701987 0.085274041
0.27417326 -0.060974419 0.088115446
0.27212313 -0.050044514 0.084807724
0.22443101 -0.031833131 0.080461308
0.22443099 -0.025502186 0.080652386
0.22443099 -0.0040213419 0.08965914
0.27053201 -0.0022165589 0.089089155
0.22443098 0.0039652232 0.088397354
0.27290255 0.029429957 0.082257867
0.221266 0.047140595 0.086846888
0.22443098 0.095802799 0.088300966
0.2715677 0.090748012 0.086625047
0.22294059 0.11123654 0.085358411
0.21559501 0.1359961 0.080232479
0.24657902 0.1399205 0.087343469
0.2582466 0.13656282 0.080522612
0.24657902 0.15474443 0.086777754
0.25581783 0.16918041 0.086473003
0.22373813 0.17387319 0.084942713
0.26494026 0.20162164 0.081743732
0.25842243 -0.3050983 0.094157353
0.26483008 -0.2181627 0.096881196
0.28431633 -0.1281385 0.094631746
0.21559501 -0.098719172 0.097881675
0.27980307 -0.094186038 0.092249207
0.28238398 -0.088425986 0.098999672
0.24454179 -0.06324935 0.098519117
0.221266 -0.054516405 0.09193825
0.26956764 -0.055473302 0.097107075
0.26486182 -0.0075634457 0.099462017
0.22443099 0.0063043009 0.099148825
0.22443101 0.026343236 0.095775247
0.27224013 0.036340646 0.092062779
0.2661151 0.060769603 0.097547404
0.21419317 0.10418677 0.094049454
0.23279965 0.10453648 0.091597825
0.21530591 0.12564635 0.093949549
0.24100044 0.12333605 0.096002012
0.22818513 0.16762623 0.094836377
0.26483318 0.21755472 0.099450991
0.26054919 0.28826728 0.096501745
0.25978866 -0.29511571 0.1075751
0.26488745 -0.21444106 0.10062997
0.25302944 -0.12686074 0.10035582
0.28247583 -0.11992613 0.10829439
0.21559501 -0.088788278 0.1048134
0.284547 -0.085320935 0.10761361
0.214939 -0.06616956 0.10861272
0.21559501 -0.038537495 0.10924905
0.22443099 -0.022454232 0.10070866
0.221266 -0.014468765 0.10178654
0.25723696 0.028028017 0.10968526
0.221266 0.039848432 0.10755317
0.23591569 0.11296899 0.10553505
0.21559501 0.12286414 0.10198763
0.24657899 0.14389615 0.10757495
0.28232309 0.15716365 0.10276002
0.26493913 0.2044875 0.10675395
0.26396605 0.24524793 0.10474803
0.25575367 0.32415822 0.10582949
0.25739458 -0.31253144 0.11998535
0.24787214 -0.1134396 0.11469911
0.28115034 -0.11314861 0.11600666
0.21559501 -0.10584158 0.11243106
0.24657899 -0.10112247 0.11751683
0.24657899 -0.086690307 0.1106675
0.215267 -0.024963321 0.11555953
0.1899427 -0.011292014 0.11457884
0.25544721 -0.019913245 0.11162662
0.18296233 -0.0077562695 0.11738802
0.22443099 -0.0027203895 0.11302756
0.25616843 -0.00074739754 0.11427617
0.25168896 0.002205248 0.11872953
0.22443098 0.049545832 0.1119894
0.221266 0.058114104 0.11239088
0.1859538 0.064451687 0.1158866
0.25471681 0.064248562 0.11575502
0.2782065 0.072144188 0.11241796
0.25740099 0.096673951 0.11740001
0.2637642 0.092450865 0.11983708
0.21559501 0.10627434 0.11514437
0.23299718 0.10387589 0.11249298
0.21559501 0.11084526 0.11225464
0.24657899 0.13374637 0.11791149
0.23365849 0.1469751 0.11950071
0.284547 0.14046341 0.1130208
0.24720651 0.15196894 0.11421206
0.21416536 0.33900803 0.11235109
0.26131999 -0.28088418 0.12306713
0.26393706 -0.2468425 0.12617669
0.284547 -0.087168798 0.12308905
0.23702982 -0.0545265 0.12286118
0.24657901 -0.052032728 0.12417047
0.24657902 -0.049244475 0.12671289
0.27868885 -0.040136185 0.12956168
0.214939 -0.033349391 0.12498231
0.24434462 -0.015706714 0.1205923
0.25323969 0.0051686466 0.12398934
0.21892421 0.014864547 0.12439494
0.20670295 0.026124422 0.12430657
0.27821901 0.025677726 0.1252109
0.18134885 0.038673885 0.12281719
0.24657902 0.079321206 0.12731744
0.23460993 0.08175727 0.1254963
0.24657901 0.085771888 0.1266053
0.21559501 0.13244966 0.12699105
0.24778986 0.13322254 0.12779114
0.26494101 0.16032586 0.1219183
0.26443544 0.23542961 0.1217002
0.26301122 0.26111174 0.12571982
0.2578162 0.31028029 0.12988573
0.22039832 0.339008 0.12788667
0.26494101 -0.20785247 0.13012742
0.26494098 -0.15217145 0.13175066
0.23448655 -0.097713791 0.13421932
0.24657901 -0.080820724 0.13133141
0.28292078 -0.088549703 0.13623109
0.21559501 -0.079479091 0.1372133
0.24657901 -0.04247972 0.13222292
0.28423864 -0.03527287 0.13361582
0.21559501 -0.022607526 0.13430743
0.22084323 -0.028681921 0.13350657
0.24122642 -0.022257037 0.13527881
0.24937057 0.0077060815 0.13996223
0.27821901 0.012720216 0.13797411
0.22634037 0.024542933 0.13998273
0.25801691 0.05062237 0.13631979
0.21559501 0.099218056 0.13867828
0.26532808 0.12152033 0.13672882
0.26394504 0.24568526 0.13303778
0.2633695 0.25646031 0.13556801
0.21964666 -0.337883 0.14962849
0.2311306 -0.080088571 0.14623484
0.2500082 -0.081333391 0.14188543
0.21559501 -0.06093663 0.14075607
0.21559501 0.029340893 0.14443174
0.284547 0.023948956 0.14501821
0.284547 0.0540618 0.14253621
0.24657899 0.061150875 0.14209203
0.26494101 0.11441121 0.14972812
0.22751673 0.1218695 0.14036185
0.26488996 0.21450707 0.14805838
0.26083887 0.28554079 0.14923175
0.25921977 0.2999087 0.14853556
0.25910914 0.30072612 0.14105359
0.26494101 -0.1585 0.1538354
0.26918197 -0.061309367 0.15265267
0.26641488 -0.044231951 0.15957296
0.27859262 -0.046737116 0.15871014
0.24657902 -0.025411801 0.15314734
0.21559501 -0.0088323532 0.15126291
0.284547 0.032913804 0.15030736
0.23709372 0.087451242 0.15919149
0.284547 0.080008119 0.15072307
0.26494101 0.12219844 0.15742806
0.26494101 0.18828537 0.1517051
0.2552633 0.32713795 0.15172584
0.22223522 0.33900803 0.15578476
0.26101267 -0.2837404 0.16413881
0.26303199 -0.26119503 0.16389239
0.26477426 -0.22178429 0.16937992
0.26494101 -0.10068001 0.16411969
0.26494101 -0.082869813 0.16587232
0.23229501 -0.043832354 0.16310292
0.25106657 -0.038967479 0.16138613
0.27757671 -0.019673074 0.16640151
0.25730175 -0.0090730768 0.16803338
0.21559501 0.013388439 0.16029319
0.25105304 0.010607155 0.16972086
0.27572793 0.016986296 0.16996151
0.26440367 0.027723748 0.16945387
0.27839673 0.042115897 0.16798216
0.284547 0.056633111 0.1603466
0.23300299 0.065008394 0.16660921
0.26376045 0.065906048 0.16638669
0.2350571 0.0730014 0.16434345
0.26494101 0.07888104 0.16818674
0.23286811 0.082530774 0.16098161
0.26494101 0.16666248 0.16425276
0.26067421 0.28709185 0.16437246
0.24778539 0.339008 0.16742432
0.2627582 -0.26475644 0.17762923
0.26494101 -0.1628848 0.1782894
0.26494101 -0.070317522 0.17012465
0.26494101 -0.02338212 0.17882252
0.24215925 -0.0077031199 0.17145163
0.22344841 0.001565741 0.17244485
0.2252599 0.017552055 0.17310518
0.24667627 0.031795301 0.1724117
0.25028118 0.03217506 0.17239319
0.26355544 0.25382802 0.17862315
0.25735986 0.3136521 0.17665422
0.24085428 0.339008 0.17224985
0.23102228 -0.337883 0.18955511
0.25770319 -0.31029963 0.18339756
0.2585699 -0.30403182 0.18585715
0.26494101 -0.17085655 0.18806785
0.26494101 -0.1336076 0.18903823
0.26494101 -0.03129717 0.18920705
0.26494101 0.013152931 0.18436939
0.26494101 0.027282476 0.18169239
0.26494101 0.046568424 0.18057913
0.26494101 0.060541768 0.18296985
0.26494101 0.1152107 0.18308431
0.25925574 0.30212194 0.18501349
0.25668925 0.31847334 0.18453416
0.26494101 0.010479367 0.19927384
0.26494101 0.041153356 0.19039564
0.26494098 0.054972127 0.19602337
0.26494101 0.075462133 0.19833428
0.26494101 0.16703041 0.19583182
0.2645784 0.23121609 0.19141138
0.2582776 0.30687144 0.19536367
0.25840327 -0.30523682 0.20801295
0.26494101 -0.21093088 0.20006318
0.26494101 -0.11469913 0.20351908
0.26494101 -0.082616009 0.20958787
0.26494101 -0.075500973 0.20709696
0.26494101 -0.047839932 0.20223209
0.26494101 0.020027887 0.20568274
0.26494101 0.16671795 0.20887741
0.26493964 0.1970779 0.2048178
0.26185906 0.27593452 0.20359641
0.26042491 0.29933748 0.20025858
0.25798234 0.30905282 0.20134592
0.25744286 0.31303883 0.20389242
0.21783093 -0.337883 0.21098138
0.24155296 -0.337883 0.21853904
0.26494101 -0.20716627 0.21696696
0.26494101 -0.13527271 0.21918425
0.26494101 -0.027700957 0.21808545
0.26494101 -0.00092188327 0.21772015
0.26494101 0.0086715445 0.21568668
0.26494101 0.016296152 0.21899053
0.26494101 0.062564477 0.21109907
0.26494101 0.10419901 0.21766073
0.26494101 0.13351235 0.21202052
0.26494101 0.17514029 0.21356356
0.26494101 0.18072146 0.21564846
0.26471257 0.22403257 0.21374635
0.25286976 -0.3367267 0.22848603
0.26425952 -0.23983885 0.22842947
0.26481202 -0.21933489 0.22429711
0.26494101 -0.088795714 0.22881015
0.26494101 0.16095099 0.22050716
0.26494101 0.18264829 0.22648042
0.26488441 0.21480554 0.2296477
0.26454404 0.23302999 0.22328472
0.23331085 0.33900803 0.22774923
0.23357594 -0.33620459 0.23119868
0.24709593 -0.27864558 0.23146245
0.24643043 -0.26439944 0.23146234
0.25394678 -0.25347662 0.23145917
0.24748495 -0.22618715 0.23146069
0.22616795 -0.20193072 0.23146942
0.21652752 -0.17340201 0.23147237
0.24889806 -0.16962983 0.23146147
0.24395895 -0.15470271 0.23146258
0.22317208 -0.13196531 0.23147035
0.24457633 -0.13967808 0.23146275
0.26069486 -0.13748062 0.23180321
0.24159655 -0.071859591 0.23146427
0.22606176 -0.062796146 0.23146945
0.2324573 -0.056007005 0.23146623
0.25775397 0.037197426 0.23178367
0.26271838 0.031511977 0.23163071
0.23353779 0.077149406 0.23162273
0.22073296 0.1095522 0.23154302
0.23825535 0.1236543 0.23165408
0.25368792 0.1646926 0.23175664
0.2646513 0.16197881 0.23019539
0.21127088 0.21700862 0.23173386
0.23014531 0.21788445 0.23186427
0.21934085 0.25300238 0.23205195
0.22404081 0.27804577 0.23226726
0.25338829 0.27786821 0.232596
0.21807092 0.28388739 0.23227108
0.26022577 0.2888701 0.23085219
0.22477677 0.31169629 0.23258716
0.21831673 0.32133111 0.23257653
0.23875627 0.32839039 0.23259515
